# .PCD v0.7 - Point Cloud Data file format
VERSION 0.7
FIELDS x y z
SIZE 4 4 4
TYPE F F F
COUNT 1 1 1
WIDTH 1446
HEIGHT 1
VIEWPOINT 0 0 0 1 0 0 0
POINTS 1446
DATA ascii
13.476662 -4.7389455 -0.5345282
17.072834 -6.0035067 -0.52658606
23.314232 -8.1982374 -0.51356667
36.672989 -12.895723 -0.48465565
1.9834155 -0.67016327 -0.56097084
2.0530753 -0.69370019 -0.56141114
2.1152153 -0.71469623 -0.55864388
2.1924098 -0.74077898 -0.55863601
2.2897716 -0.77367592 -0.56222832
2.3638835 -0.79871714 -0.5586077
2.4636483 -0.83242595 -0.55952859
2.5744042 -0.86984861 -0.56109446
2.6635628 -0.89997381 -0.55620503
2.7926338 -0.94358474 -0.55774117
2.922785 -0.98756069 -0.5572173
3.064363 -1.0353975 -0.55648988
3.2280779 -1.0907141 -0.55710441
3.4075387 -1.1513509 -0.55742455
3.5985091 -1.2158767 -0.5563786
3.8170376 -1.2897139 -0.5560028
4.0692544 -1.3749337 -0.55640429
4.3338127 -1.4643236 -0.55396193
4.6601415 -1.5745847 -0.55423367
5.0246267 -1.6977383 -0.55298382
5.4530535 -1.8424965 -0.551817
5.9632373 -2.0148792 -0.55069107
6.5845513 -2.2248108 -0.54990262
7.3432069 -2.4811482 -0.54847926
8.2922421 -2.8018112 -0.54629654
9.51686 -3.2155895 -0.54320282
11.179577 -3.7773941 -0.53978759
13.52609 -4.5702419 -0.53421926
17.150942 -5.7950196 -0.52675754
23.399364 -7.9062586 -0.51326168
36.814735 -12.43909 -0.48447084
1.9994469 -0.64830035 -0.56320775
2.0611191 -0.66829687 -0.56132114
2.1228166 -0.68830168 -0.55837387
2.1999452 -0.71330994 -0.55827898
2.2927327 -0.74339533 -0.56066859
2.3758607 -0.77034867 -0.55915725
2.4632244 -0.79867554 -0.55715978
2.5598233 -0.82999671 -0.55565012
2.6873951 -0.87136054 -0.55890203
2.8030701 -0.908867 -0.55755132
2.9424744 -0.95406741 -0.55869216
3.0851071 -1.0003146 -0.55798113
3.2429948 -1.0515081 -0.55740523
3.4015927 -1.1029319 -0.55419135
3.6083694 -1.1699771 -0.55563676
3.821954 -1.2392297 -0.55445737
4.0784764 -1.3224045 -0.55539989
4.3612838 -1.414102 -0.55520874
4.6595922 -1.5108254 -0.55191708
5.0484085 -1.6368952 -0.55334407
5.4685149 -1.7731104 -0.55113363
5.9780836 -1.9383329 -0.54981947
6.5904675 -2.1368921 -0.54816085
7.3689265 -2.3892996 -0.54816443
8.3117046 -2.6949859 -0.54535437
9.561058 -3.100076 -0.54350871
11.227669 -3.6404576 -0.53990746
13.588252 -4.4058528 -0.53449428
17.227358 -5.5857959 -0.52695513
23.503107 -7.6206441 -0.51344299
36.945004 -11.979042 -0.4842101
1.9861959 -0.61712021 -0.55729556
2.0644867 -0.64144552 -0.56004786
2.1292698 -0.66157389 -0.55788934
2.2168815 -0.68879521 -0.56038511
2.3005502 -0.71479148 -0.56038851
2.386565 -0.74151671 -0.5594883
2.4711022 -0.76778275 -0.55676407
2.5707378 -0.79874003 -0.55584532
2.6955435 -0.83751774 -0.55841267
2.8188741 -0.87583715 -0.55851048
2.9480805 -0.91598219 -0.55757588
3.1006677 -0.96339172 -0.55861068
3.2486279 -1.0093637 -0.55619812
3.4297481 -1.0656385 -0.55660158
3.6280785 -1.1272606 -0.55649519
3.852618 -1.197026 -0.55672842
4.0920815 -1.2714286 -0.55508167
4.3741493 -1.3590682 -0.55467713
4.7080107 -1.4628005 -0.55547959
5.0601883 -1.5722238 -0.55247444
5.5129199 -1.7128896 -0.55344433
6.0057425 -1.8660117 -0.55021137
6.632771 -2.0608323 -0.54953015
7.407382 -2.3015077 -0.54887837
8.3591738 -2.5972338 -0.54633212
9.5890064 -2.9793482 -0.54297376
11.275739 -3.5034237 -0.54010659
13.651016 -4.2414336 -0.53487116
17.282217 -5.3696642 -0.52657372
23.589546 -7.32938 -0.51332361
37.068539 -11.517365 -0.48393649
1.9927853 -0.59240001 -0.55705845
2.0694222 -0.61518204 -0.55929238
2.1280174 -0.63260078 -0.55548114
2.2273455 -0.66212827 -0.56092972
2.3013163 -0.68411773 -0.55848372
2.3903997 -0.71059972 -0.55829662
2.4842186 -0.73848957 -0.55763119
2.6011219 -0.77324164 -0.56031674
2.7135623 -0.80666709 -0.56004822
2.8246243 -0.83968276 -0.55756181
2.9674501 -0.88214087 -0.55914539
3.0987854 -0.92118329 -0.55618876
3.2789304 -0.97473544 -0.55929184
3.4401433 -1.0226595 -0.55620575
3.6542637 -1.0863116 -0.55842048
3.8706701 -1.1506432 -0.55725032
4.0951872 -1.217386 -0.5534305
4.3784518 -1.3015928 -0.55315143
4.6957388 -1.3959135 -0.55196482
5.0819111 -1.5107117 -0.55277616
5.5187683 -1.6405773 -0.55196452
6.0350723 -1.7940602 -0.55083567
6.6535959 -1.9779303 -0.54919893
7.4260654 -2.2075641 -0.54820991
8.374939 -2.4896381 -0.54532045
9.6208525 -2.8600135 -0.54274464
11.303843 -3.3603203 -0.53943276
13.696277 -4.0715246 -0.53464246
17.342833 -5.1555448 -0.5264492
23.666901 -7.0355158 -0.51308554
37.197731 -11.057858 -0.48381141
1.9916962 -0.56551826 -0.5547682
2.0707433 -0.58796269 -0.55765331
2.1454926 -0.60918683 -0.55804515
2.2204003 -0.63045597 -0.55718619
2.3124657 -0.65659684 -0.55918783
2.4067414 -0.68336529 -0.56010842
2.4970751 -0.70901453 -0.55851787
2.5880499 -0.7348457 -0.55551243
2.7013743 -0.76702279 -0.5555442
2.8264008 -0.80252254 -0.55592257
2.9770393 -0.84529459 -0.55895156
3.1044652 -0.88147557 -0.55522078
3.2789996 -0.93103254 -0.55730873
3.4580567 -0.98187363 -0.55710781
3.671545 -1.0424911 -0.55906016
3.8873878 -1.1037771 -0.557661
4.1219873 -1.1703888 -0.55506545
4.3975878 -1.2486423 -0.55358738
4.71772 -1.3395399 -0.55257058
5.0981746 -1.4475654 -0.5525673
5.5281272 -1.5696453 -0.55092847
6.0607133 -1.7208668 -0.55120295
6.6745429 -1.8951563 -0.54896289
7.4537525 -2.1164036 -0.54829121
8.4086733 -2.3875418 -0.54556412
9.6604004 -2.7429547 -0.54303187
11.350009 -3.2226989 -0.53970397
13.732713 -3.8992388 -0.53415281
17.388481 -4.9372506 -0.52595222
23.733377 -6.7388072 -0.5126915
37.304867 -10.592269 -0.48347425
2.0231793 -0.54766732 -0.56161922
2.0893092 -0.56556845 -0.56073785
2.1522942 -0.5826183 -0.55790871
2.2336495 -0.60464084 -0.55860299
2.325948 -0.62962574 -0.56053352
2.3981411 -0.64916819 -0.55620718
2.5061517 -0.67840624 -0.55863994
2.6078322 -0.70593077 -0.55785316
2.7226069 -0.73699987 -0.5580048
2.8409662 -0.76903927 -0.5568853
2.9896846 -0.80929685 -0.55941498
3.1307573 -0.84748471 -0.55801708
3.2996151 -0.89319396 -0.55890363
3.4565699 -0.93568105 -0.55497277
3.6753261 -0.99489754 -0.55773091
3.8803949 -1.050409 -0.55476302
4.1434484 -1.1216166 -0.55605614
4.4269056 -1.1983474 -0.55538106
4.7421265 -1.2836765 -0.55353862
5.1103616 -1.3833566 -0.55200279
5.5616398 -1.5055158 -0.55238158
6.0719905 -1.643666 -0.55034882
6.7045798 -1.8149056 -0.54955631
7.4780545 -2.0242825 -0.54820639
8.4343719 -2.283154 -0.54536873
9.6968327 -2.6248977 -0.54322445
11.377431 -3.0798295 -0.53916633
13.7714 -3.7278686 -0.53383422
17.450468 -4.7237787 -0.52603042
23.79528 -6.4412966 -0.51227903
37.422817 -10.130222 -0.48335198
2.0267737 -0.5219807 -0.56079286
2.0856726 -0.53714973 -0.55794698
2.1679595 -0.55834204 -0.56014729
2.2351358 -0.57564282 -0.55716234
2.332402 -0.60069305 -0.56026649
2.4034784 -0.61899823 -0.55563772
2.5220392 -0.64953274 -0.56035864
2.6085658 -0.671817 -0.55620098
2.7325969 -0.70376033 -0.55823648
2.8410006 -0.7316789 -0.55508655
2.977349 -0.76679444 -0.55530053
3.1289659 -0.80584222 -0.55588961
3.3108351 -0.85268134 -0.55898589
3.4708562 -0.8938936 -0.55545974
3.6777294 -0.94717222 -0.55628616
3.9027314 -1.0051198 -0.55614734
4.1533785 -1.0696722 -0.55558157
4.4267092 -1.1400664 -0.55355579
4.7586522 -1.225556 -0.55366671
5.1291075 -1.3209641 -0.55223137
5.5802031 -1.4371405 -0.55242836
6.1082549 -1.5731363 -0.55184072
6.7227902 -1.7314054 -0.54926234
7.4994354 -1.9314247 -0.54799134
8.4688358 -2.1810868 -0.54582179
9.732151 -2.5064442 -0.54343534
11.426527 -2.9428182 -0.53973734
13.812292 -3.5572546 -0.53368342
17.509211 -4.5093684 -0.52608991
23.876196 -6.1491389 -0.51235443
37.534229 -9.6666651 -0.48321915
2.0376489 -0.49814805 -0.56206459
2.0983803 -0.51299518 -0.55961668
2.1815703 -0.53333282 -0.56192708
2.2570858 -0.55179423 -0.56090021
2.3337741 -0.5705424 -0.55886859
2.4219999 -0.59211111 -0.5581941
2.5306969 -0.61868453 -0.56054962
2.6426876 -0.64606303 -0.56174004
2.735781 -0.66882181 -0.55716473
2.8658006 -0.70060796 -0.55820662
2.9964616 -0.73255092 -0.55714309
3.1603675 -0.77262133 -0.55973822
3.3114688 -0.80956137 -0.55737001
3.4849916 -0.85198283 -0.55600321
3.6876135 -0.90151817 -0.5560624
3.9143159 -0.95694059 -0.55607927
4.1585331 -1.0166448 -0.55455691
4.4492321 -1.0877126 -0.55465788
4.76477 -1.1648527 -0.55267018
5.1563601 -1.2605857 -0.55345482
5.5967937 -1.3682593 -0.55236346
6.117764 -1.4956219 -0.55099666
6.7466154 -1.6493585 -0.54951036
7.5128498 -1.8366812 -0.54727983
8.4989738 -2.0777612 -0.54607624
9.7560806 -2.3850884 -0.54309279
11.457073 -2.8009336 -0.53951252
13.86366 -3.3892765 -0.5340175
17.558153 -4.2924767 -0.52593482
23.943081 -5.8534126 -0.51220649
37.614201 -9.1956186 -0.48275653
2.0401762 -0.47225928 -0.56111747
2.0925572 -0.48438442 -0.5564332
2.1790571 -0.50440741 -0.55963981
2.2759786 -0.52684271 -0.56394261
2.3397105 -0.54159534 -0.55865312
2.4328799 -0.56316221 -0.55906337
2.5310504 -0.58588666 -0.55898988
2.6366606 -0.61033326 -0.55882138
2.7400029 -0.63425493 -0.55639416
2.8704929 -0.66446072 -0.55748701
3.0034769 -0.69524384 -0.5568158
3.1417236 -0.72724509 -0.5548104
3.3238776 -0.76941001 -0.55782396
3.4950652 -0.80903649 -0.55598122
3.7032211 -0.85722035 -0.55678433
3.9190757 -0.90718633 -0.55512881
4.172111 -0.9657588 -0.55474198
4.4614339 -1.0327312 -0.55455393
4.7977076 -1.1105717 -0.5548647
5.1612868 -1.1947329 -0.55236501
5.6112084 -1.2988806 -0.55216801
6.1209774 -1.4168817 -0.54967535
6.7603083 -1.5648738 -0.54901677
7.537343 -1.7447416 -0.54745984
8.5087891 -1.9696115 -0.54510951
9.7805672 -2.2640023 -0.5428651
11.484408 -2.6584067 -0.53921962
13.904033 -3.2185006 -0.53400779
17.60647 -4.0755396 -0.52584124
24.005335 -5.556747 -0.51203787
37.709827 -8.7290583 -0.48256972
2.017338 -0.44091156 -0.55330324
2.1142323 -0.46208888 -0.56064349
2.1934037 -0.47939268 -0.561768
2.2609618 -0.49415827 -0.55867392
2.3364444 -0.51065582 -0.55633193
2.4427798 -0.53389657 -0.55978739
2.5486236 -0.5570299 -0.56131577
2.6251388 -0.57375318 -0.55484223
2.7651689 -0.60435826 -0.55995303
2.879282 -0.62929899 -0.5576489
3.0062537 -0.65705007 -0.55579072
3.161041 -0.69088054 -0.55667943
3.3217342 -0.7260018 -0.55592406
3.4982955 -0.76459122 -0.55495751
3.7022491 -0.80916756 -0.55510026
3.9329038 -0.85957968 -0.55554831
4.1691856 -0.91122168 -0.5528214
4.4551449 -0.97372121 -0.55224216
4.8079033 -1.0508206 -0.55450755
5.1819668 -1.1325762 -0.55304593
5.6306901 -1.2306497 -0.55255425
6.1417246 -1.3423419 -0.55001462
6.7834702 -1.4826026 -0.54937577
7.5781054 -1.6562788 -0.54889977
8.543807 -1.8673435 -0.54584062
9.8057909 -2.1431642 -0.54276139
11.507694 -2.5151339 -0.53882015
13.928292 -3.0441825 -0.53346157
17.653255 -3.8583145 -0.52578181
24.075041 -5.2618666 -0.51210582
37.802223 -8.2620945 -0.48241556
2.0333095 -0.41827568 -0.55623108
2.1022813 -0.43246397 -0.55602223
2.1803908 -0.44853202 -0.55698049
2.2761807 -0.46823713 -0.56096935
2.3595951 -0.48539641 -0.56038082
2.4433177 -0.50261915 -0.55845213
2.5401475 -0.52253819 -0.55799168
2.6309214 -0.54121143 -0.55461586
2.763756 -0.56853712 -0.55820906
2.8775163 -0.59193891 -0.55585515
3.0261109 -0.62250656 -0.5580045
3.1748979 -0.65311384 -0.55766326
3.3341379 -0.68587136 -0.55654639
3.5099142 -0.72203058 -0.55535024
3.7193739 -0.76511896 -0.55621523
3.9517064 -0.81291246 -0.55675024
4.1903372 -0.8620016 -0.55417866
4.4828906 -0.92218322 -0.55423391
4.8291183 -0.99340641 -0.55550349
5.1856732 -1.0667539 -0.55199981
5.6317644 -1.1585201 -0.55122
6.1619263 -1.2675806 -0.55038631
6.8108101 -1.4010637 -0.55015308
7.5830126 -1.5599148 -0.54782444
8.5555239 -1.7599717 -0.54516536
9.824707 -2.0210576 -0.54239184
11.537342 -2.3733668 -0.53880113
13.975525 -2.8749297 -0.53387624
17.706793 -3.6424954 -0.52600259
24.133379 -4.9645195 -0.5120095
37.90435 -7.7973704 -0.4824588
2.0737293 -0.40007892 -0.56589973
2.1080072 -0.40669209 -0.55617195
2.1913447 -0.42277014 -0.5584085
2.2647464 -0.43693134 -0.55678511
2.357342 -0.45479554 -0.55847538
2.4499817 -0.47266826 -0.5586046
2.5487237 -0.49171829 -0.55850518
2.6481266 -0.51089585 -0.55687642
2.7551656 -0.53154653 -0.55511189
2.8913889 -0.55782771 -0.55716783
3.0277228 -0.58413029 -0.55693519
3.1826751 -0.61402482 -0.55766094
3.3510323 -0.64650548 -0.55799723
3.5243764 -0.67994827 -0.55627352
3.7249296 -0.71864051 -0.55568254
3.9649332 -0.76494372 -0.55724639
4.1987066 -0.810045 -0.55392635
4.483716 -0.865031 -0.55297905
4.8278975 -0.93143302 -0.55400366
5.2032547 -1.0038496 -0.55251557
5.6595092 -1.0918736 -0.5525797
6.1847196 -1.1932011 -0.55107003
6.8164353 -1.3150762 -0.54925972
7.5906453 -1.4644424 -0.54703355
8.5839767 -1.6560831 -0.54563951
9.8311729 -1.8967012 -0.54142028
11.578264 -2.2337627 -0.53938872
14.009781 -2.7028687 -0.53387487
17.747461 -3.4239693 -0.52592021
24.197266 -4.6683125 -0.51210839
37.971577 -7.3257523 -0.48213142
2.0531192 -0.36997882 -0.55899167
2.1195529 -0.38195041 -0.55793679
2.1852221 -0.39378425 -0.55557239
2.2885015 -0.41239551 -0.56133616
2.3590121 -0.42510176 -0.55759048
2.4565771 -0.44268328 -0.55882502
2.5619278 -0.46166784 -0.5601123
2.6734831 -0.48177046 -0.56092048
2.7763143 -0.50030094 -0.55809122
2.8993671 -0.52247554 -0.55742508
3.02618 -0.5453276 -0.55537593
3.1953483 -0.57581228 -0.55859864
3.3393843 -0.60176808 -0.55478364
3.5189979 -0.63413501 -0.55415201
3.7407396 -0.6740936 -0.5567624
3.9559715 -0.71287912 -0.55471295
4.2116728 -0.75895727 -0.55436379
4.5041866 -0.81166923 -0.55423093
4.8264914 -0.86974967 -0.55257332
5.2114663 -0.93912339 -0.55211955
5.6554832 -1.0191367 -0.55092138
6.1831999 -1.114233 -0.54967225
6.8237309 -1.2296588 -0.54858774
7.6229153 -1.3736745 -0.54810047
8.5852623 -1.5470924 -0.54447085
9.8638678 -1.7775015 -0.54197621
11.593831 -2.0892465 -0.53887635
14.036675 -2.5294552 -0.53367418
17.785299 -3.2049696 -0.5258339
24.231239 -4.366549 -0.51165235
38.047947 -6.8563652 -0.48199418
2.0544465 -0.34419286 -0.55815852
2.1399193 -0.35851264 -0.56209493
2.1954989 -0.3678242 -0.55699319
2.2793384 -0.38187027 -0.55789459
2.3550181 -0.39454934 -0.55545771
2.4389818 -0.40861624 -0.55363756
2.5535963 -0.42781824 -0.55709851
2.6445832 -0.44306177 -0.55367208
2.7808788 -0.46589616 -0.55781502
2.9078658 -0.48717099 -0.55786514
3.0451291 -0.51016748 -0.5576601
3.1895552 -0.53436399 -0.55639517
3.3730798 -0.56511086 -0.55918485
3.541666 -0.59335506 -0.55653059
3.7422192 -0.62695491 -0.55579317
3.9782667 -0.66650122 -0.55664796
4.2220669 -0.70734644 -0.55454516
4.4886737 -0.75201261 -0.55114263
4.8323607 -0.80959237 -0.55206382
5.2217436 -0.87482786 -0.55202699
5.6749697 -0.95075941 -0.55163908
6.2062416 -1.0397663 -0.55054235
6.8538918 -1.1482707 -0.5498358
7.6313181 -1.2785174 -0.54753286
8.6094418 -1.4423878 -0.54483825
9.9058943 -1.6595898 -0.54312301
11.618414 -1.9464978 -0.53886569
14.067154 -2.3567488 -0.53369075
17.808184 -2.9835045 -0.5253861
24.281998 -4.068099 -0.51162922
38.117485 -6.386035 -0.48184392
2.075036 -0.32146451 -0.5626359
2.15009 -0.33309186 -0.56364799
2.2054169 -0.34166309 -0.55840123
2.2955952 -0.35563353 -0.56076092
2.3690803 -0.36701781 -0.55766779
2.4633834 -0.38162726 -0.55806923
2.5576222 -0.39622673 -0.55687177
2.6666448 -0.41311651 -0.55718529
2.7942684 -0.43288797 -0.55939084
2.913059 -0.45129099 -0.55775464
3.0495679 -0.47243896 -0.55736697
3.1849899 -0.49341854 -0.55449849
3.3523271 -0.51934236 -0.55464387
3.5409751 -0.54856777 -0.55532008
3.7563868 -0.58193934 -0.5567925
3.9737718 -0.61561656 -0.55491781
4.2306147 -0.65540671 -0.5545674
4.5214291 -0.70045966 -0.55406499
4.8529739 -0.75182253 -0.55332071
5.2321081 -0.81055796 -0.55202729
5.6881256 -0.88120425 -0.5518229
6.2263732 -0.96458954 -0.55123442
6.8660426 -1.0636871 -0.54971975
7.6515989 -1.1853855 -0.54790074
8.6055088 -1.3331652 -0.54351091
9.9153652 -1.536088 -0.54256564
11.644593 -1.80398 -0.53901035
14.100603 -2.1844649 -0.53390038
17.837503 -2.7633853 -0.52520889
24.326851 -3.7687149 -0.51155913
38.192623 -5.9168 -0.48183763
2.0635581 -0.29375228 -0.55850208
2.1349311 -0.30391237 -0.55865222
2.2088277 -0.31443173 -0.55824369
2.2930698 -0.32642379 -0.55912125
2.3699572 -0.33736891 -0.55685562
2.4662225 -0.35107249 -0.55769229
2.572211 -0.36616021 -0.55902565
2.680583 -0.38158718 -0.55907494
2.7915616 -0.39738527 -0.55782855
2.9225223 -0.41602781 -0.55854487
3.0531917 -0.4346289 -0.55701035
3.2050402 -0.45624489 -0.55697036
3.3596425 -0.47825289 -0.55483925
3.5470698 -0.5049336 -0.55526018
3.7545302 -0.53446609 -0.5555011
3.9826324 -0.56693697 -0.55513972
4.2400398 -0.60357946 -0.55478805
4.5207453 -0.64353859 -0.55296975
4.8583803 -0.69160169 -0.55292577
5.2475939 -0.74700719 -0.55265027
5.7143006 -0.8134439 -0.55335003
6.2256222 -0.88623172 -0.55016154
6.8675594 -0.97761303 -0.54883724
7.654788 -1.0896767 -0.54712826
8.645793 -1.2307487 -0.54505813
9.9342899 -1.4141692 -0.54260862
11.65183 -1.6586649 -0.53836054
14.121077 -2.0101681 -0.53369927
17.890005 -2.5466835 -0.52579296
24.375469 -3.4699047 -0.51164562
38.256252 -5.4458661 -0.48175913
2.0730226 -0.26913759 -0.56012559
2.1488035 -0.27897614 -0.56134218
2.2206285 -0.28830105 -0.56028783
2.2882767 -0.29708374 -0.55701971
2.373333 -0.30812648 -0.5567165
2.4755201 -0.32139331 -0.55885881
2.577038 -0.33457321 -0.5591383
2.6827252 -0.34829444 -0.5585863
2.7938082 -0.36271617 -0.55734408
2.9082837 -0.37757838 -0.55489433
3.0590103 -0.397147 -0.55713886
3.2102876 -0.41678712 -0.5569495
3.3803885 -0.43887106 -0.5573321
3.5607679 -0.46228948 -0.5564726
3.7549059 -0.48749414 -0.5546279
4.0013914 -0.51949501 -0.556822
4.2487082 -0.55160379 -0.55499285
4.537003 -0.58903271 -0.55403048
4.8578515 -0.63068801 -0.55194122
5.2490377 -0.68147516 -0.55187804
5.7172189 -0.74225849 -0.55270702
6.2346659 -0.80943787 -0.55003959
6.8783336 -0.8930043 -0.54877919
7.675087 -0.99644572 -0.54766196
8.6440573 -1.1222458 -0.54403758
9.9410324 -1.2906302 -0.54206914
11.668655 -1.5149251 -0.53823656
14.139202 -1.8356726 -0.5334909
17.898418 -2.3237264 -0.52516079
24.406662 -3.1686826 -0.51144385
38.302395 -4.9727459 -0.48153374
2.0722458 -0.24316724 -0.55906552
2.1329987 -0.25029626 -0.55636728
2.2162077 -0.2600604 -0.55832332
2.302459 -0.27018154 -0.55962098
2.382566 -0.2795817 -0.55803365
2.4737566 -0.29028243 -0.55761272
2.5723438 -0.30185112 -0.55727232
2.6941478 -0.3161442 -0.56011283
2.7949421 -0.32797188 -0.55672365
2.9180303 -0.34241563 -0.55590856
3.0566714 -0.35868442 -0.55586755
3.197118 -0.37516513 -0.55382252
3.3850996 -0.3972238 -0.55726141
3.5603018 -0.41778284 -0.55555487
3.7694988 -0.44233102 -0.55593795
3.9803307 -0.46707106 -0.55305022
4.2675486 -0.50077456 -0.55660743
4.5293794 -0.53149909 -0.55225968
4.8738589 -0.57192194 -0.55291909
5.261549 -0.61741537 -0.5523535
5.7187662 -0.67106742 -0.55201715
6.2464895 -0.73299295 -0.55024594
6.8861628 -0.80805534 -0.54856962
7.6716881 -0.90023255 -0.54658824
8.6788712 -1.0184202 -0.54539931
9.9644785 -1.1692797 -0.54252261
11.703054 -1.3732923 -0.53900355
14.164731 -1.6621574 -0.53364265
17.924398 -2.1033347 -0.52512443
24.42594 -2.8662567 -0.51107061
38.338837 -4.4988627 -0.48126003
2.0744193 -0.21760027 -0.55888778
2.1544864 -0.22599907 -0.56120485
2.2239082 -0.23328121 -0.55949837
2.3038111 -0.24166277 -0.55918509
2.4012103 -0.25187963 -0.56163257
2.4812715 -0.26027781 -0.55854297
2.5727329 -0.26987186 -0.55659562
2.6944284 -0.28263736 -0.5594064
2.7879741 -0.29245001 -0.55457753
2.9338691 -0.30775392 -0.55816287
3.0582058 -0.32079649 -0.55538726
3.2365093 -0.33949998 -0.55988067
3.3904984 -0.35565296 -0.55738807
3.578558 -0.37537983 -0.55764115
3.773632 -0.39584252 -0.55578762
3.9946992 -0.4190318 -0.55428886
4.2730255 -0.44822738 -0.55656087
4.5582185 -0.47814327 -0.55501717
4.8867326 -0.51260334 -0.55362266
5.2693291 -0.55273658 -0.55241495
5.7214079 -0.60015827 -0.55151802
6.2557015 -0.65620404 -0.55030501
6.9081569 -0.72464466 -0.54957038
7.677104 -0.80530483 -0.54622728
8.6932192 -0.91189224 -0.54555511
9.9828863 -1.0471745 -0.54278266
11.704593 -1.2277762 -0.53833842
14.178798 -1.4873127 -0.53344321
17.943041 -1.8821703 -0.52495289
24.477745 -2.5676408 -0.51145524
38.395531 -4.0275741 -0.48131365
2.070534 -0.19148546 -0.55716449
2.1472733 -0.1985824 -0.55864763
2.2284834 -0.20609282 -0.55996954
2.300106 -0.21271656 -0.55760878
2.3906887 -0.22109376 -0.55849349
2.469214 -0.22835587 -0.55515474
2.5747027 -0.2381116 -0.5563463
2.6889045 -0.24867311 -0.55758256
2.8059087 -0.2594938 -0.55746812
2.9281726 -0.27080089 -0.55640352
3.064857 -0.28344163 -0.55592018
3.2082455 -0.29670238 -0.55431825
3.3825169 -0.31281921 -0.55540156
3.5753109 -0.33064905 -0.55645961
3.7846692 -0.35001072 -0.55673718
4.0062742 -0.37050503 -0.55522078
4.2558846 -0.39358932 -0.55365598
4.564568 -0.42213672 -0.5551163
4.9011741 -0.45326647 -0.5545854
5.2730484 -0.48765785 -0.55213451
5.7178178 -0.52879065 -0.55050361
6.261591 -0.57907945 -0.5501551
6.9044056 -0.63852769 -0.5486058
7.7024541 -0.71233219 -0.54736632
8.6985216 -0.80444968 -0.5452258
9.9797487 -0.92293912 -0.5419541
11.717718 -1.0836686 -0.53828853
14.196881 -1.3129445 -0.53347582
17.971731 -1.6620471 -0.52515465
24.492067 -2.2650557 -0.51113391
38.431072 -3.5541515 -0.48117495
2.0823307 -0.16678146 -0.55974472
2.1500556 -0.17220579 -0.55877835
2.2362947 -0.179113 -0.56133646
2.2999704 -0.18421301 -0.5569846
2.3922265 -0.19160213 -0.55826014
2.4848981 -0.19902454 -0.5580886
2.578742 -0.20654084 -0.55662823
2.6941729 -0.21578613 -0.55808258
2.8141532 -0.22539578 -0.55851322
2.93539 -0.23510607 -0.5571835
3.0618389 -0.24523383 -0.55478382
3.2425578 -0.25970826 -0.55965263
3.401545 -0.27244213 -0.55793375
3.5684836 -0.28581285 -0.55480802
3.7768993 -0.30250561 -0.55500507
4.005291 -0.32079837 -0.55449599
4.2760453 -0.34248406 -0.55568892
4.5583205 -0.36509252 -0.55376869
4.9105725 -0.39330563 -0.55505961
5.2666068 -0.42182174 -0.55087525
5.7408261 -0.4598037 -0.55213273
6.2745657 -0.50255281 -0.5507105
6.9138088 -0.55375212 -0.54877049
7.7135105 -0.61780316 -0.54757082
8.7049236 -0.69720906 -0.54504853
9.9936228 -0.80042565 -0.54213196
11.734066 -0.9398241 -0.53846794
14.203084 -1.1375768 -0.53314298
17.993975 -1.441203 -0.5252471
24.518063 -1.9637409 -0.51113385
38.476192 -3.0816984 -0.48122901
2.0845463 -0.1411873 -0.55983132
2.1451104 -0.14528933 -0.55698669
2.2291863 -0.15098383 -0.55904388
2.3207572 -0.15718597 -0.56150806
2.4013085 -0.16264175 -0.55987054
2.4856858 -0.16835667 -0.55775845
2.565958 -0.17379354 -0.55336571
2.7028375 -0.18306445 -0.55936885
2.8176866 -0.19084324 -0.55870652
2.9450896 -0.19947229 -0.55851686
3.0772176 -0.20842138 -0.55706388
3.2328424 -0.21896192 -0.55746895
3.3879135 -0.22946496 -0.55519301
3.5683568 -0.24168648 -0.55428433
3.784498 -0.25632581 -0.55561656
4.0165968 -0.27204597 -0.555556
4.2760162 -0.28961655 -0.55518031
4.5503106 -0.30819467 -0.55229342
4.8840384 -0.33079821 -0.55155891
5.2945342 -0.35860127 -0.55329335
5.7314377 -0.38819295 -0.55072904
6.2676225 -0.42450899 -0.54960138
6.9242096 -0.46897995 -0.54909676
7.7101707 -0.52221346 -0.54683656
8.7174578 -0.59043753 -0.54533756
10.010417 -0.67801017 -0.54254973
11.744029 -0.79542857 -0.53843558
14.231835 -0.96392888 -0.53373694
18.002817 -1.2193393 -0.52502781
24.540358 -1.6621299 -0.51113391
38.495754 -2.6073353 -0.48103634
2.0914056 -0.11583849 -0.56124848
2.1578617 -0.11951936 -0.55987376
2.2249627 -0.12323593 -0.55756247
2.3221331 -0.128618 -0.56141585
2.3906567 -0.13241339 -0.55696535
2.4946136 -0.13817133 -0.55933821
2.5822275 -0.14302407 -0.55645293
2.694392 -0.14923662 -0.55719906
2.8117568 -0.15573722 -0.55710894
2.9537821 -0.16360368 -0.5597415
3.0818219 -0.17069554 -0.55747527
3.2326269 -0.1790483 -0.55700999
3.3962774 -0.18811256 -0.55614257
3.5740693 -0.19796008 -0.55475163
3.7713411 -0.20888653 -0.55326599
4.0149407 -0.222379 -0.55490679
4.2823539 -0.23719046 -0.55558252
4.5696731 -0.25310442 -0.5542239
4.9013314 -0.2714743 -0.55309302
5.2820435 -0.29256111 -0.55157036
5.7456837 -0.31824115 -0.55168015
6.2707481 -0.34732336 -0.54945946
6.9402699 -0.38440675 -0.54995394
7.7213106 -0.42766693 -0.5472123
8.7299595 -0.48353386 -0.54570645
10.017174 -0.5548299 -0.5425052
11.755675 -0.65112174 -0.5385617
14.222569 -0.78775775 -0.53298587
18.027527 -0.99850619 -0.52535063
24.553846 -1.3599852 -0.51102793
38.522053 -2.1336544 -0.48100075
2.0929165 -0.090125315 -0.56131417
2.1607792 -0.093047619 -0.56029147
2.2416184 -0.096528716 -0.56139642
2.3083458 -0.099402137 -0.55774486
2.4074373 -0.10366923 -0.56053543
2.5020027 -0.10774141 -0.56065553
2.5820549 -0.11118862 -0.55607909
2.7056282 -0.11650994 -0.55918419
2.8047686 -0.12077913 -0.55538803
2.952003 -0.12711935 -0.55906588
3.0909619 -0.13310321 -0.55879033
3.2407165 -0.13955195 -0.55806607
3.4094496 -0.14681794 -0.5579617
3.5717595 -0.15380734 -0.55405772
3.7845182 -0.16296917 -0.55486321
4.0396175 -0.17395428 -0.55797952
4.272748 -0.18399335 -0.55400079
4.574441 -0.19698489 -0.55446649
4.8999095 -0.21100023 -0.552598
5.2986202 -0.22816953 -0.55296659
5.749022 -0.24756476 -0.55166674
6.2798557 -0.27042356 -0.54992455
6.9342127 -0.29860154 -0.54914147
7.728816 -0.33281881 -0.54741275
8.7307959 -0.3759661 -0.54542845
10.027681 -0.43181267 -0.54274565
11.745271 -0.50577563 -0.53775948
14.224665 -0.61254346 -0.53274184
18.023003 -0.77610773 -0.52490103
24.571663 -1.0581065 -0.51108927
38.567318 -1.6607884 -0.48127457
2.090091 -0.064268857 -0.56030202
2.1645143 -0.066557333 -0.56100535
2.2364843 -0.068770364 -0.55985653
2.3081973 -0.070975482 -0.5574559
2.3843083 -0.073315844 -0.55489832
2.4955204 -0.076735534 -0.55894923
2.5872221 -0.079555303 -0.55693913
2.705652 -0.083196938 -0.5589354
2.823777 -0.0868292 -0.55889833
2.9575529 -0.090942718 -0.55986285
3.0805292 -0.094724163 -0.55665159
3.2286193 -0.099277824 -0.55573064
3.4041948 -0.10467666 -0.556849
3.5830669 -0.11017685 -0.55555958
3.7954633 -0.1167079 -0.55621547
4.0125275 -0.12338246 -0.55398625
4.2869477 -0.13182071 -0.5555898
4.5609651 -0.14024656 -0.55258226
4.8938122 -0.15048137 -0.55166
5.3041997 -0.1631005 -0.55329776
5.7626858 -0.17719863 -0.55272704
6.274859 -0.19294761 -0.54923767
6.9291306 -0.21306601 -0.54849011
7.7216935 -0.23743677 -0.54666018
8.7356577 -0.26861548 -0.5454846
10.021143 -0.30814329 -0.54214573
11.7794 -0.36220846 -0.5390774
14.259535 -0.43847093 -0.53380555
18.047489 -0.55494791 -0.52537572
24.574474 -0.75564826 -0.51091588
38.568508 -1.1859552 -0.48107108
2.0816102 -0.038397107 -0.55785978
2.1448469 -0.039563566 -0.55573982
2.2330158 -0.041189916 -0.55881923
2.3328846 -0.043032084 -0.56324786
2.4023314 -0.044313088 -0.55892378
2.4897976 -0.045926481 -0.55749881
2.5953343 -0.047873199 -0.5585165
2.6962719 -0.049735077 -0.55682921
2.8284757 -0.052173689 -0.559659
2.9465833 -0.054352287 -0.55761766
3.0772047 -0.056761716 -0.55588269
3.2351966 -0.05967601 -0.55669433
3.4101574 -0.062903315 -0.55765569
3.5951111 -0.066314943 -0.55725843
3.7898154 -0.069906436 -0.55521983
4.0323319 -0.074379869 -0.55655217
4.2773013 -0.078898542 -0.55417198
4.5626311 -0.084161691 -0.55261695
4.9041724 -0.090461716 -0.5526607
5.308012 -0.097910888 -0.55352795
5.7433305 -0.10594072 -0.550704
6.287775 -0.11598347 -0.55020177
6.9496703 -0.12819271 -0.54994959
7.7234354 -0.14246547 -0.54661816
8.7328062 -0.16108419 -0.54514164
10.013653 -0.18471052 -0.54157668
11.780351 -0.21729881 -0.53895789
14.239674 -0.26266316 -0.53290081
18.051886 -0.33298272 -0.52534479
24.594713 -0.45367083 -0.51118201
38.574612 -0.71154225 -0.48100173
2.0895324 -0.012846451 -0.5598982
2.1655819 -0.013314005 -0.56102753
2.2271073 -0.013692263 -0.55725634
2.3111596 -0.014209016 -0.55791825
2.4060843 -0.014792614 -0.55971229
2.4812548 -0.015254762 -0.55550194
2.5883222 -0.015913013 -0.55692327
2.7122636 -0.016675005 -0.56004709
2.8160362 -0.017313 -0.55711347
2.949605 -0.01813418 -0.55810505
3.0874062 -0.018981382 -0.55764127
3.2433832 -0.01994033 -0.55801868
3.3975284 -0.020888016 -0.55550647
3.5740893 -0.021973511 -0.55391622
3.7928407 -0.023318395 -0.55557901
4.0100756 -0.024653956 -0.55339664
4.2878795 -0.026361896 -0.55545849
4.5682778 -0.028085785 -0.55321723
4.9135008 -0.030208219 -0.55362821
5.2793536 -0.032457482 -0.55045623
5.7572794 -0.035395771 -0.55195802
6.2878299 -0.038657598 -0.55012339
6.9318786 -0.042617209 -0.5484587
7.7274189 -0.047508195 -0.54681736
8.7261868 -0.053648621 -0.54464608
10.021632 -0.061613023 -0.54192626
11.771501 -0.072371222 -0.53847158
14.246192 -0.087585635 -0.53306419
18.052763 -0.11098845 -0.52529091
24.589817 -0.15117827 -0.51100302
38.592407 -0.23726624 -0.48115087
2.091651 0.012859477 -0.56046593
2.1521149 0.013231209 -0.55753863
2.2403691 0.013773796 -0.56057465
2.3119295 0.01421375 -0.5581041
2.4109075 0.014822267 -0.56083429
2.4922652 0.015322454 -0.55796695
2.5902953 0.015925143 -0.55734777
2.696805 0.016579965 -0.55685508
2.8141594 0.017301461 -0.55674213
2.9464991 0.018115085 -0.55751741
3.0650163 0.018843729 -0.55359721
3.2376444 0.019905047 -0.55703133
3.4049678 0.020933751 -0.55672282
3.584079 0.02203493 -0.55546445
3.794028 0.023325697 -0.55575293
4.031651 0.024786603 -0.55637407
4.2802935 0.026315259 -0.55447584
4.5688701 0.028089428 -0.55328894
4.9006863 0.030129435 -0.55218434
5.3081131 0.032634296 -0.55345482
5.7592101 0.03540764 -0.5521431
6.2823071 0.038623646 -0.54964024
6.9449539 0.042697597 -0.54949325
7.7359347 0.04756055 -0.54742002
8.7242651 0.053636808 -0.54452616
10.023225 0.061622821 -0.54201245
11.762711 0.072317176 -0.53806949
14.26403 0.087695301 -0.53373164
18.050045 0.11097173 -0.52521181
24.584679 0.15114668 -0.51089621
38.581871 0.23720147 -0.4810195
2.0802886 0.038372729 -0.55750561
2.1592753 0.039829709 -0.55947822
2.2302735 0.041139331 -0.55813295
2.3091505 0.042594284 -0.55751753
2.3918116 0.044119045 -0.55647624
2.4874861 0.045883842 -0.55698121
2.5996811 0.047953378 -0.55945194
2.6902211 0.049623463 -0.5555796
2.8014524 0.051675223 -0.55431205
2.9273899 0.053998247 -0.55398542
3.0849414 0.056904424 -0.5572803
3.2406228 0.059776101 -0.55762804
3.3936107 0.062598094 -0.55494982
3.5918584 0.066254951 -0.55675429
3.7880313 0.069873527 -0.55495846
4.0163646 0.074085332 -0.55434835
4.2956567 0.079237118 -0.55655015
4.5702281 0.084301822 -0.55353707
4.9071956 0.090517484 -0.55300134
5.2913508 0.097603559 -0.55179054
5.7515264 0.10609189 -0.55148983
6.2869196 0.11596769 -0.55012691
6.9453583 0.12811317 -0.54960835
7.7321401 0.14262605 -0.54723424
8.7343912 0.16111343 -0.54524058
10.020125 0.18482992 -0.54192674
11.752549 0.21678598 -0.53768599
14.24338 0.26273152 -0.53303951
18.040339 0.33276969 -0.52500874
24.590105 0.45358586 -0.51108629
38.574223 0.71153504 -0.48099685
2.1026933 0.064656377 -0.56368041
2.1528127 0.066197515 -0.55797249
2.2443569 0.069012433 -0.56182724
2.3166928 0.071236715 -0.55950773
2.3924212 0.073565319 -0.55678648
2.481811 0.076313987 -0.55587864
2.5894382 0.079623446 -0.5574162
2.6964695 0.082914583 -0.55703849
2.8161874 0.086595826 -0.55739617
2.9364202 0.090292908 -0.55586243
3.0786116 0.0946652 -0.55630511
3.2337861 0.099436708 -0.55662
3.4056842 0.10472246 -0.55709267
3.5876129 0.11031663 -0.5562644
3.7894866 0.11652412 -0.55533957
4.0226798 0.12369464 -0.55538791
4.2728333 0.1313867 -0.55376059
4.5821538 0.14089809 -0.55514938
4.9022665 0.15074132 -0.55261302
5.3101935 0.16328481 -0.55392295
5.746161 0.17669052 -0.55114204
6.2898369 0.19340816 -0.55054867
6.9365082 0.21329287 -0.54907405
7.7220845 0.23744881 -0.5466879
8.7380314 0.26868847 -0.54563278
10.02194 0.30816779 -0.54218888
11.777715 0.36215663 -0.53900027
14.241364 0.4379122 -0.53312534
18.035076 0.5545662 -0.52501434
24.575478 0.75567907 -0.51093674
38.55896 1.1856617 -0.48095199
2.0915818 0.090067841 -0.56095618
2.1598487 0.09300755 -0.56005019
2.2298946 0.096023872 -0.5584603
2.3256829 0.10014872 -0.56193388
2.4050364 0.10356584 -0.55997646
2.5014019 0.10771554 -0.56052089
2.5902269 0.11154053 -0.55783904
2.6858478 0.11565816 -0.55509609
2.7927933 0.12026345 -0.55301672
2.9546032 0.12723133 -0.55955833
3.0830393 0.13276204 -0.55735803
3.2163701 0.13850354 -0.55387348
3.4176335 0.14717036 -0.55930102
3.5820518 0.15425055 -0.55565423
3.797153 0.16351326 -0.55671561
4.0210614 0.17315522 -0.55541646
4.2785378 0.18424268 -0.55475157
4.5709224 0.19683337 -0.55404001
4.9094462 0.21141089 -0.55367357
5.289124 0.22776061 -0.55197555
5.7437258 0.24733672 -0.55115855
6.2803869 0.27044645 -0.54997104
6.9272251 0.29830062 -0.5485881
7.7235222 0.33259082 -0.54703778
8.7384186 0.37629437 -0.54590464
10.025517 0.43171951 -0.54262859
11.764203 0.5065909 -0.53862631
14.247643 0.61353296 -0.53360248
18.027897 0.77631855 -0.52504361
24.563181 1.0577414 -0.5109129
38.542194 1.6597066 -0.48096105
2.0842798 0.11544381 -0.55933619
2.1434331 0.11872019 -0.55613011
2.211513 0.12249099 -0.55419213
2.3154907 0.12825009 -0.55980992
2.4137459 0.13369223 -0.56234455
2.4783189 0.1372688 -0.55568457
2.5959094 0.14378189 -0.55940133
2.7064247 0.14990309 -0.55968744
2.8067994 0.15546264 -0.55612671
2.9406974 0.16287896 -0.55726194
3.089874 0.17114154 -0.55893183
3.2433224 0.1796407 -0.55885291
3.3990977 0.18826877 -0.55660439
3.5689778 0.19767807 -0.5539614
3.7764652 0.20917034 -0.55401772
4.0302649 0.22322778 -0.55702478
4.2707896 0.23654993 -0.55408216
4.5732093 0.25330031 -0.55465275
4.9060168 0.27173382 -0.55362177
5.2959213 0.29332981 -0.55301958
5.7521949 0.31860179 -0.55230534
6.2739735 0.34750199 -0.54974204
6.9273233 0.38368967 -0.54892802
7.7224565 0.42773041 -0.54729348
8.7344141 0.48378056 -0.54598486
10.006089 0.55421597 -0.54190493
11.735909 0.65002698 -0.53765619
14.23976 0.78870994 -0.53363013
18.014551 0.99778754 -0.52497256
24.559444 1.3602952 -0.5111444
38.525379 2.1338384 -0.4810423
2.089725 0.14153804 -0.56122208
2.1729987 0.14717822 -0.56422806
2.232542 0.15121111 -0.55988544
2.2954335 0.15547079 -0.555381
2.3919821 0.16201007 -0.55769604
2.4856324 0.16835305 -0.55774647
2.6077955 0.1766272 -0.56238818
2.700412 0.18290016 -0.55886686
2.8140807 0.19059901 -0.55799156
2.9411218 0.19920355 -0.55776441
3.0790317 0.20854425 -0.55739224
3.2248867 0.21842308 -0.55609709
3.3967946 0.23006648 -0.55664837
3.5785594 0.24237749 -0.55586916
3.7889166 0.25662509 -0.55626529
4.0197697 0.27226087 -0.55599487
4.285666 0.29027015 -0.5564332
4.5774131 0.31003031 -0.555583
4.8968015 0.33166265 -0.55300027
5.2856531 0.35799974 -0.55236524
5.7436047 0.38901705 -0.55189818
6.2861023 0.42576066 -0.55122191
6.944581 0.47035971 -0.55071223
7.71276 0.52238882 -0.5470202
8.7048483 0.58958346 -0.54454875
10.015509 0.6783551 -0.54282576
11.733132 0.79469055 -0.53793597
14.2297 0.96378422 -0.5336569
17.995028 1.2188115 -0.52480066
24.543926 1.6623716 -0.51120824
38.503677 2.607872 -0.48113534
2.0809662 0.16667216 -0.55937797
2.1521368 0.17237249 -0.55931926
2.2224839 0.17800684 -0.55786979
2.3052056 0.18463232 -0.55825245
2.3785326 0.19050536 -0.5550645
2.4927497 0.1996534 -0.559852
2.5876086 0.207251 -0.55854213
2.7056446 0.21670493 -0.5604589
2.8024952 0.22446205 -0.55619955
2.9299498 0.23467036 -0.55615085
3.0688627 0.24579638 -0.55605644
3.2318389 0.25884974 -0.55780256
3.388063 0.2713623 -0.5557223
3.5808065 0.28679985 -0.55672395
3.7817004 0.30289015 -0.55571061
4.0211182 0.32206601 -0.55668712
4.2609758 0.34127709 -0.55373055
4.5639133 0.36554044 -0.55444813
4.9118252 0.39340597 -0.55520123
5.2827225 0.42311248 -0.55256087
5.7294431 0.45889199 -0.55103791
6.274189 0.50252265 -0.55067748
6.9118752 0.55359727 -0.54861701
7.7138014 0.61782646 -0.54759145
8.7186022 0.69830459 -0.54590499
10.003361 0.80120564 -0.5426603
11.742862 0.94052857 -0.53887153
14.223027 1.1391741 -0.53389162
17.996944 1.4414409 -0.52533376
24.520285 1.9639189 -0.51118016
38.497898 3.083437 -0.48150051
2.0879409 0.19309528 -0.56184864
2.1489708 0.19873939 -0.5590893
2.2276998 0.20602034 -0.55977261
2.3110166 0.21372557 -0.56025374
2.392298 0.22124258 -0.55886942
2.4723461 0.22864552 -0.55585897
2.5967579 0.24015129 -0.56111205
2.6948686 0.24922466 -0.55881923
2.8059082 0.25949377 -0.55746806
2.9335258 0.27129599 -0.55742079
3.0635598 0.28332168 -0.55568486
3.2157319 0.29739472 -0.55561173
3.3916097 0.31366012 -0.5568946
3.573014 0.33043662 -0.5561021
3.7627418 0.34798285 -0.55351162
3.9944546 0.36941195 -0.55358279
4.2703271 0.39492494 -0.55553484
4.547298 0.42053953 -0.55301601
4.9146109 0.45450911 -0.55610579
5.2841825 0.48868752 -0.55330032
5.719521 0.52894819 -0.55066758
6.2629318 0.57920343 -0.55027288
6.9155235 0.63955593 -0.54948926
7.6825743 0.71049368 -0.54595363
8.7075825 0.80528766 -0.54579377
9.9854517 0.9234665 -0.54226375
11.731161 1.0849118 -0.53890604
14.191229 1.3124219 -0.53326344
17.97081 1.661962 -0.52512777
24.497889 2.265594 -0.51125538
38.440243 3.5549996 -0.48128974
2.0628824 0.21639007 -0.55577952
2.1378636 0.22425538 -0.55687487
2.2188611 0.23275179 -0.55822861
2.303077 0.24158578 -0.55900693
2.3825159 0.24991867 -0.55726004
2.4811683 0.26026699 -0.55851978
2.5773776 0.27035907 -0.5576005
2.703301 0.28356802 -0.56124842
2.8005931 0.29377368 -0.55708766
2.9332108 0.30768487 -0.55803764
3.0736644 0.32241803 -0.55819464
3.2168088 0.33743346 -0.55647266
3.3820927 0.35477123 -0.55600619
3.5806167 0.37559581 -0.557962
3.777596 0.39625832 -0.55637145
3.9873338 0.41825917 -0.55326682
4.2538729 0.44621831 -0.55406618
4.5478072 0.47705114 -0.5537495
4.8801556 0.51191348 -0.55287755
5.2672639 0.55251992 -0.55219841
5.7219472 0.60021484 -0.55157006
6.2576027 0.65640348 -0.5504722
6.915555 0.72542065 -0.55015886
7.6975908 0.80745381 -0.54768491
8.6795044 0.91045356 -0.54469436
9.9630136 1.0450898 -0.54170221
11.715089 1.2288772 -0.53882116
14.17424 1.4868346 -0.53327173
17.958565 1.8837988 -0.52540708
24.479715 2.5678475 -0.51149642
38.410553 4.02915 -0.48150197
2.0815673 0.24426106 -0.56158036
2.1395857 0.25106922 -0.55808544
2.2132332 0.25971135 -0.55757397
2.2941916 0.26921141 -0.55761153
2.3679855 0.27787074 -0.55461872
2.4872353 0.29186407 -0.56065094
2.5664229 0.30115637 -0.55598968
2.6871438 0.31532231 -0.55865675
2.7965686 0.32816276 -0.55704767
2.9301987 0.34384355 -0.55822676
3.0607071 0.35915801 -0.55660146
3.2160914 0.37739155 -0.55710924
3.3760331 0.39615989 -0.55576885
3.5708156 0.41901657 -0.55719548
3.761312 0.44137034 -0.55473053
4.0020003 0.46961385 -0.55606109
4.2614083 0.50005406 -0.55580658
4.5420146 0.53298169 -0.55380028
4.8869519 0.57345831 -0.5544045
5.2598805 0.61721957 -0.55217838
5.7094603 0.6699754 -0.55111885
6.2521658 0.73365903 -0.5507459
6.8887215 0.80835557 -0.54877347
7.6780138 0.90097487 -0.54703891
8.6697426 1.0173491 -0.54482567
9.9575262 1.1684637 -0.542144
11.680043 1.3705921 -0.53794378
14.159901 1.6615905 -0.53346062
17.928368 2.1038003 -0.52524072
24.442894 2.8682461 -0.51142532
38.355297 4.5007939 -0.48146665
2.0688174 0.26859164 -0.55898941
2.1386898 0.27766308 -0.55870008
2.2165887 0.28777659 -0.55926853
2.3050926 0.29926693 -0.56111312
2.3853326 0.30968437 -0.55953121
2.4772174 0.32161364 -0.55924201
2.5774453 0.33462608 -0.55922663
2.6728103 0.34700719 -0.55652183
2.7910466 0.36235765 -0.55679315
2.9357524 0.38114458 -0.5601353
3.0747344 0.39918843 -0.56000274
3.2056749 0.41618824 -0.55614924
3.3657346 0.43696859 -0.55491608
3.5505314 0.46096048 -0.55487281
3.7513895 0.4870376 -0.5541085
3.9941776 0.51855844 -0.55581814
4.2438693 0.55097556 -0.55436075
4.5385985 0.58923984 -0.55422533
4.8721695 0.6325469 -0.55356801
5.2408071 0.68040657 -0.55101269
5.7012429 0.74018437 -0.55116254
6.2358375 0.80958998 -0.55014294
6.8732734 0.8923474 -0.54837549
7.6720257 0.99604827 -0.54744351
8.667737 1.1253201 -0.54552799
9.9562578 1.2926069 -0.54289937
11.686342 1.5172213 -0.53905237
14.132404 1.8347901 -0.53323442
17.916527 2.3260775 -0.52569211
24.407963 3.1688514 -0.51147109
38.318356 4.9748178 -0.4817344
2.0662403 0.29413411 -0.55922806
2.1287048 0.30302605 -0.55702293
2.2098212 0.31457317 -0.55849475
2.3030438 0.32784361 -0.56155324
2.3790812 0.33866772 -0.55899942
2.4710622 0.35176143 -0.55878663
2.5784819 0.36705288 -0.56038851
2.6809676 0.38164192 -0.55915517
2.8082094 0.39975512 -0.5611552
2.9047506 0.41349798 -0.55514836
3.0560269 0.43503252 -0.5575276
3.1937225 0.4546338 -0.55500358
3.3632305 0.47876367 -0.55543184
3.5463164 0.50482637 -0.55514228
3.7589757 0.53509891 -0.5561589
3.9798701 0.5665437 -0.55475467
4.2363734 0.60305756 -0.55430835
4.5240512 0.64400917 -0.55337411
4.8783307 0.69444168 -0.55519629
5.2541461 0.74793983 -0.55334026
5.71803 0.8139748 -0.55371112
6.2268357 0.88640445 -0.55026877
6.8747745 0.97864002 -0.5494138
7.6666479 1.0913651 -0.54797596
8.6370993 1.2295111 -0.54451007
9.9418344 1.4152431 -0.54302073
11.656677 1.659355 -0.53858447
14.106282 2.0080619 -0.53314012
17.867262 2.5434463 -0.52512455
24.365774 3.4685245 -0.51144212
38.269432 5.447742 -0.48192507
2.0678477 0.32035092 -0.56068689
2.125566 0.3292926 -0.55721903
2.2056472 0.34169877 -0.55845952
2.2943931 0.35544726 -0.56046724
2.3687158 0.36696133 -0.55758196
2.4628296 0.38154149 -0.55794376
2.5622132 0.396938 -0.5578714
2.6658931 0.41300008 -0.55702823
2.7866321 0.43170497 -0.5578621
2.9303973 0.45397705 -0.56107438
3.0540187 0.47312847 -0.55818045
3.2079694 0.49697852 -0.55849916
3.3548443 0.51973236 -0.55506039
3.5544691 0.55065823 -0.55743635
3.7664335 0.58349574 -0.55828166
3.9775283 0.61619854 -0.55544245
4.2282481 0.65504009 -0.55425721
4.521049 0.70040077 -0.55401844
4.863625 0.75347263 -0.55453515
5.2502871 0.81337428 -0.5539453
5.6955137 0.88234884 -0.55253965
6.2143731 0.96273047 -0.55017197
6.8509879 1.0613548 -0.54851437
7.6445394 1.1842917 -0.54739523
8.6353626 1.33779 -0.54539639
9.9249973 1.5375801 -0.54309267
11.637652 1.8029046 -0.53868902
14.096848 2.1838832 -0.53375816
17.838854 2.7635946 -0.52524865
24.330284 3.7692468 -0.51163137
38.211365 5.9197035 -0.48207408
2.0577447 0.34474549 -0.55905461
2.1208625 0.35531992 -0.55708927
2.2053068 0.36946735 -0.55948132
2.2789571 0.38180643 -0.55780131
2.3725269 0.39748269 -0.55958736
2.4551241 0.41132066 -0.55730176
2.5555291 0.42814204 -0.55752015
2.6829965 0.4494974 -0.56171435
2.7784901 0.46549597 -0.55733591
2.9059961 0.48685777 -0.55750644
3.0299971 0.50763237 -0.55488896
3.2029288 0.53660458 -0.5587281
3.3547873 0.56204623 -0.55615234
3.5340407 0.59207761 -0.55533236
3.7448061 0.6273883 -0.55617738
3.9635797 0.66404063 -0.55459291
4.2258406 0.70797867 -0.55504078
4.5092797 0.75546479 -0.55367267
4.8387213 0.81065798 -0.55279046
5.2154255 0.8737694 -0.55135906
5.6840053 0.95227319 -0.55251741
6.1867027 1.0364928 -0.54880917
6.8560495 1.1486323 -0.55000889
7.6288366 1.2781017 -0.54735482
8.6111774 1.4426786 -0.5449481
9.887536 1.656514 -0.54211646
11.623398 1.9473327 -0.53909689
14.071783 2.3575244 -0.53386641
17.823942 2.9861448 -0.52585101
24.284695 4.0685506 -0.51168603
38.136719 6.3892574 -0.48208705
2.061641 0.37151447 -0.56131184
2.1314223 0.38408932 -0.5610612
2.2092574 0.39811546 -0.56168312
2.2680035 0.40870169 -0.55630827
2.3546476 0.42431527 -0.55655891
2.4459045 0.44076005 -0.55639714
2.5447276 0.45856827 -0.55635178
2.6563749 0.47868752 -0.55733103
2.7855713 0.50196916 -0.55995214
2.9140477 0.52512097 -0.56024754
3.0382133 0.54749602 -0.55758435
3.1883516 0.57455146 -0.55737555
3.3483517 0.60338402 -0.5562734
3.521426 0.63457257 -0.55453432
3.7512753 0.67599213 -0.55833054
3.9754725 0.71639323 -0.55744737
4.2099843 0.75865304 -0.55414158
4.5056491 0.8119328 -0.55441087
4.8362374 0.87150592 -0.55368912
5.2203693 0.94072771 -0.5530628
5.6664052 1.0211048 -0.55198532
6.1965923 1.1166463 -0.55086279
6.8303275 1.2308475 -0.54911804
7.6169806 1.372605 -0.5476737
8.5870562 1.5474157 -0.54458457
9.8900175 1.7822137 -0.54341298
11.599523 2.0902722 -0.53914088
14.040502 2.5301447 -0.53381962
17.78204 3.2043819 -0.52573752
24.243425 4.3687453 -0.51190966
38.065254 6.8594842 -0.48221347
2.0590374 0.39724448 -0.56189048
2.1227608 0.40953842 -0.56006444
2.1960475 0.42367741 -0.55960685
2.2668402 0.43733528 -0.55729991
2.3680379 0.45685905 -0.56100929
2.4512441 0.4729118 -0.55889243
2.5466073 0.49131 -0.55804139
2.6357973 0.50851715 -0.55428368
2.765878 0.53361326 -0.55727023
2.9083281 0.56109577 -0.56043202
3.0233419 0.58328509 -0.55612934
3.1763775 0.61280984 -0.55655748
3.3469465 0.6457172 -0.5573169
3.5287454 0.6807912 -0.55696315
3.719758 0.71764272 -0.55491102
3.9500535 0.76207298 -0.5551551
4.2069364 0.81163269 -0.55501205
4.4844904 0.86518043 -0.5530746
4.8341541 0.93264008 -0.55472159
5.1941876 1.0021005 -0.55155283
5.6699595 1.0938897 -0.55360001
6.1933584 1.1948677 -0.55183977
6.8161521 1.3150215 -0.54923689
7.5898304 1.4642851 -0.54697484
8.5722322 1.6538173 -0.54489297
9.8593102 1.9021298 -0.54296988
11.57411 2.2329614 -0.53919518
13.993945 2.6998136 -0.53327143
17.740063 3.4225416 -0.52570099
24.194263 4.6677332 -0.51204485
37.983845 7.3281193 -0.48228723
2.0600579 0.42377812 -0.56354839
2.1091766 0.43388245 -0.55784595
2.1952951 0.45159799 -0.56078774
2.2643607 0.46580562 -0.55805629
2.3408649 0.48154339 -0.55593258
2.4374387 0.50140977 -0.5571084
2.5412366 0.52276224 -0.55823088
2.6535268 0.54586166 -0.55938131
2.7618587 0.56814677 -0.55782586
2.8935046 0.5952279 -0.55894369
3.0053699 0.61823994 -0.55417997
3.1723866 0.65259719 -0.55722213
3.3321009 0.68545228 -0.55620635
3.511796 0.72241771 -0.55564803
3.7178807 0.76481175 -0.55599189
3.938026 0.81009823 -0.5548228
4.1809921 0.86007917 -0.55294275
4.4762259 0.92081225 -0.55340993
4.8077831 0.98901749 -0.55304927
5.1868758 1.0670013 -0.55212784
5.6495728 1.1621835 -0.55296308
6.1709495 1.2694368 -0.55119222
6.8015237 1.3991534 -0.54940295
7.5826783 1.559846 -0.5478003
8.5396385 1.7567039 -0.54415309
9.8339415 2.0229573 -0.54290164
11.542932 2.3745167 -0.5390622
13.980032 2.8758569 -0.53404844
17.707853 3.6427135 -0.52603412
24.14517 4.9669452 -0.51225972
37.922894 7.8011847 -0.4826948
2.0308378 0.44386211 -0.55700588
2.1032593 0.45969063 -0.55773371
2.1940606 0.47953624 -0.56193626
2.2533777 0.49250066 -0.55679995
2.3409665 0.51164412 -0.55740869
2.4419219 0.53370911 -0.55959082
2.5455832 0.55636543 -0.56064618
2.6408467 0.57718629 -0.55816221
2.7532706 0.60175782 -0.55754364
2.8799741 0.62945026 -0.55778301
3.0128951 0.65850163 -0.55701858
3.1704814 0.69294387 -0.55834198
3.3336916 0.72861522 -0.55792522
3.5080206 0.76671678 -0.55650026
3.7038345 0.80951411 -0.55533797
3.9331744 0.85963881 -0.55558652
4.1716628 0.91176313 -0.55314988
4.4654145 0.97596586 -0.5535152
4.8062329 1.0504555 -0.55431485
5.1667762 1.1292561 -0.55142468
5.6231723 1.2290065 -0.55181646
6.1604757 1.3464402 -0.55169386
6.7867441 1.4833181 -0.54964089
7.5486608 1.6498435 -0.54676706
8.546032 1.86783 -0.54598278
9.8006763 2.1420462 -0.54247826
11.520383 2.5179071 -0.53941423
13.946891 3.0482473 -0.53417391
17.657248 3.8591869 -0.52590072
24.077761 5.2624612 -0.5121637
37.835564 8.2693815 -0.48284099
2.0286601 0.46959355 -0.5579502
2.0926049 0.48439547 -0.55644584
2.1963041 0.50839972 -0.56406933
2.2604828 0.52325577 -0.56010312
2.3454189 0.54291677 -0.56001616
2.4282365 0.56208736 -0.55799633
2.5166831 0.58256096 -0.55581683
2.6314986 0.60913843 -0.5577274
2.7600729 0.63890076 -0.56046963
2.8606853 0.66219044 -0.55558223
3.0119076 0.69719535 -0.55837876
3.1568372 0.73074359 -0.55747938
3.3164251 0.76768494 -0.55657327
3.5046034 0.81124437 -0.55749851
3.6979127 0.85599154 -0.55598623
3.9172816 0.906771 -0.55487466
4.183444 0.96838212 -0.55624884
4.448842 1.0298164 -0.55298871
4.7882609 1.108385 -0.55377215
5.1570148 1.1937441 -0.55190778
5.6046214 1.2973559 -0.55151987
6.1525164 1.4241823 -0.55250758
6.7454863 1.5614429 -0.54781312
7.5368671 1.7446314 -0.54742527
8.5073929 1.9692885 -0.5450201
9.7834358 2.2646663 -0.5430243
11.474824 2.6561885 -0.53876966
13.900396 3.217659 -0.53386819
17.61643 4.0778451 -0.52613866
24.011517 5.5581775 -0.51216966
37.744091 8.736989 -0.48300821
2.0232952 0.49463901 -0.55810529
2.0762703 0.50758994 -0.55372018
2.1766393 0.53212738 -0.56065696
2.2521925 0.55059797 -0.55968416
2.337734 0.57151049 -0.5598169
2.4167008 0.59081566 -0.55697286
2.5178232 0.61553723 -0.55769807
2.6045511 0.63673979 -0.55363363
2.7161539 0.66402352 -0.55316752
2.8772299 0.7034021 -0.56043285
2.9891829 0.73077148 -0.55578971
3.1469734 0.76934683 -0.55736595
3.3124931 0.80981177 -0.55754238
3.4965491 0.85480833 -0.55784714
3.6808414 0.89986259 -0.55504119
3.9323351 0.96134579 -0.55863917
