# .PCD v0.7 - Point Cloud Data file format
VERSION 0.7
FIELDS x y z
SIZE 4 4 4
TYPE F F F
COUNT 1 1 1
WIDTH 1428
HEIGHT 1
VIEWPOINT 0 0 0 1 0 0 0
POINTS 1428
DATA ascii
-3.2610474 -2.9642234 -0.57086998
-3.4993153 -3.1808038 -0.57266057
-3.7572901 -3.4152975 -0.57210129
-4.0651612 -3.6951456 -0.57278389
-4.4260831 -4.0232162 -0.57342857
-4.8549967 -4.4130898 -0.57400984
-5.3835464 -4.8935299 -0.57561553
-6.0395856 -5.4898558 -0.57754529
-6.8538389 -6.2299948 -0.57808912
-7.9656439 -7.2406025 -0.58209473
-9.4506912 -8.5904789 -0.58420539
-11.653618 -10.592893 -0.58926755
-9.0720119 -8.2462683 -0.3567228
-8.9274349 -8.11485 -0.25070667
-8.9657421 -8.1496706 -0.15105556
-9.0965433 -8.2685661 -0.051084079
-10.349133 -9.4071436 0.058118332
-11.051209 -10.045316 0.18619166
-11.255995 -10.231462 0.31609896
-11.397446 -10.360038 0.44816172
-11.460339 -10.417206 0.57949436
-11.465335 -10.421747 0.70874292
-11.476579 -10.431968 0.83865863
-11.463256 -10.419857 0.9668718
-11.380098 -10.344269 1.0882405
-11.250856 -10.226791 1.2029557
-11.086524 -10.077416 1.3107679
-10.889781 -9.8985806 1.4108437
-10.65405 -9.6843071 1.5011628
-10.327853 -9.3878012 1.5725638
-9.9240332 -9.0207367 1.6240613
-9.0602932 -8.2356157 1.5860701
-9.0169096 -8.1961813 1.6815614
-8.8475237 -8.0422125 1.7513542
-8.9041414 -8.0936766 1.8648409
-1.5492519 -1.4434211 -0.56737143
-1.5952526 -1.4862795 -0.56483865
-1.6500055 -1.537292 -0.56426698
-1.719499 -1.6020385 -0.56731981
-1.7837231 -1.6618754 -0.56710941
-1.8609622 -1.7338381 -0.56942588
-1.929899 -1.7980658 -0.56754071
-2.0170023 -1.8792191 -0.56922567
-2.0949588 -1.9518502 -0.56645614
-2.2009323 -2.0505846 -0.56917292
-2.2985663 -2.1415491 -0.56741858
-2.4257481 -2.2600431 -0.57040274
-2.5526128 -2.3782415 -0.57042217
-2.6914589 -2.5076029 -0.57010108
-2.85763 -2.6624227 -0.57210088
-3.0193396 -2.8130856 -0.5694837
-3.2236891 -3.0034759 -0.57075226
-3.4603684 -3.2239873 -0.57273132
-3.7045801 -3.4515166 -0.57049465
-4.0218091 -3.7470758 -0.57312441
-4.378088 -4.0790167 -0.57366532
-4.8031745 -4.4750652 -0.57434535
-5.315268 -4.952177 -0.57478255
-5.9686284 -5.5609059 -0.57725513
-6.7863064 -6.3227277 -0.57890695
-7.8569179 -7.3202047 -0.58068335
-9.348299 -8.7097082 -0.58445215
-11.52513 -10.737838 -0.5894025
-8.9330244 -8.3228016 -0.35525495
-8.864686 -8.2591314 -0.2517775
-8.9771061 -8.3638716 -0.1529682
-9.0619001 -8.442874 -0.051468655
-10.004596 -9.3211727 0.056822862
-10.312171 -9.6077375 0.17571746
-10.69446 -9.9639111 0.3037473
-10.862742 -10.120699 0.43199736
-10.996815 -10.245612 0.56238407
-10.982692 -10.232454 0.68663377
-10.994358 -10.243323 0.812563
-10.990304 -10.239546 0.93752962
-10.946857 -10.199067 1.0587239
-10.817978 -10.078992 1.1698347
-10.675892 -9.9466124 1.2765826
-10.492481 -9.7757301 1.3748406
-10.275084 -9.573184 1.4642419
-10.060214 -9.3729916 1.549244
-9.6672506 -9.0068722 1.6000427
-9.04321 -8.4254599 1.601095
-8.9869986 -8.3730888 1.695056
-8.8087244 -8.2069921 1.7635171
-8.798111 -8.1971045 1.8636036
-1.5301815 -1.4612097 -0.56692469
-1.5780393 -1.5069101 -0.56526202
-1.640681 -1.5667284 -0.56762362
-1.7004758 -1.6238281 -0.56758845
-1.7669197 -1.687277 -0.56832045
-1.8414487 -1.7584465 -0.57002813
-1.915025 -1.8287064 -0.5697363
-1.9843382 -1.8948953 -0.5665403
-2.0777819 -1.9841273 -0.56836563
-2.1718223 -2.0739288 -0.56819689
-2.2726104 -2.1701739 -0.56755579
-2.3920157 -2.2841971 -0.56903231
-2.5110996 -2.3979135 -0.56769156
-2.6643555 -2.5442615 -0.57094371
-2.8132572 -2.6864514 -0.56978774
-2.9957662 -2.8607337 -0.57162905
-3.1924944 -3.048595 -0.57182306
-3.4104555 -3.2567313 -0.57105505
-3.6798587 -3.5139916 -0.57329845
-3.9847753 -3.8051641 -0.57447124
-4.3150358 -4.1205382 -0.57199943
-4.7449636 -4.5310879 -0.5740037
-5.2531815 -5.0163975 -0.57469559
-5.892489 -5.6268888 -0.57653952
-6.6992183 -6.3972554 -0.57814455
-7.7682629 -7.4181137 -0.58082879
-9.228919 -8.812932 -0.58371955
-11.386994 -10.873733 -0.58913153
-8.8603134 -8.4609404 -0.35647389
-8.8047237 -8.407856 -0.25299171
-8.9394217 -8.5364828 -0.15410306
-9.0176868 -8.6112204 -0.051815026
-9.4793901 -9.0521126 0.054467946
-9.9293232 -9.4817657 0.17116758
-10.121554 -9.6653318 0.29082909
-10.277251 -9.8140106 0.41348106
-10.385183 -9.917078 0.53730059
-10.455048 -9.9837933 0.66127092
-10.495423 -10.022348 0.78473705
-10.476219 -10.00401 0.90410089
-10.434537 -9.9642067 1.0209477
-10.348598 -9.8821421 1.1321318
-10.261564 -9.7990313 1.2413532
-10.142371 -9.6852102 1.3444687
-10.000862 -9.5500793 1.4417896
-9.7039824 -9.2665815 1.5118184
-9.4129057 -8.9886246 1.5761201
-8.9978027 -8.5922327 1.6116397
-8.9262228 -8.5238791 1.7032334
-8.7770605 -8.3814402 1.7776767
-8.7319298 -8.3383436 1.8711619
-1.5133373 -1.481125 -0.56738877
-1.5719028 -1.5384438 -0.5697971
-1.6241916 -1.5896196 -0.56863838
-1.6889966 -1.6530452 -0.57049841
-1.7511047 -1.7138313 -0.56996888
-1.8125192 -1.7739385 -0.56778234
-1.8877928 -1.84761 -0.56835067
-1.9646227 -1.9228046 -0.56761897
-2.0594456 -2.015609 -0.57008654
-2.1500068 -2.1042426 -0.56921583
-2.2460582 -2.1982496 -0.56763238
-2.3582921 -2.3080945 -0.56771863
-2.4827437 -2.4298968 -0.56799293
-2.6353886 -2.5792928 -0.57148969
-2.7889426 -2.7295783 -0.57161796
-2.9609518 -2.8979261 -0.5717423
-3.146867 -3.0798841 -0.57039076
-3.3813734 -3.3093987 -0.57295609
-3.6279981 -3.5507739 -0.57197791
-3.9388909 -3.8550491 -0.57464683
-4.2873893 -4.1961298 -0.57513088
-4.6895361 -4.5897164 -0.57408243
-5.1885972 -5.078155 -0.57441795
-5.8181767 -5.6943331 -0.57607603
-6.6253085 -6.4842849 -0.57860345
-7.6755328 -7.5121541 -0.58075815
-9.1275635 -8.9332781 -0.58421254
-11.243645 -11.004316 -0.58867127
-8.8208675 -8.63311 -0.35913071
-8.7572222 -8.5708189 -0.25463584
-8.8640223 -8.6753464 -0.15463054
-8.9330292 -8.7428837 -0.051942389
-9.0904503 -8.8969545 0.052857734
-9.4824133 -9.2805738 0.16541821
-9.729001 -9.5219135 0.28289253
-9.8752851 -9.6650839 0.40206
-9.9828472 -9.7703562 0.52266109
-10.038285 -9.8246136 0.6425035
-10.057575 -9.8434935 0.76099193
-10.06939 -9.8550568 0.87938303
-10.02669 -9.8132668 0.99277425
-9.9977798 -9.7849712 1.1068318
-9.933567 -9.7221251 1.2160449
-9.8028564 -9.5941973 1.3150021
-9.5900488 -9.3859186 1.3990972
-9.3922596 -9.1923389 1.4807519
-9.1218224 -8.927659 1.5456452
-8.8993893 -8.70996 1.6130741
-8.8494453 -8.6610794 1.7087756
-8.7018061 -8.5165834 1.7835106
-8.6793165 -8.4945726 1.8821285
-1.4935983 -1.4982027 -0.56685239
-1.5499024 -1.5546802 -0.56870896
-1.590788 -1.5956919 -0.56377053
-1.6506331 -1.6557214 -0.56437445
-1.7208769 -1.7261819 -0.56699598
-1.7901087 -1.795627 -0.56763583
-1.8659565 -1.8717086 -0.56866264
-1.9451452 -1.9511416 -0.56888032
-2.0281789 -2.0344312 -0.56831336
-2.1163061 -2.1228299 -0.56716156
-2.219959 -2.2268026 -0.56791359
-2.3359802 -2.3431814 -0.56924057
-2.4554498 -2.4630191 -0.56863457
-2.6022627 -2.6102848 -0.57122344
-2.7588267 -2.7673314 -0.57237655
-2.9233088 -2.9323206 -0.57139289
-3.1000714 -3.109628 -0.56879658
-3.3279254 -3.3381846 -0.57081187
-3.5905201 -3.6015885 -0.57300806
-3.8739681 -3.8859103 -0.57210302
-4.2187853 -4.2317905 -0.57286507
-4.6250792 -4.6393371 -0.57313204
-5.1333771 -5.1492014 -0.57527083
-5.7485666 -5.7662878 -0.57616073
-6.5412765 -6.5614409 -0.57826722
-7.5684419 -7.591773 -0.57967478
-9.0115099 -9.0392895 -0.58385462
-11.09785 -11.132061 -0.58816034
-8.9040356 -8.9314842 -0.36696047
-8.6900396 -8.7168283 -0.25577971
-8.7584448 -8.7854443 -0.15466163
-8.8685493 -8.8958883 -0.052199572
-8.9065638 -8.93402 0.052423321
-9.0520544 -9.0799589 0.15984635
-9.2787161 -9.3073196 0.27310663
-9.4795742 -9.5087967 0.39068004
-9.5950584 -9.6246367 0.50851589
-9.6495914 -9.6793385 0.62519586
-9.6452827 -9.6750154 0.73874217
-9.6726561 -9.7024746 0.85509002
-9.6227732 -9.6524372 0.96446019
-9.6146336 -9.6442728 1.077462
-9.5328808 -9.5622683 1.1812986
-9.4043798 -9.4333706 1.2770122
-9.3244228 -9.3531666 1.3770196
-9.0759802 -9.1039581 1.4484279
-8.8902369 -8.9176435 1.5248697
-8.8088617 -8.8360167 1.6162369
-8.7237234 -8.7506161 1.7051477
-8.6303501 -8.6569548 1.7905475
-8.6781178 -8.7048693 1.9049361
-1.4836421 -1.5252726 -0.57014883
-1.5275266 -1.5703884 -0.56754118
-1.5851144 -1.6295921 -0.56881827
-1.6406571 -1.6866933 -0.568012
-1.7009856 -1.7487146 -0.56748408
-1.7641393 -1.8136405 -0.56642991
-1.837296 -1.8888499 -0.56696367
-1.9215299 -1.9754473 -0.56903487
-2.0100121 -2.0664122 -0.57029969
-2.0955634 -2.1543641 -0.56865913
-2.2049983 -2.2668695 -0.57117397
-2.300334 -2.3648806 -0.56759745
-2.4245894 -2.4926226 -0.56854302
-2.5486155 -2.6201286 -0.56647676
-2.7231131 -2.7995226 -0.57206577
-2.8771396 -2.957871 -0.56943476
-3.0684843 -3.1545849 -0.57007504
-3.2829912 -3.3751106 -0.57018
-3.5419593 -3.6413455 -0.57236075
-3.8231442 -3.9304204 -0.57169157
-4.1605244 -4.2772675 -0.57205248
-4.5745168 -4.7028761 -0.57398909
-5.0669022 -5.2090774 -0.574956
-5.6725202 -5.8316889 -0.57568246
-6.4609356 -6.6422272 -0.57834154
-7.4934869 -7.7037516 -0.58114541
-8.8923798 -9.1418972 -0.58337533
-10.959213 -11.266725 -0.5881108
-14.252562 -14.652483 -0.59476882
-8.6592712 -8.9022465 -0.25807655
-8.646801 -8.8894272 -0.15460871
-8.727108 -8.9719868 -0.052012481
-8.8072557 -9.0543842 0.052490152
-8.8592739 -9.1078625 0.15840782
-8.9128036 -9.1628933 0.26563272
-9.0194445 -9.2725267 0.37638739
-9.1338091 -9.3901005 0.49015307
-9.2284546 -9.487402 0.60542315
-9.2560968 -9.5158195 0.71784174
-9.2665539 -9.5265694 0.82948244
-9.2719469 -9.532114 0.94097453
-9.2415428 -9.5008574 1.0486645
-9.154109 -9.4109707 1.1486151
-9.0329952 -9.2864571 1.2419943
-8.9120884 -9.162158 1.3326638
-8.8095284 -9.0567207 1.4235704
-8.7490225 -8.9945173 1.5195038
-8.6971674 -8.9412069 1.6157939
-8.5919533 -8.8330402 1.7004933
-8.5624027 -8.8026609 1.7987715
-1.448611 -1.5263668 -0.56385678
-1.5027919 -1.5834559 -0.5655427
-1.562494 -1.6463627 -0.56792277
-1.6193177 -1.7062364 -0.56784487
-1.6770332 -1.7670498 -0.56669933
-1.7446262 -1.838271 -0.56737953
-1.8229915 -1.9208426 -0.56979507
-1.8982084 -2.000097 -0.56936872
-1.9805508 -2.086859 -0.5691784
-2.0741563 -2.1854889 -0.57009947
-2.1655829 -2.2818232 -0.5681892
-2.2707124 -2.3925955 -0.567505
-2.3994832 -2.5282781 -0.56990278
-2.5269406 -2.6625769 -0.56889319
-2.6722579 -2.8156946 -0.56861287
-2.8449404 -2.9976459 -0.57031417
-3.0213592 -3.1835344 -0.56854975
-3.2523255 -3.426898 -0.57212937
-3.4869599 -3.6741266 -0.57073063
-3.7674303 -3.9696515 -0.57061642
-4.1143355 -4.3351774 -0.57298791
-4.5058661 -4.7477236 -0.57265711
-5.0010362 -5.2694726 -0.57479113
-5.6053424 -5.9062157 -0.57619178
-6.365778 -6.7074685 -0.57716292
-7.385643 -7.7820759 -0.58015913
-8.7742844 -9.2452536 -0.58304179
-10.805934 -11.385955 -0.58735412
-14.069032 -14.824203 -0.59467196
-20.150358 -21.231951 -0.6082862
-8.6004944 -9.0621357 -0.15576141
-8.5793238 -9.0398293 -0.051790278
-8.6561718 -9.1208019 0.052254181
-8.7246094 -9.1929131 0.15800923
-8.7343512 -9.2031775 0.26366705
-8.7546949 -9.2246132 0.37004474
-8.7942667 -9.2663097 0.47801045
-8.8414145 -9.3159876 0.58750254
-8.8747635 -9.3511267 0.69713295
-8.8834734 -9.3603048 0.80543363
-8.8745871 -9.3509407 0.91224831
-8.8394766 -9.3139458 1.01596
-8.7979202 -9.2701588 1.1181406
-8.7426014 -9.2118702 1.217549
-8.7104435 -9.1779861 1.3192871
-8.6947212 -9.1614199 1.4231147
-8.6380301 -9.1016865 1.5195498
-8.5521469 -9.0111933 1.6093156
-8.4907246 -8.9464741 1.7021025
-1.4388567 -1.5539151 -0.56745458
-1.4827788 -1.6013495 -0.56537873
-1.5407099 -1.663913 -0.56739867
-1.5965691 -1.724239 -0.56725967
-1.6507101 -1.7827095 -0.5651691
-1.7206712 -1.8582649 -0.56697732
-1.7991512 -1.9430207 -0.56976825
-1.872388 -2.0221138 -0.56903911
-1.950073 -2.1060109 -0.56781894
-2.0420353 -2.205327 -0.5686813
-2.1340599 -2.3047104 -0.56731111
-2.254565 -2.4348516 -0.5709089
-2.3541551 -2.5424056 -0.56651926
-2.4979043 -2.6976497 -0.56978118
-2.6405761 -2.8517303 -0.56928998
-2.8060596 -3.0304468 -0.56994694
-3.0010178 -3.2409947 -0.57217807
-3.1971185 -3.4527767 -0.56984335
-3.4425492 -3.7178333 -0.57090116
-3.7312505 -4.0296206 -0.57259828
-4.0611167 -4.3858647 -0.57304376
-4.4487581 -4.8045044 -0.57286429
-4.9407663 -5.3358555 -0.57536167
-5.5300231 -5.9722328 -0.57595479
-6.2769141 -6.7788491 -0.57661992
-7.2850938 -7.8676476 -0.5798164
-8.659874 -9.3523626 -0.58303696
-10.669409 -11.52259 -0.58759034
-13.877715 -14.98745 -0.59433013
-19.873245 -21.462414 -0.60784173
-34.928204 -37.721245 -0.64092797
-8.5504875 -9.2342291 -0.052297704
-8.5050678 -9.1851768 0.052019898
-8.5368252 -9.2194738 0.15664962
-8.5929098 -9.2800436 0.26282215
-8.6594172 -9.3518686 0.37085012
-8.6789169 -9.3729286 0.47796911
-8.6604252 -9.3529577 0.58307409
-8.6721325 -9.3656015 0.69020998
-8.6782713 -9.3722315 0.79721725
-8.6685038 -9.3616819 0.90282917
-8.6565418 -9.3487644 1.0080708
-8.6603155 -9.3528385 1.1151842
-8.6489592 -9.3405752 1.2204112
-8.5729876 -9.2585278 1.3156118
-8.5269709 -9.2088318 1.4140851
-8.4575338 -9.1338425 1.5074418
-8.4429359 -9.1180773 1.6097414
-12.648723 -13.66018 2.5691187
-1.4271392 -1.5797887 -0.57045144
-1.4676874 -1.624674 -0.56719905
-1.5109811 -1.6725985 -0.56398207
-1.5739648 -1.7423191 -0.56679761
-1.6365193 -1.8115644 -0.56789428
-1.7077018 -1.8903608 -0.57032007
-1.7666043 -1.9555635 -0.56703341
-1.8404227 -2.0372777 -0.56689501
-1.9236789 -2.1294391 -0.56771499
-2.0126607 -2.2279387 -0.56808728
-2.1118231 -2.3377078 -0.5689984
-2.2180836 -2.4553339 -0.56927323
-2.3196995 -2.5678189 -0.56578332
-2.4648221 -2.7284641 -0.56984484
-2.5985434 -2.8764884 -0.56781071
-2.7675948 -3.0636218 -0.5697428
-2.9564378 -3.2726638 -0.57130784
-3.1505818 -3.4875739 -0.56914943
-3.4054136 -3.7696629 -0.57238656
-3.6804795 -4.0741506 -0.57245165
-4.0057111 -4.4341693 -0.5728761
-4.3940592 -4.8640556 -0.57347912
-4.86938 -5.3902178 -0.5747236
-5.4504671 -6.0334592 -0.57535243
-6.2052674 -6.8689942 -0.57775372
-7.1845627 -7.9530373 -0.5795548
-8.5428629 -9.4566231 -0.58294392
-10.517706 -11.642699 -0.58707571
-13.689246 -15.153474 -0.59419382
-19.575718 -21.669573 -0.60684562
-34.397099 -38.076275 -0.63972533
-8.4466572 -9.3501272 0.15709293
-8.4475412 -9.3511057 0.26187307
-8.4451427 -9.3484516 0.36656886
-8.4807291 -9.3878441 0.47337604
-8.5003805 -9.4095974 0.58004504
-8.5056887 -9.415473 0.68612564
-8.5075922 -9.4175797 0.79211622
-8.5138721 -9.4245319 0.89872617
-8.4839659 -9.3914261 1.0013462
-8.4593811 -9.364212 1.104054
-8.4212799 -9.3220358 1.2043681
-8.3916874 -9.289278 1.3052199
-8.4246979 -9.325819 1.4160347
-14.079457 -15.585422 2.5434399
-13.14279 -14.548567 2.5397384
-12.646352 -13.999029 2.603404
-1.389286 -1.5764279 -0.56302667
-1.4483467 -1.6434443 -0.56749153
-1.4958788 -1.6973791 -0.56609273
-1.5497745 -1.7585348 -0.56583059
-1.6189879 -1.8370714 -0.56960648
-1.6779809 -1.904011 -0.56817037
-1.7485188 -1.9840506 -0.56901622
-1.826954 -2.0730515 -0.57055509
-1.896068 -2.1514752 -0.56733114
-1.9774228 -2.2437887 -0.56588602
-2.0813315 -2.3616943 -0.56856441
-2.1885061 -2.4833057 -0.56947619
-2.2959595 -2.6052334 -0.56776363
-2.4188423 -2.744669 -0.56697452
-2.5689282 -2.9149721 -0.56912875
-2.7305431 -3.0983572 -0.56991529
-2.908169 -3.2999098 -0.56977844
-3.1172574 -3.537163 -0.57094353
-3.3501365 -3.8014121 -0.57090914
-3.6168122 -4.1040101 -0.57035506
-3.9499292 -4.4819989 -0.57273716
-4.3385124 -4.9229255 -0.57408667
-4.7990408 -5.4454889 -0.57428139
-5.378634 -6.1031556 -0.57564825
-6.1257868 -6.9509521 -0.57826787
-7.0836062 -8.0377932 -0.57933992
-8.4253721 -9.5602999 -0.5829044
-10.369646 -11.766475 -0.58684301
-13.495236 -15.313093 -0.59390092
-19.29101 -21.889578 -0.60631794
-33.864208 -38.425838 -0.63855398
-8.3643475 -9.4910555 0.57868248
-8.3639851 -9.4906435 0.684057
-8.3662453 -9.4932089 0.78976482
-8.3666058 -9.493618 0.89543587
-8.3341446 -9.4567842 0.99731272
-15.222278 -17.272774 2.4004848
-15.169682 -17.213093 2.5851214
-14.092978 -15.991352 2.5812094
-13.146726 -14.917637 2.5757515
-12.724125 -14.43811 2.6557622
-1.3881496 -1.614738 -0.57056975
-1.4293237 -1.6626328 -0.56800556
-1.4789854 -1.7204009 -0.56766254
-1.5220435 -1.7704873 -0.56361187
-1.5855343 -1.8443419 -0.56577283
-1.6553429 -1.9255453 -0.5684793
-1.7136 -1.9933116 -0.56558633
-1.7936054 -2.0863764 -0.56810951
-1.8776417 -2.18413 -0.56981069
-1.9537452 -2.272656 -0.56706452
-2.0460045 -2.3799746 -0.56686568
-2.1556139 -2.5074756 -0.56889731
-2.27318 -2.6442323 -0.5701279
-2.3928053 -2.7833841 -0.56885099
-2.5265892 -2.9390056 -0.56771237
-2.6819999 -3.1197841 -0.56774741
-2.8746805 -3.3439159 -0.57123011
-3.0664284 -3.566963 -0.56962425
-3.3008931 -3.8396995 -0.57052028
-3.574934 -4.1584721 -0.5717715
-3.8952892 -4.5311189 -0.57284999
-4.2703457 -4.9673958 -0.57310581
-4.7282133 -5.5000019 -0.57385546
-5.3079605 -6.1743817 -0.57616651
-6.0323625 -7.0170279 -0.57755023
-6.9828715 -8.1226892 -0.57922632
-8.3023663 -9.6575661 -0.58256626
-10.215938 -11.88349 -0.58636951
-13.28933 -15.458553 -0.59315985
-19.005178 -22.107401 -0.60583246
-33.335251 -38.776581 -0.63752258
-14.923794 -17.359812 2.3868971
-14.639146 -17.0287 2.5302031
-14.120074 -16.4249 2.6229658
-13.183035 -15.334908 2.6196117
-12.792672 -14.880825 2.7080562
-1.359695 -1.6215521 -0.56702679
-1.4086221 -1.679902 -0.56794488
-1.457737 -1.7384756 -0.56766897
-1.4999491 -1.7888172 -0.56353289
-1.5676904 -1.8696043 -0.56756604
-1.6252257 -1.9382201 -0.56627846
-1.6944059 -2.0207233 -0.56740946
-1.7631494 -2.102706 -0.56660956
-1.8411527 -2.1957316 -0.56688809
-1.9283216 -2.2996879 -0.56785011
-2.019604 -2.40855 -0.5677138
-2.1255274 -2.5348725 -0.56914032
-2.2222967 -2.6502781 -0.56549686
-2.3653905 -2.8209298 -0.57053679
-2.4965129 -2.9773045 -0.56913745
-2.6590891 -3.1711905 -0.57110894
-2.8287647 -3.3735428 -0.57030606
-3.033145 -3.6172838 -0.57166088
-3.254622 -3.8814142 -0.5707289
-3.5230622 -4.2015519 -0.57169509
-3.8390136 -4.578351 -0.57280988
-4.2104821 -5.021359 -0.57331502
-4.6674747 -5.5663614 -0.57474756
-5.230114 -6.2373562 -0.57599819
-5.9332075 -7.0758557 -0.57634372
-6.8876786 -8.2141438 -0.57966459
-8.1825562 -9.7583952 -0.58253503
-10.065182 -12.003587 -0.58614415
-13.09118 -15.612348 -0.59283948
-18.710833 -22.314262 -0.60515052
-32.795021 -39.110859 -0.63634032
-14.209585 -16.94614 2.4917858
-14.122457 -16.842234 2.6616783
-13.189799 -15.729959 2.6591899
-12.881188 -15.361916 2.7665722
-1.345265 -1.6450087 -0.56940168
-1.38919 -1.6987206 -0.56848896
-1.4349072 -1.7546242 -0.56713772
-1.4853765 -1.8163388 -0.56640625
-1.5415903 -1.8850778 -0.56646597
-1.6053519 -1.9630464 -0.56772155
-1.6763216 -2.0498292 -0.56975114
-1.7425843 -2.130856 -0.56837815
-1.8080539 -2.2109132 -0.56502497
-1.8942732 -2.3163433 -0.56616837
-1.9860891 -2.428617 -0.56664455
-2.1013298 -2.569535 -0.57107818
-2.2021425 -2.6928103 -0.56875122
-2.3275371 -2.8461444 -0.56980491
-2.4641454 -3.013191 -0.57016224
-2.6072166 -3.1881404 -0.56834489
-2.7736614 -3.3916712 -0.56756204
-2.9875422 -3.6532075 -0.57148927
-3.2011726 -3.9144378 -0.56975365
-3.4700685 -4.2432475 -0.57151932
-3.774941 -4.6160498 -0.57167572
-4.1484294 -5.0727563 -0.5733158
-4.5862322 -5.608108 -0.57319176
-5.1428757 -6.2887788 -0.57486349
-5.8502812 -7.1538043 -0.57678968
-6.7803073 -8.2910528 -0.57916456
-8.0517282 -9.8457642 -0.58179629
-9.8996944 -12.105483 -0.58513135
-12.887813 -15.759395 -0.59236073
-18.411045 -22.513279 -0.60436243
-32.251499 -39.437576 -0.63515562
-13.744647 -16.807144 2.6292245
-13.194802 -16.134787 2.6999941
-12.992362 -15.887239 2.8321936
-1.3115627 -1.6446539 -0.56365389
-1.3669943 -1.7141632 -0.56798869
-1.413388 -1.7723393 -0.56720328
-1.4610009 -1.8320442 -0.56565881
-1.516014 -1.9010289 -0.5656147
-1.5795044 -1.9806435 -0.56715077
-1.6495821 -2.0685186 -0.56926495
-1.7109795 -2.1455088 -0.56663179
-1.7961607 -2.2523232 -0.56992024
-1.8712218 -2.346447 -0.56785941
-1.9583739 -2.4557328 -0.56730968
-2.0569141 -2.579299 -0.56758398
-2.1801343 -2.7338126 -0.571706
-2.2893035 -2.8707068 -0.56904358
-2.422883 -3.0382109 -0.56921607
-2.5746236 -3.2284884 -0.5698508
-2.7391438 -3.4347908 -0.56909841
-2.9328637 -3.6777091 -0.56963748
-3.1608734 -3.9636252 -0.57121259
-3.4128566 -4.2796035 -0.57072055
-3.7197173 -4.6643958 -0.57195538
-4.083715 -5.1208367 -0.57303119
-4.5244975 -5.6735625 -0.57415193
-5.0701189 -6.3577528 -0.57542604
-5.7591166 -7.2217321 -0.57651317
-6.6712947 -8.365571 -0.57859588
-7.9232106 -9.9354305 -0.5812937
-9.7543697 -12.231641 -0.58538747
-12.6813 -15.901909 -0.59181154
-18.12085 -22.722916 -0.60396278
-31.708685 -39.761589 -0.63404649
-14.173264 -17.772779 2.7528119
-13.203273 -16.556446 2.7431788
-1.300301 -1.6723071 -0.56760848
-1.3433747 -1.727704 -0.56695908
-1.3939321 -1.7927254 -0.56819904
-1.4465889 -1.8604469 -0.56889319
-1.4939442 -1.9213501 -0.56615239
-1.5570189 -2.00247 -0.56787544
-1.6226972 -2.0869386 -0.56879991
-1.6945915 -2.1794012 -0.57003653
-1.7658693 -2.271071 -0.56912667
-1.8502775 -2.3796279 -0.57034022
-1.9268403 -2.4780946 -0.56695926
-2.0265176 -2.6062887 -0.56799674
-2.1313283 -2.7410853 -0.56770325
-2.2487619 -2.8921156 -0.56776315
-2.3912344 -3.0753484 -0.57062185
-2.5327237 -3.2573166 -0.56939906
-2.6898427 -3.4593863 -0.56765044
-2.8997192 -3.7293069 -0.57206339
-3.1024394 -3.9900239 -0.56947613
-3.3656614 -4.3285513 -0.57168585
-3.6610937 -4.7085047 -0.57180059
-4.0101037 -5.1573639 -0.57155758
-4.4463477 -5.7184138 -0.57311457
-4.9867358 -6.413403 -0.57486945
-5.6630001 -7.2831416 -0.575813
-6.571157 -8.4511147 -0.57888007
-7.8058639 -10.039062 -0.58169717
-9.5965328 -12.342029 -0.58497876
-12.474655 -16.04356 -0.59132981
-17.824306 -22.923706 -0.60342848
-31.167757 -40.084618 -0.63303828
-14.180745 -18.237747 2.7976105
-13.222602 -17.005487 2.7904291
-1.2847927 -1.6949654 -0.56989372
-1.3263344 -1.7497693 -0.56880498
-1.3569273 -1.7901291 -0.56204522
-1.4210528 -1.8747269 -0.5678736
-1.4718907 -1.9417948 -0.56680071
-1.5319551 -2.021035 -0.56775516
-1.5977454 -2.1078289 -0.56909585
-1.6601316 -2.1901319 -0.56746095
-1.7437955 -2.3005056 -0.57108635
-1.8161488 -2.3959579 -0.56885862
-1.8998495 -2.5063803 -0.56804293
-1.9914408 -2.6272123 -0.56717712
-2.089231 -2.7562222 -0.56547487
-2.2198815 -2.9285831 -0.56952047
-2.3471007 -3.0964172 -0.56913298
-2.5011561 -3.2996552 -0.57138067
-2.6554694 -3.5032334 -0.56944424
-2.8444672 -3.7525692 -0.57022327
-3.0533772 -4.0281739 -0.56951934
-3.3161068 -4.3747807 -0.57236272
-3.6040807 -4.7546906 -0.57198423
-3.9450088 -5.2044606 -0.57135779
-4.3815627 -5.780386 -0.5738824
-4.9122691 -6.4805212 -0.57542783
-5.5771546 -7.3576727 -0.57624
-6.455349 -8.5162325 -0.57785958
-7.6798348 -10.131638 -0.58154541
-9.4436464 -12.458549 -0.58495337
-12.275688 -16.194727 -0.59129322
-17.519386 -23.112488 -0.60268152
-30.59931 -40.368202 -0.63152689
-14.189485 -18.719505 2.8445308
-13.231919 -17.456236 2.8374794
-1.2538012 -1.6970265 -0.56536025
-1.3014871 -1.7615696 -0.56739569
-1.3452798 -1.8208432 -0.56645197
-1.3919127 -1.8839612 -0.56544352
-1.4403197 -1.9494803 -0.56383175
-1.5013629 -2.0321026 -0.56563532
-1.5608031 -2.1125553 -0.5651474
-1.6342932 -2.2120245 -0.56788349
-1.6973958 -2.2974341 -0.56509978
-1.7762437 -2.4041553 -0.56557637
-1.8663036 -2.5260518 -0.56725717
-1.9655701 -2.6604095 -0.56908303
-2.0639763 -2.7936027 -0.56789404
-2.1860452 -2.9588234 -0.57013071
-2.3064618 -3.1218081 -0.56854403
-2.4437284 -3.3075993 -0.56751001
-2.6158869 -3.5406168 -0.57024914
-2.8027079 -3.7934799 -0.57115978
-3.011585 -4.0761962 -0.57103002
-3.2586472 -4.4105964 -0.57176292
-3.5439653 -4.7967758 -0.57176137
-3.8942807 -5.2709293 -0.57335448
-4.3044362 -5.826077 -0.57312042
-4.8308921 -6.5386376 -0.57527012
-5.4728918 -7.407588 -0.57483524
-6.3454752 -8.5886345 -0.57743424
-7.5385838 -10.203513 -0.58030641
-9.2863283 -12.569095 -0.58473808
-12.05981 -16.323015 -0.59051818
-17.214813 -23.300341 -0.60201466
-30.043505 -40.664043 -0.630328
-14.201421 -19.221697 2.8940871
-13.253045 -17.938066 2.8890917
-1.230422 -1.7089553 -0.56425118
-1.2732104 -1.7683848 -0.5645054
-1.3181072 -1.8307428 -0.56444675
-1.3715441 -1.9049622 -0.56664199
-1.4220212 -1.9750707 -0.56613296
-1.4837021 -2.0607405 -0.56848538
-1.5356723 -2.1329229 -0.56550175
-1.6106824 -2.2371056 -0.56919485
-1.6666018 -2.3147731 -0.56428128
-1.7485667 -2.4286158 -0.56622976
-1.8412092 -2.5572884 -0.56914461
-1.9246814 -2.6732247 -0.56671894
-2.0219777 -2.8083611 -0.56579715
-2.1486511 -2.9843001 -0.5699057
-2.2632463 -3.1434634 -0.56737661
-2.4075413 -3.3438773 -0.56861204
-2.5702457 -3.5698607 -0.56982577
-2.7522581 -3.8226604 -0.57041472
-2.9632914 -4.1157689 -0.57142591
-3.2007155 -4.4455314 -0.57114643
-3.4816649 -4.8357468 -0.57126033
-3.8220191 -5.3084707 -0.57228261
-4.2326646 -5.8788242 -0.57314599
-4.7478967 -6.594439 -0.57499957
-5.3890233 -7.4849114 -0.57564974
-6.2438846 -8.6722431 -0.57784986
-7.4102182 -10.292185 -0.58012336
-9.1197186 -12.666541 -0.58401036
-11.857477 -16.469063 -0.59048229
-16.903122 -23.477049 -0.60116464
-29.488974 -40.957767 -0.62921262
-14.193383 -19.713444 2.9416261
-13.283711 -18.449986 2.9450107
-1.2140884 -1.7307575 -0.56647772
-1.2552326 -1.7894111 -0.56624746
-1.2991565 -1.8520273 -0.56604093
-1.3493276 -1.9235492 -0.56719255
-1.3976659 -1.9924583 -0.5661478
-1.4647515 -2.088093 -0.57101917
-1.5146694 -2.1592541 -0.56750196
-1.5797703 -2.2520595 -0.56801409
-1.6466897 -2.3474569 -0.5672698
-1.7243886 -2.4582217 -0.56814575
-1.8011245 -2.5676134 -0.56647056
-1.8928534 -2.6983786 -0.5670743
-1.9987248 -2.8493047 -0.56905144
-2.106885 -3.0034935 -0.56858057
-2.2295418 -3.1783485 -0.56868184
-2.3733273 -3.3833237 -0.57031411
-2.5354793 -3.6144812 -0.57192838
-2.7046964 -3.8557105 -0.57034051
-2.9030335 -4.1384525 -0.56957608
-3.1413414 -4.4781747 -0.57033455
-3.4219816 -4.8782444 -0.57126671
-3.7513349 -5.3477578 -0.57150191
-4.155057 -5.9232883 -0.57245648
-4.6529245 -6.633029 -0.57333225
-5.2987351 -7.5536723 -0.57588351
-6.1325626 -8.7423439 -0.57745248
-7.2858496 -10.386425 -0.58034152
-8.9603949 -12.773593 -0.58382189
-11.632815 -16.583292 -0.58940464
-16.599991 -23.664305 -0.60068738
-28.936625 -41.250931 -0.62820268
-14.184512 -20.220892 2.9910941
-14.174026 -20.205942 3.1972365
-1.1970553 -1.7519051 -0.56853861
-1.2401831 -1.8150232 -0.56948346
-1.2806386 -1.8742301 -0.56797105
-1.3248267 -1.9389 -0.5668726
-1.3714969 -2.0072026 -0.56550258
-1.4330397 -2.097271 -0.56866723
-1.4858119 -2.174504 -0.56666529
-1.5507379 -2.2695239 -0.56756657
-1.6083412 -2.353827 -0.56398737
-1.684209 -2.4648604 -0.56485093
-1.7692804 -2.5893636 -0.56642646
-1.8628644 -2.7263248 -0.56809044
-1.9525485 -2.8575785 -0.56586599
-2.0763679 -3.0387897 -0.57038587
-2.1795137 -3.1897449 -0.56588298
-2.3213587 -3.397337 -0.56782168
-2.4752929 -3.6226215 -0.56835729
-2.656997 -3.8885474 -0.5703218
-2.8516002 -4.1733518 -0.56951028
-3.0787556 -4.5057964 -0.56898785
-3.3612592 -4.9192438 -0.57118464
-3.6898444 -5.4001322 -0.57220697
-4.0777059 -5.9677725 -0.57186651
-4.5768452 -6.6982689 -0.57406336
-5.2023792 -7.6137457 -0.57554281
-6.0241532 -8.8164215 -0.57740897
-7.1452694 -10.457189 -0.57934242
-8.7899551 -12.864207 -0.58297932
-11.422089 -16.716366 -0.58909792
-16.291483 -23.842785 -0.60008746
-28.373497 -41.52496 -0.62701511
-14.173173 -20.742611 3.0422578
-13.526743 -19.796553 3.1059041
-1.1652415 -1.7511879 -0.56361336
-1.2085925 -1.8163382 -0.56519043
-1.2477137 -1.8751317 -0.5635522
-1.2898613 -1.9384733 -0.56206816
-1.3566988 -2.0389204 -0.56969547
-1.4046785 -2.1110268 -0.56767076
-1.4583712 -2.1917191 -0.5664354
-1.5250783 -2.2919703 -0.56844723
-1.5879447 -2.3864491 -0.56708235
-1.6609383 -2.4961479 -0.56729764
-1.7480382 -2.6270463 -0.56992453
-1.8297207 -2.7498033 -0.56825161
-1.9273518 -2.8965287 -0.56884295
-2.039566 -3.0651703 -0.57058692
-2.1543303 -3.237644 -0.56963789
-2.2736676 -3.4169908 -0.56639093
-2.4286816 -3.6499541 -0.56791717
-2.6034679 -3.9126327 -0.569116
-2.8048236 -4.2152405 -0.57047695
-3.0316322 -4.5561008 -0.57058966
-3.3069348 -4.9698405 -0.57229471
-3.6195424 -5.4396443 -0.57163441
-4.007329 -6.0224304 -0.572339
-4.4829378 -6.7372017 -0.57263243
-5.1004939 -7.6652985 -0.57465535
-5.9088483 -8.8801374 -0.57677966
-7.0117936 -10.537703 -0.57898247
-8.6364117 -12.979267 -0.58333683
-11.209599 -16.846394 -0.58877814
-15.983019 -24.020145 -0.59955955
-27.797504 -41.775593 -0.6255911
-14.16349 -21.28566 3.0961275
-13.593982 -20.429771 3.1787846
-15.872716 -23.854376 5.1750875
-15.935044 -23.948048 5.4426541
-1.1478685 -1.7719388 -0.56570637
-1.1893793 -1.836018 -0.56672043
-1.2267526 -1.8937104 -0.56455964
-1.272563 -1.9644269 -0.56501353
-1.325328 -2.0458789 -0.56704342
-1.3762338 -2.1244612 -0.56668985
-1.4306526 -2.2084663 -0.56617427
-1.4908394 -2.3013752 -0.56619036
-1.560294 -2.4085908 -0.56774169
-1.6301759 -2.5164657 -0.56731665
-1.7123516 -2.6433184 -0.56884372
-1.8021908 -2.7820013 -0.5702827
-1.8919474 -2.9205565 -0.56894988
-1.9886543 -3.0698407 -0.56686145
-2.1091616 -3.2558653 -0.56823772
-2.2412779 -3.4598103 -0.56887734
-2.3770094 -3.6693356 -0.56634212
-2.5479529 -3.9332173 -0.56750995
-2.7505083 -4.2458973 -0.57000554
-2.9793065 -4.5990882 -0.57134199
-3.2371032 -4.9970431 -0.57080036
-3.5563166 -5.4898057 -0.572267
-3.9334276 -6.0719433 -0.57240462
-4.4115295 -6.8099785 -0.57416403
-5.0032725 -7.7234387 -0.5743584
-5.7996864 -8.9528456 -0.57682651
-6.8856821 -10.629272 -0.57931781
-8.4727955 -13.079264 -0.58310449
-10.99213 -16.968304 -0.58827043
-15.66387 -24.179962 -0.59869576
-27.233627 -42.039936 -0.62448764
-14.183151 -21.894211 3.1590381
-15.010346 -23.171133 3.5763395
-15.111741 -23.327654 3.8356359
-15.12991 -23.355701 4.07621
-15.209996 -23.479328 4.3355756
-15.223487 -23.500153 4.5780349
-15.287696 -23.599272 4.8376169
-1.1243289 -1.7832761 -0.5648694
-1.1643227 -1.8467096 -0.56555861
-1.2082967 -1.9164559 -0.56686825
-1.2468711 -1.977638 -0.56436086
-1.2994713 -2.0610662 -0.5667811
-1.3464167 -2.1355255 -0.56518215
-1.4093029 -2.2352679 -0.56855971
-1.4669871 -2.3267596 -0.56795466
-1.5261139 -2.4205396 -0.56609207
-1.6040452 -2.5441449 -0.569067
-1.6735723 -2.6544204 -0.56676143
-1.7567106 -2.7862844 -0.56668985
-1.851904 -2.937269 -0.56772655
-1.9519926 -3.0960176 -0.56722003
-2.0639675 -3.2736187 -0.56686389
-2.1984754 -3.486959 -0.56885326
-2.3430543 -3.7162728 -0.56909674
-2.5121205 -3.9844253 -0.57039845
-2.7035627 -4.2880683 -0.57116073
-2.9184198 -4.628849 -0.57053792
-3.1779423 -5.0404725 -0.57125425
-3.4840345 -5.5259595 -0.57152665
-3.8577514 -6.1187043 -0.57229763
-4.3212423 -6.8538384 -0.57333863
-4.9088392 -7.7858143 -0.57446474
-5.6890211 -9.0232458 -0.57681161
-6.7548237 -10.713695 -0.57934821
-8.2990942 -13.163032 -0.58224541
-10.779186 -17.096659 -0.58808064
-15.348556 -24.344046 -0.59804016
-26.662579 -42.288998 -0.62327003
-14.380195 -22.808147 3.4927583
-14.584641 -23.132416 3.773761
-14.646331 -23.230261 4.0225806
-1.1023145 -1.7969606 -0.56486785
-1.1444324 -1.8656201 -0.56699741
-1.1818644 -1.9266405 -0.56553942
-1.2221408 -1.9922979 -0.56421316
-1.2735587 -2.076118 -0.566571
-1.3268491 -2.1629903 -0.56808996
-1.3826073 -2.2538857 -0.56892782
-1.435547 -2.3401866 -0.5668804
-1.5017563 -2.4481189 -0.56818038
-1.5675378 -2.5553539 -0.56721991
-1.6494985 -2.6889639 -0.56976318
-1.7190518 -2.8023477 -0.56561488
-1.8139678 -2.9570768 -0.56720096
-1.9152619 -3.1222036 -0.56765991
-2.0303524 -3.3098207 -0.56876647
-2.1538227 -3.5110981 -0.56842768
-2.2939594 -3.7395451 -0.56829798
-2.4561455 -4.0039358 -0.56882495
-2.6470282 -4.3151073 -0.57038367
-2.8589365 -4.6605544 -0.57006961
-3.1092987 -5.068687 -0.57007569
-3.4175589 -5.5712037 -0.5718165
-3.7777267 -6.1583385 -0.57161665
-4.2350888 -6.9039173 -0.57312816
-4.8150082 -7.8492846 -0.57473582
-5.5770869 -9.0916023 -0.57675385
-6.6102672 -10.775863 -0.57827085
-8.1272516 -13.248805 -0.58157504
-10.555011 -17.206469 -0.587349
-15.029228 -24.500204 -0.59729129
-26.09391 -42.537525 -0.62215692
-1.0880882 -1.8237058 -0.56902623
-1.1150376 -1.8688745 -0.56377679
-1.1629641 -1.9492027 -0.56792164
-1.2019368 -2.0145235 -0.56627899
-1.2482721 -2.0921843 -0.56672376
-1.2945915 -2.1698186 -0.56565964
-1.3455231 -2.2551832 -0.5650363
-1.4096032 -2.3625855 -0.56806463
-1.4765108 -2.4747269 -0.57009894
-1.5334706 -2.5701954 -0.56628591
-1.6100749 -2.6985891 -0.56756473
-1.6913792 -2.8348601 -0.5679363
-1.7781607 -2.9803116 -0.56742078
-1.8773429 -3.1465473 -0.56784588
-1.988405 -3.3326948 -0.56845266
-2.1040225 -3.5264771 -0.56668609
-2.2490165 -3.7694962 -0.56860399
-2.4002182 -4.0229201 -0.56728601
-2.5878716 -4.3374391 -0.56908625
-2.7992921 -4.6917934 -0.5696373
-3.0470471 -5.1070471 -0.57013291
-3.3488226 -5.6128416 -0.57182044
-3.7026403 -6.205863 -0.57175863
-4.1543303 -6.962925 -0.57374257
-4.7096043 -7.8935995 -0.57369685
-5.4633546 -9.1569338 -0.57659298
-6.4843545 -10.868195 -0.57890314
-7.9589653 -13.339737 -0.58122665
-10.33292 -17.31864 -0.58679646
-14.711473 -24.657373 -0.59666765
-25.516457 -42.767223 -0.62088042
-1.057844 -1.8236064 -0.5648939
-1.0980265 -1.8928764 -0.56690145
-1.1340954 -1.9550554 -0.56552094
-1.1722009 -2.020745 -0.56393355
-1.2233121 -2.108855 -0.56712204
-1.2698749 -2.1891241 -0.56657892
-1.3224669 -2.2797868 -0.56708348
-1.3777559 -2.3750989 -0.56695706
-1.4414198 -2.4848485 -0.56830454
-1.5099387 -2.6029677 -0.56937271
-1.5710937 -2.7083919 -0.56552058
-1.6542801 -2.8517962 -0.56721115
-1.7412156 -3.0016634 -0.56736666
-1.8318061 -3.1578314 -0.56577456
-1.9447007 -3.3524492 -0.56770045
-2.0634434 -3.5571485 -0.56749457
-2.2036123 -3.7987845 -0.56889153
-2.3553598 -4.06038 -0.56844133
-2.5412157 -4.3807755 -0.57062912
-2.7464316 -4.7345448 -0.57068443
-2.9935398 -5.160532 -0.57195121
-3.2702651 -5.6375761 -0.57020038
-3.6288841 -6.2557955 -0.57220459
-4.0557299 -6.9916306 -0.57195532
-4.6069112 -7.9418058 -0.57304001
-5.3460283 -9.2159624 -0.57612699
-6.3380208 -10.926047 -0.57778972
-7.7891684 -13.427666 -0.58084065
-10.102756 -17.416035 -0.58584303
-14.392494 -24.811071 -0.59605926
-24.935846 -42.986649 -0.61956763
-1.0392115 -1.8433391 -0.56700516
-1.0745635 -1.906046 -0.56684554
-1.1157064 -1.9790249 -0.568443
-1.1519959 -2.0433946 -0.56625837
-1.2012212 -2.1307096 -0.56898403
-1.2410465 -2.2013514 -0.56575108
-1.2896004 -2.2874756 -0.56500888
-1.3500185 -2.3946445 -0.56761712
-1.4105009 -2.5019274 -0.56820083
-1.465822 -2.600055 -0.56475025
-1.5437005 -2.7381947 -0.56773704
-1.6178133 -2.8696551 -0.56676364
-1.7083107 -3.0301783 -0.56874293
-1.7978871 -3.1890676 -0.5673672
-1.9055107 -3.3799689 -0.56834984
-2.0178299 -3.5791993 -0.56701118
-2.1534731 -3.8198011 -0.56803042
-2.3090312 -4.0957279 -0.56937194
-2.4790654 -4.3973322 -0.56877208
-2.6820447 -4.7573743 -0.56941795
-2.9186969 -5.177145 -0.56977165
-3.2006195 -5.6772151 -0.5701859
-3.5598969 -6.3144965 -0.57352656
-3.9804285 -7.0604296 -0.57353616
-4.513402 -8.0058107 -0.57361037
-5.2273021 -9.2721167 -0.57557571
-6.1987219 -10.995208 -0.57737267
-7.6287098 -13.531701 -0.58123916
-9.8948698 -17.551384 -0.58625877
-14.069804 -24.956827 -0.5953595
-24.357283 -43.204617 -0.61834568
-1.0120898 -1.8479832 -0.56456292
-1.045212 -1.9084612 -0.56369895
-1.0866677 -1.9841554 -0.56603575
-1.118441 -2.0421708 -0.5620656
-1.1724938 -2.1408663 -0.5678032
-1.2100039 -2.2093561 -0.56394178
-1.2714405 -2.3215337 -0.56951654
-1.3154268 -2.4018488 -0.56544799
-1.3689039 -2.4994929 -0.56378257
-1.4391372 -2.6277325 -0.5668754
-1.5035212 -2.7452919 -0.56533253
-1.574297 -2.8745217 -0.56385887
-1.6659555 -3.041882 -0.56705183
-1.7608474 -3.2151458 -0.56811166
-1.857996 -3.3925302 -0.56657743
-1.9793009 -3.6140218 -0.56862909
-2.0992157 -3.8329756 -0.56610823
-2.2576265 -4.1222191 -0.56915241
-2.4241009 -4.4261861 -0.56860566
-2.6195674 -4.7830896 -0.56859744
-2.8543298 -5.2117443 -0.56967372
-3.133801 -5.722033 -0.57077384
-3.4752371 -6.3454642 -0.57241464
-3.8794842 -7.0835824 -0.57149857
-4.4165559 -8.0642262 -0.57386124
-5.1156368 -9.340683 -0.57588363
-6.0645995 -11.073402 -0.57751912
-7.4469066 -13.597368 -0.58008271
-9.6694498 -17.655529 -0.58572161
-13.747119 -25.100979 -0.59472078
-23.77684 -43.41433 -0.61711603
-0.98545837 -1.85308 -0.56237555
-1.0276015 -1.9323269 -0.56697303
-1.0572921 -1.9881579 -0.56342614
-1.0998293 -2.068146 -0.56544977
-1.1507124 -2.1638277 -0.57009721
-1.1818868 -2.2224488 -0.56353158
-1.2339662 -2.3203804 -0.56546849
-1.2939188 -2.4331167 -0.56902045
-1.3463639 -2.5317357 -0.56727809
-1.4139316 -2.6587915 -0.5697819
-1.4768147 -2.7770386 -0.56808752
-1.5523536 -2.9190836 -0.56881267
-1.6259115 -3.0574038 -0.56617546
-1.7261945 -3.2459784 -0.56976604
-1.8176754 -3.4180012 -0.56705564
-1.9331266 -3.6350985 -0.56816226
-2.0611138 -3.8757689 -0.56864232
-2.2012496 -4.1392837 -0.56772834
-2.3741746 -4.4644561 -0.56972849
-2.569309 -4.8313913 -0.57054049
-2.7904069 -5.2471495 -0.56975007
-3.0652695 -5.7640076 -0.57115781
-3.3879409 -6.3707671 -0.57089597
-3.7951055 -7.1364093 -0.57195234
-4.3186011 -8.1208029 -0.57406503
-4.9944081 -9.3916073 -0.57519341
-5.9231348 -11.138008 -0.57704639
-7.2783532 -13.686394 -0.5800187
-9.4339552 -17.73984 -0.58462602
-13.423448 -25.241779 -0.59410113
-23.190863 -43.608665 -0.61577839
-0.96812308 -1.8757592 -0.56560266
-1.0015426 -1.9405102 -0.56571782
-1.0375369 -2.0102499 -0.56602848
-1.0807818 -2.094038 -0.56885237
-1.1112773 -2.1531239 -0.56363422
-1.1564733 -2.2406917 -0.5645088
-1.2138486 -2.3518577 -0.56945896
-1.2596931 -2.4406824 -0.56712437
-1.3112342 -2.5405445 -0.56559634
-1.3745711 -2.6632609 -0.5670746
-1.4413195 -2.7925875 -0.56759983
-1.5129688 -2.9314094 -0.56754637
-1.5902132 -3.0810721 -0.56689453
-1.674468 -3.2443178 -0.56581759
-1.7719742 -3.433238 -0.56592584
-1.8904041 -3.6626985 -0.56879985
-2.0126355 -3.8995245 -0.56845367
-2.1471231 -4.1600971 -0.56691903
-2.31165 -4.4788713 -0.5678978
-2.5019443 -4.8475709 -0.56877506
-2.7279427 -5.2854476 -0.57022321
-2.9909608 -5.7950506 -0.57054639
-3.3122809 -6.4176149 -0.57140106
-3.7004404 -7.169683 -0.57092911
-4.2177954 -8.1720686 -0.57397938
-4.8765655 -9.4484501 -0.57495874
-5.7817683 -11.2023 -0.57665032
-7.1085787 -13.773024 -0.57994175
-9.2137671 -17.851871 -0.58454013
-13.094582 -25.371033 -0.59330863
-22.611269 -43.809818 -0.6146462
-0.94687504 -1.8912934 -0.56673306
-0.97729844 -1.9520612 -0.56553912
-1.0135487 -2.0244677 -0.56647974
-1.0484676 -2.0942149 -0.56535542
-1.0877454 -2.1726687 -0.56520653
-1.1277337 -2.2525415 -0.56395793
-1.1788421 -2.3546257 -0.56657648
-1.2315826 -2.4599698 -0.56804419
-1.2812717 -2.5592191 -0.56620347
-1.3393173 -2.6751597 -0.56605875
-1.4043527 -2.8050618 -0.56658256
-1.4737726 -2.9437215 -0.56637865
-1.5554816 -3.1069274 -0.56808954
-1.644153 -3.28404 -0.56917632
-1.7390696 -3.4736269 -0.5690155
-1.8373396 -3.6699121 -0.56636876
-1.9568043 -3.9085317 -0.56621629
-2.1038177 -4.202177 -0.56908506
-2.2547157 -4.5035815 -0.56747258
-2.4403279 -4.8743243 -0.56835032
-2.6530631 -5.2992425 -0.56814897
-2.9249127 -5.8422365 -0.57160783
-3.2286861 -6.4489951 -0.57061702
-3.6154993 -7.2216177 -0.57148129
-4.1046357 -8.1986217 -0.57225609
-4.7502427 -9.4881601 -0.57377744
-5.6423693 -11.270099 -0.57652527
-6.9330297 -13.848071 -0.57946825
-8.9830103 -17.942713 -0.58385366
-12.763469 -25.493822 -0.5924651
-22.027485 -43.997818 -0.61343729
-0.91949785 -1.8944461 -0.56424707
-0.95190305 -1.9612107 -0.56475604
-0.98810536 -2.0357985 -0.56620765
-1.0188619 -2.0991664 -0.56326735
-1.0642351 -2.1926489 -0.56695706
-1.1026788 -2.2718546 -0.56535578
-1.1427921 -2.3545005 -0.56312251
-1.1988186 -2.4699321 -0.56689781
-1.2576112 -2.5910628 -0.56978422
-1.3107698 -2.7005858 -0.56798542
-1.3714855 -2.8256786 -0.56729758
-1.4342542 -2.9550014 -0.56511295
-1.5143998 -3.1201258 -0.56705505
-1.5988392 -3.2940967 -0.56746894
-1.696671 -3.4956598 -0.5691641
-1.7952113 -3.698683 -0.56735927
-1.9105783 -3.9363742 -0.56680351
-2.041436 -4.2059808 -0.56615788
-2.2077327 -4.5486031 -0.5696817
-2.3817456 -4.9071226 -0.5687167
-2.593338 -5.3430676 -0.56938559
-2.836638 -5.8443398 -0.56835788
-3.1543927 -6.4990115 -0.5715673
-3.5234389 -7.2593594 -0.57099622
-4.0069337 -8.2555065 -0.57274419
-4.6334033 -9.5462246 -0.57379991
-5.5029068 -11.337667 -0.57647669
-6.7562647 -13.919967 -0.5789566
-8.7568521 -18.041788 -0.58352953
-12.442535 -25.63542 -0.59215534
-21.437813 -44.168434 -0.61209452
-0.90149021 -1.9169961 -0.56761891
-0.92490423 -1.9667854 -0.56304377
-0.9593578 -2.04005 -0.56406653
-0.9946366 -2.1150696 -0.56421018
-1.0429372 -2.2177796 -0.57009602
-1.0811245 -2.2989841 -0.56875575
-1.1156064 -2.372309 -0.56405813
-1.167031 -2.481662 -0.56625354
-1.2191528 -2.5924976 -0.56676024
-1.270594 -2.7018859 -0.56493014
-1.3405761 -2.8507011 -0.56896877
-1.4053975 -2.9885423 -0.56817943
-1.4811083 -3.1495395 -0.56904775
-1.5574497 -3.3118775 -0.56718999
-1.6485974 -3.5057006 -0.56745535
-1.7486634 -3.7184887 -0.56705612
-1.8643705 -3.9645367 -0.56751472
-1.9945824 -4.2414293 -0.56758517
-2.1419282 -4.5547562 -0.56711084
-2.322773 -4.9393182 -0.56909484
-2.530237 -5.3804851 -0.57001436
-2.7735357 -5.8978539 -0.57020229
-3.0694396 -6.5270858 -0.57067382
-3.4329958 -7.300179 -0.5708434
-3.9087214 -8.3117971 -0.57327163
-4.5168185 -9.6049013 -0.57394499
-5.3571401 -11.391823 -0.57583731
-6.5851364 -14.003126 -0.57900369
-8.522994 -18.12393 -0.58275259
-12.108782 -25.74902 -0.59129536
-20.840364 -44.316509 -0.61054903
-0.87920707 -1.9309125 -0.56849539
-0.90898961 -1.9963208 -0.56825626
-0.93934435 -2.0629859 -0.56717163
-0.96838218 -2.1267588 -0.56410921
-1.0125159 -2.223685 -0.56837064
-1.0455209 -2.2961707 -0.5648365
-1.0903821 -2.3946948 -0.56615001
-1.1376516 -2.4985077 -0.56686252
-1.1884743 -2.6101246 -0.56737602
-1.2409279 -2.7253232 -0.56659728
-1.3005837 -2.856339 -0.56685925
-1.3587792 -2.9841478 -0.56412476
-1.4379134 -3.1579421 -0.56732845
-1.5175655 -3.3328738 -0.56754714
-1.6102238 -3.5363698 -0.56917167
-1.7027588 -3.7395949 -0.56703895
-1.8062743 -3.9669354 -0.56463599
-1.942368 -4.2658243 -0.56761062
-2.0888276 -4.5874782 -0.56794405
-2.2624526 -4.9687934 -0.56924248
-2.4558835 -5.3936057 -0.56816214
-2.702112 -5.9343719 -0.57047743
-2.9858248 -6.5574617 -0.57007647
-3.339762 -7.3347778 -0.5702945
-3.8027153 -8.3515148 -0.57274258
-4.3945885 -9.6513853 -0.57345027
-5.2131028 -11.449004 -0.57544398
-6.4005928 -14.056968 -0.57793194
-8.2956486 -18.218884 -0.58248174
-11.774012 -25.858057 -0.59042996
-20.262432 -44.500309 -0.60960257
-0.84987867 -1.9290469 -0.56482661
-0.87899071 -1.9951252 -0.56479657
-0.9096849 -2.0647945 -0.56455088
-0.94389439 -2.1424429 -0.56514806
-0.98451191 -2.2346363 -0.5680325
-1.0218842 -2.3194635 -0.5674324
-1.0673364 -2.4226305 -0.56960863
-1.1065471 -2.5116308 -0.56670994
-1.1547415 -2.621022 -0.56661546
-1.2083149 -2.7426221 -0.5670619
-1.2650533 -2.8714066 -0.56671953
-1.3293775 -3.0174091 -0.56727946
-1.3974276 -3.1718683 -0.56670046
-1.4715015 -3.3400009 -0.56563675
-1.562379 -3.5462737 -0.56763065
-1.660928 -3.7699594 -0.56850332
-1.7628047 -4.0011983 -0.56638467
-1.8942242 -4.2994928 -0.56894827
-2.0353007 -4.6197071 -0.56879264
-2.1983161 -4.989718 -0.56849986
-2.3913274 -5.4278131 -0.56862503
-2.625994 -5.9604573 -0.56983787
-2.9069664 -6.598206 -0.57046795
-3.2580833 -7.3951678 -0.57183176
-3.6958082 -8.3887119 -0.57213372
-4.2742591 -9.7016745 -0.57327211
-5.0707951 -11.509645 -0.5753144
-6.2282362 -14.136795 -0.57802153
-8.0669498 -18.310289 -0.58218873
-11.440818 -25.968266 -0.58968955
-19.671398 -44.64996 -0.608293
-0.83215117 -1.9535666 -0.56896687
-0.85316616 -2.0029016 -0.56398547
-0.88721383 -2.0828323 -0.56645697
-0.91723722 -2.1533155 -0.56499821
-0.95714724 -2.2470086 -0.56814283
-0.99755096 -2.3418608 -0.56986779
-1.0274088 -2.4119554 -0.56408566
-1.0697492 -2.5113544 -0.56363696
-1.1196566 -2.6285172 -0.56521672
-1.168874 -2.7440605 -0.56434488
-1.2289059 -2.8849919 -0.56637555
-1.2875478 -3.0226603 -0.56524748
-1.360106 -3.1929989 -0.56744474
-1.4308574 -3.3590953 -0.56584805
-1.5134943 -3.5530946 -0.56570077
-1.6099063 -3.7794325 -0.56690377
-1.7203768 -4.0387745 -0.56866622
-1.8371444 -4.3128986 -0.56769001
-1.9826558 -4.6545029 -0.57003206
-2.1342869 -5.0104737 -0.56783164
-2.3231733 -5.4539056 -0.56832284
-2.551513 -5.9899578 -0.5696156
-2.8197494 -6.6196723 -0.56928313
-3.1637852 -7.4273348 -0.57126766
-3.5931749 -8.4353743 -0.57225949
-4.1565185 -9.757885 -0.57353014
-4.9287028 -11.570674 -0.57529205
-6.0471539 -14.196361 -0.57737303
-7.8307137 -18.383463 -0.58140975
-11.105012 -26.07024 -0.58885986
-19.079229 -44.790592 -0.60696685
-0.80386543 -1.9534379 -0.56600773
-0.83050299 -2.0181687 -0.56536609
-0.85890019 -2.0871754 -0.56472313
-0.89307976 -2.1702337 -0.566513
-0.93002403 -2.2600105 -0.56849569
-0.96044171 -2.3339269 -0.56502056
-1.0046693 -2.4414027 -0.56804037
-1.04921 -2.5496387 -0.5692907
-1.0877831 -2.6433737 -0.56549233
-1.1380379 -2.7654958 -0.5658325
-1.1917876 -2.8961105 -0.56563854
-1.2550843 -3.0499251 -0.56741709
-1.3226831 -3.2141941 -0.56827807
-1.3884605 -3.3740368 -0.5654462
-1.4745268 -3.5831826 -0.56756151
-1.5655965 -3.804487 -0.56773126
-1.6714449 -4.0617046 -0.56895792
-1.7852011 -4.3381381 -0.56807977
-1.919112 -4.6635494 -0.56820697
-2.0778234 -5.0492268 -0.56928492
-2.2598867 -5.4916511 -0.5693174
-2.4775004 -6.0204644 -0.56957656
-2.7311831 -6.6369271 -0.56783587
-3.0705006 -7.4614882 -0.57094741
-3.4872499 -8.4742117 -0.57194197
-4.0321522 -9.7983551 -0.57295126
-4.7793026 -11.613972 -0.57447946
-5.8736978 -14.273414 -0.57752573
-7.5978217 -18.463133 -0.58093071
-10.768782 -26.168741 -0.58804935
-18.489603 -44.930771 -0.60573971
-0.77976513 -1.9631215 -0.56599253
-0.80589467 -2.0289047 -0.56555486
-0.82820094 -2.0850625 -0.56135356
-0.86785328 -2.1848905 -0.56751043
-0.90035391 -2.2667134 -0.56735402
-0.93265194 -2.3480263 -0.56561476
-0.97200167 -2.4470923 -0.56654042
-1.0100827 -2.5429645 -0.56498444
-1.0624024 -2.6746833 -0.56935263
-1.1077855 -2.788939 -0.56779909
-1.159867 -2.9200585 -0.56748742
-1.2132238 -3.0543888 -0.56542933
-1.2735522 -3.20627 -0.56406564
-1.3474926 -3.392421 -0.56570756
-1.4353451 -3.6135967 -0.56954026
-1.51996 -3.8266218 -0.56820238
-1.6139587 -4.063271 -0.56635451
-1.7296975 -4.3546524 -0.56741422
-1.8620619 -4.6878905 -0.56833994
-2.0154474 -5.0740509 -0.56924653
-2.1872787 -5.50665 -0.56804109
-2.401839 -6.046823 -0.56923306
-2.6629682 -6.7042365 -0.57074994
-2.9754422 -7.4909148 -0.57035637
-3.3791492 -8.5072794 -0.5713262
-3.9105053 -9.8450117 -0.57282442
-4.63622 -11.672057 -0.57448924
-5.6908026 -14.327054 -0.57682109
-7.3674808 -18.548225 -0.58071375
-10.435481 -26.272163 -0.58744544
-17.897511 -45.058422 -0.60444796
-0.75574106 -1.973011 -0.56612176
-0.78075725 -2.0383208 -0.56546068
-0.80945104 -2.1132317 -0.56621492
-0.8413164 -2.1964223 -0.56777573
-0.86888909 -2.2684064 -0.56506079
-0.90814817 -2.3708999 -0.5683918
-0.94006693 -2.4542301 -0.56547397
-0.98639804 -2.5751867 -0.56940556
-1.0238253 -2.6728978 -0.56624985
-1.0670476 -2.785738 -0.56443346
-1.1247337 -2.9363391 -0.56792068
-1.180421 -3.0817218 -0.56775928
-1.2396909 -3.2364576 -0.56665182
-1.306694 -3.4113824 -0.56614733
-1.3850564 -3.6159627 -0.56718606
-1.4668802 -3.8295801 -0.56592053
-1.5717814 -4.1034455 -0.56921726
-1.6748358 -4.372489 -0.56701201
-1.8042626 -4.7103834 -0.56833422
-1.9464378 -5.0815597 -0.56736088
-2.1213098 -5.5380974 -0.5685513
-2.32918 -6.0807838 -0.56969088
-2.5708194 -6.7116313 -0.5686453
-2.8825905 -7.5255709 -0.57025307
-3.2744827 -8.5486832 -0.57135946
-3.78578 -9.8835249 -0.57231349
-4.4870858 -11.714423 -0.57381541
-5.5080028 -14.379728 -0.5761714
-7.1269016 -18.606182 -0.5797407
-10.098051 -26.362955 -0.58665472
-17.303286 -45.173641 -0.60309374
-0.72311151 -1.9596255 -0.55968738
-0.75782269 -2.0536926 -0.56709707
-0.77974147 -2.1130922 -0.56356597
-0.80433053 -2.1797285 -0.56086123
-0.84403467 -2.2873261 -0.56714553
-0.87663656 -2.3756771 -0.56690991
-0.9088372 -2.4629405 -0.56486326
-0.94719887 -2.5669003 -0.56495529
-0.9908874 -2.6852958 -0.56625229
-1.0341915 -2.8026495 -0.56524056
-1.0857296 -2.9423172 -0.56645191
-1.138051 -3.0841079 -0.56557798
-1.1982933 -3.2473638 -0.56593871
-1.2628418 -3.4222898 -0.56533766
