# .PCD v0.7 - Point Cloud Data file format
VERSION 0.7
FIELDS x y z
SIZE 4 4 4
TYPE F F F
COUNT 1 1 1
WIDTH 1450
HEIGHT 1
VIEWPOINT 0 0 0 1 0 0 0
POINTS 1450
DATA ascii
6.9629059 -5.3797541 -0.54918534
8.0215425 -6.1976886 -0.54814845
9.4241705 -7.2814026 -0.54476935
11.433364 -8.833766 -0.54062146
14.539545 -11.233697 -0.53462046
19.916679 -15.388235 -0.52302641
31.672447 -24.4711 -0.49899885
1.6756629 -1.2620732 -0.56209719
1.7253551 -1.2995002 -0.55956793
1.7832431 -1.3431002 -0.55858493
1.8399308 -1.3857962 -0.55604106
1.9216515 -1.4473463 -0.5596202
1.9954557 -1.5029341 -0.55926943
2.0739617 -1.5620631 -0.55865347
2.1718035 -1.6357554 -0.56140715
2.2612219 -1.7031034 -0.56003267
2.357482 -1.7756046 -0.55842555
2.4693003 -1.8598237 -0.55834132
2.5859311 -1.9476675 -0.55697048
2.7198796 -2.0485547 -0.55672467
2.8785577 -2.1680675 -0.55849385
3.0361955 -2.2867968 -0.55676991
3.2191691 -2.4246087 -0.55615073
3.4269335 -2.5810924 -0.55575007
3.6662059 -2.761307 -0.55580801
3.949919 -2.9749937 -0.55716026
4.2480111 -3.1995103 -0.55448836
4.612051 -3.4736974 -0.5535382
5.0551534 -3.8074322 -0.55367947
5.577477 -4.2008352 -0.55245328
6.2171497 -4.6826229 -0.550762
7.0471611 -5.3077698 -0.55064142
8.0951815 -6.097116 -0.54801589
9.4994669 -7.1547933 -0.54399508
11.539993 -8.6916733 -0.54056889
14.666761 -11.046688 -0.53426313
20.095989 -15.135865 -0.52280813
31.946056 -24.061081 -0.49861053
1.68866 -1.2396171 -0.56130141
1.7437623 -1.2800667 -0.56039047
1.8015559 -1.322492 -0.55918503
1.8710432 -1.3735015 -0.56029707
1.9389035 -1.4233166 -0.55950516
2.0135536 -1.478116 -0.55920535
2.0933805 -1.5367156 -0.558752
2.1859202 -1.6046475 -0.55991346
2.290766 -1.6816131 -0.56218606
2.3816259 -1.7483116 -0.55900997
2.4917305 -1.8291377 -0.55828518
2.6180708 -1.921882 -0.55876064
2.7630925 -2.0283401 -0.56042224
2.9009953 -2.1295722 -0.55772442
3.0638392 -2.2491131 -0.55672556
3.2565804 -2.3906012 -0.55749333
3.4656346 -2.5440643 -0.55691093
3.7020991 -2.717649 -0.55614132
3.9695034 -2.9139462 -0.55482662
4.2867231 -3.1468117 -0.55444872
4.6606336 -3.421293 -0.55427796
5.1153464 -3.7550902 -0.55517298
5.6287966 -4.1320057 -0.5524621
6.2787232 -4.6091056 -0.5511542
7.097168 -5.2099123 -0.54950154
8.154355 -5.9859753 -0.54699743
9.5993347 -7.0467114 -0.54471087
11.632268 -8.539053 -0.53993195
14.798396 -10.863255 -0.53415191
20.265104 -14.876275 -0.52240932
32.203907 -23.640348 -0.49806026
1.6903905 -1.2091867 -0.55689222
1.7626333 -1.2608641 -0.56143004
1.8186044 -1.3009019 -0.55946922
1.8874363 -1.3501394 -0.56019217
1.9515375 -1.3959929 -0.55815524
2.0302618 -1.4523067 -0.55884379
2.1080217 -1.5079308 -0.55766863
2.1971462 -1.5716841 -0.55779642
2.2909644 -1.638795 -0.55724716
2.4042361 -1.7198216 -0.55931097
2.5049891 -1.7918935 -0.55627698
2.6419792 -1.8898865 -0.55886126
2.7777588 -1.9870137 -0.55839908
2.9196064 -2.0884814 -0.55632317
3.097425 -2.2156804 -0.55783552
3.2731698 -2.3413959 -0.55536258
3.5034623 -2.5061309 -0.55799544
3.742135 -2.6768608 -0.55716878
4.0182433 -2.8743691 -0.55665684
4.3380132 -3.1031101 -0.55610526
4.7024488 -3.3638017 -0.55428988
5.1480894 -3.6825817 -0.55377018
5.6676884 -4.0542665 -0.55134457
6.3291659 -4.527441 -0.55065358
7.1579971 -5.1203284 -0.54929489
8.2336273 -5.8897591 -0.54741549
9.6671276 -6.9151845 -0.54369152
11.727734 -8.3891973 -0.53953415
14.904829 -10.661868 -0.53322113
20.421005 -14.607754 -0.52175838
32.459915 -23.219543 -0.49756622
1.7055649 -1.1886138 -0.55703413
1.7697146 -1.23332 -0.55881286
1.8378234 -1.2807852 -0.56049436
1.9035523 -1.326592 -0.56009156
1.9732347 -1.3751538 -0.55948228
2.0453744 -1.4254283 -0.55813676
2.1327729 -1.4863366 -0.55933917
2.2343242 -1.557108 -0.56233156
2.3245568 -1.6199914 -0.56053042
2.4283469 -1.692323 -0.5600366
2.5383248 -1.768967 -0.55880708
2.6651397 -1.8573447 -0.55888706
2.7951128 -1.9479235 -0.5570305
2.9466541 -2.0535331 -0.5566234
3.1157112 -2.1713495 -0.55627817
3.3061767 -2.3040855 -0.55611372
3.539952 -2.4670043 -0.55893338
3.7541564 -2.6162841 -0.55412674
4.0475702 -2.820765 -0.55587244
4.3624315 -3.0401931 -0.55440134
4.7486959 -3.309382 -0.55490249
5.1775017 -3.6082182 -0.55211961
5.722528 -3.9880488 -0.55186713
6.3950162 -4.456708 -0.5515731
7.2291298 -5.0380044 -0.54995793
8.2977085 -5.782701 -0.54690707
9.7536697 -6.7973652 -0.5438168
11.824319 -8.240407 -0.53927517
15.03472 -10.477747 -0.53321844
20.60144 -14.357212 -0.52181834
32.705383 -22.792492 -0.49699527
1.7255812 -1.1713072 -0.55882519
1.7892897 -1.2145519 -0.56023574
1.8409432 -1.2496139 -0.55671751
1.9130176 -1.2985373 -0.55813622
1.9933519 -1.3530674 -0.56042641
2.0592554 -1.397802 -0.55719227
2.1583362 -1.4650571 -0.56127632
2.2366409 -1.5182095 -0.55817389
2.3403661 -1.5886171 -0.5595898
2.4478471 -1.6615741 -0.55977952
2.5495846 -1.7306325 -0.55655897
2.671726 -1.8135408 -0.5555498
2.8383651 -1.9266537 -0.56088638
2.9847071 -2.0259893 -0.55906337
3.1593273 -2.1445198 -0.55931497
3.3452299 -2.2707086 -0.55794388
3.5612185 -2.4173195 -0.55755574
3.7989256 -2.5786729 -0.55601257
4.0786052 -2.7685163 -0.55541736
4.3908067 -2.9804356 -0.55330795
4.7644382 -3.2340531 -0.55205333
5.2299027 -3.5500059 -0.55301076
5.7673483 -3.9148183 -0.55150545
6.438262 -4.3702278 -0.55062652
7.2700286 -4.9348226 -0.54841161
8.3585739 -5.6737161 -0.54627907
9.8344917 -6.6755548 -0.54370522
11.930343 -8.098197 -0.53952831
15.143277 -10.279105 -0.53254545
20.748877 -14.08413 -0.52112675
32.950352 -22.366369 -0.49650094
1.7497 -1.1565106 -0.56198812
1.8103852 -1.1966221 -0.56219125
1.8700955 -1.2360892 -0.56089449
1.9436049 -1.2846773 -0.56240886
2.0041318 -1.3246841 -0.55883527
2.0783052 -1.3737111 -0.55773401
2.1742222 -1.4371099 -0.56076962
2.2459159 -1.4844977 -0.55589104
2.3520083 -1.5546224 -0.5577606
2.4580767 -1.6247311 -0.55750799
2.5812433 -1.7061414 -0.5588479
2.6998358 -1.7845281 -0.55678999
2.8519723 -1.8850869 -0.55895251
2.9885633 -1.9753703 -0.5551939
3.1665013 -2.092983 -0.55598676
3.3685863 -2.2265565 -0.55723089
3.5827577 -2.3681188 -0.55632687
3.826967 -2.5295355 -0.55552226
4.116859 -2.7211473 -0.55602807
4.4393148 -2.9342828 -0.55483198
4.8186245 -3.1849976 -0.55375206
5.2790565 -3.4893324 -0.55362946
5.8217802 -3.8480604 -0.55214405
6.4852996 -4.2866311 -0.55009979
7.3300571 -4.844996 -0.54840422
8.4345903 -5.5750661 -0.54672545
9.9132366 -6.5524168 -0.54356313
12.019306 -7.944479 -0.53909296
15.261425 -10.087444 -0.53229803
20.917656 -13.826079 -0.52105635
33.19854 -21.943457 -0.49613738
1.7556942 -1.129702 -0.55940932
1.8223324 -1.1725804 -0.56138134
1.8723967 -1.2047943 -0.55709928
1.9622092 -1.2625841 -0.56325722
2.0179427 -1.2984458 -0.55819207
2.0942504 -1.3475461 -0.5575242
2.1791465 -1.4021724 -0.55755061
2.2855809 -1.4706577 -0.56119025
2.3740821 -1.5276039 -0.55849844
2.4793515 -1.5953395 -0.55784184
2.5942285 -1.6692572 -0.55717313
2.7287915 -1.7558416 -0.55826664
2.8719862 -1.8479804 -0.55837917
3.0323799 -1.9511858 -0.55883443
3.2058148 -2.0627825 -0.55839372
3.3923526 -2.1828103 -0.5566802
3.6100695 -2.3229003 -0.55609047
3.8628623 -2.4855599 -0.55625415
4.1549668 -2.6735148 -0.55669278
4.4815574 -2.8836596 -0.55563784
4.8504453 -3.1210206 -0.55295676
5.325881 -3.42694 -0.55407894
5.8521051 -3.7655389 -0.55058706
6.554987 -4.2178082 -0.55156988
7.4053082 -4.7649479 -0.54960907
8.4916515 -5.4639559 -0.54602784
9.9825201 -6.4232559 -0.54299021
12.105484 -7.7892776 -0.53862154
15.379972 -9.8962479 -0.53214818
21.083889 -13.566435 -0.52100235
33.435665 -21.514189 -0.49569002
1.7678238 -1.1070099 -0.55889463
1.8303318 -1.1461524 -0.55946165
1.9041305 -1.1923651 -0.56213623
1.9646322 -1.2302512 -0.55956799
2.0371473 -1.2756602 -0.5591231
2.1248174 -1.330559 -0.56126356
2.1980369 -1.3764091 -0.55801129
2.2966571 -1.4381649 -0.55952543
2.3883266 -1.4955684 -0.55748105
2.5080421 -1.570534 -0.55990958
2.6244369 -1.6434205 -0.55927867
2.7428334 -1.7175602 -0.55677652
2.8978221 -1.8146141 -0.55902183
3.0527105 -1.9116051 -0.55820704
3.2212503 -2.0171444 -0.55671984
3.4079649 -2.1340652 -0.55489403
3.6452742 -2.2826681 -0.55714756
3.8908896 -2.4364722 -0.55593377
4.1787481 -2.6167288 -0.55552596
4.5088115 -2.8234143 -0.55467051
4.8948045 -3.0651231 -0.55367523
5.355238 -3.353446 -0.55280137
5.904202 -3.697207 -0.55116957
6.6038013 -4.1352954 -0.55135691
7.4505029 -4.6654992 -0.54866397
8.5589647 -5.3596172 -0.54607713
10.064678 -6.302494 -0.54320258
12.202285 -7.6410618 -0.53870732
15.495208 -9.7030878 -0.53196687
21.221746 -13.289042 -0.52033168
33.66087 -21.078411 -0.49514875
1.782944 -1.0861906 -0.55941004
1.8404366 -1.1212157 -0.55829394
1.9076749 -1.1621782 -0.55892146
1.9841973 -1.2087964 -0.56086457
2.0584002 -1.2540017 -0.56068164
2.126668 -1.2955912 -0.55750203
2.2220621 -1.3537065 -0.55984235
2.3086631 -1.4064649 -0.55819482
2.4155426 -1.4715772 -0.55956769
2.5312986 -1.5420971 -0.56082588
2.6388204 -1.6076007 -0.55808902
2.7759225 -1.6911248 -0.55922985
2.9120662 -1.7740651 -0.5575192
3.0657802 -1.8677095 -0.55635536
3.2435567 -1.9760132 -0.5563336
3.435503 -2.0929492 -0.5551455
3.6625819 -2.2312882 -0.55555743
3.9308882 -2.3947437 -0.55739927
4.2099113 -2.5647278 -0.55543429
4.5394292 -2.7654738 -0.5542118
4.934546 -3.0061839 -0.55394733
5.3941531 -3.2861817 -0.55260539
5.9562707 -3.6286304 -0.5518232
6.6399045 -4.0451083 -0.55017674
7.5040965 -4.5715842 -0.54842955
8.6294727 -5.2571769 -0.5464099
10.132495 -6.1728358 -0.54272509
12.28362 -7.4833264 -0.53819495
15.612791 -9.5114975 -0.53194815
21.374678 -13.021706 -0.52011603
33.898106 -20.651129 -0.49486575
1.7875175 -1.0590631 -0.55671692
1.8542163 -1.0985806 -0.55833399
1.9310001 -1.1440731 -0.56159121
1.9882637 -1.1780006 -0.55787736
2.0743239 -1.2289892 -0.56086034
2.1399159 -1.267851 -0.55684596
2.2409911 -1.3277358 -0.56045568
2.3188164 -1.3738455 -0.55652308
2.4331641 -1.4415938 -0.55950105
2.5356159 -1.5022942 -0.55764747
2.6534612 -1.5721148 -0.55705488
2.7901344 -1.6530906 -0.55795574
2.9355733 -1.7392597 -0.55788296
3.0859668 -1.8283644 -0.5558967
3.2626269 -1.9330314 -0.55548555
3.4634693 -2.0520258 -0.55554521
3.6951654 -2.1893005 -0.55637431
3.9468765 -2.3384337 -0.55554706
4.2502155 -2.5181551 -0.55662447
4.5698271 -2.7075176 -0.55381656
4.9796844 -2.9503486 -0.55489993
5.4417524 -3.224113 -0.55337846
5.9886513 -3.5481384 -0.55073941
6.6980314 -3.9684296 -0.55090809
7.5638032 -4.4813795 -0.54872435
8.6876955 -5.1472602 -0.54604757
10.203761 -6.0454936 -0.54251951
12.381497 -7.3357525 -0.53849041
15.716023 -9.3113823 -0.53152412
21.521589 -12.751047 -0.51983631
34.103218 -20.205374 -0.49419561
1.8017516 -1.0377805 -0.55713356
1.8788571 -1.0821922 -0.56170428
1.9389864 -1.1168257 -0.55987757
1.999266 -1.1515458 -0.55694926
2.0772429 -1.1964593 -0.55762947
2.1591349 -1.2436277 -0.55782557
2.2519 -1.2970591 -0.55915284
2.3413343 -1.3485719 -0.55790538
2.4468565 -1.4093509 -0.55862242
2.5601194 -1.4745885 -0.55900639
2.6866276 -1.5474553 -0.55998063
2.8130853 -1.6202929 -0.55851883
2.9641478 -1.7073025 -0.55928129
3.1125448 -1.7927769 -0.5566712
3.2930508 -1.8967454 -0.55665243
3.4919405 -2.0113027 -0.55610299
3.7180455 -2.1415358 -0.55581236
3.9815061 -2.2932849 -0.55641007
4.2688818 -2.4588089 -0.55506742
4.6017222 -2.6505198 -0.55369025
5.0120544 -2.8868647 -0.55450946
5.4651222 -3.1478245 -0.55177706
6.0413084 -3.4796987 -0.55160534
6.7326698 -3.877912 -0.54979354
7.5984378 -4.3765807 -0.5472914
8.7522154 -5.0411386 -0.54616541
10.277788 -5.9198442 -0.54254407
12.471034 -7.1831198 -0.53850234
15.832958 -9.1195345 -0.53164619
21.674536 -12.484192 -0.51978338
34.315239 -19.765038 -0.49370876
1.8308083 -1.0247465 -0.56217957
1.8879052 -1.056705 -0.56048232
1.9539429 -1.0936677 -0.56027073
2.020303 -1.1308111 -0.5588938
2.1040173 -1.177668 -0.56088716
2.1806641 -1.2205689 -0.55946791
2.2582521 -1.2639968 -0.55682874
2.3616657 -1.3218799 -0.55883461
2.4598413 -1.3768311 -0.55767947
2.5789301 -1.4434879 -0.55919576
2.6933987 -1.5075586 -0.55748594
2.8377507 -1.5883559 -0.55949593
2.9767437 -1.6661534 -0.55775011
3.1370909 -1.7559036 -0.55715752
3.3238077 -1.8604133 -0.55794233
3.5199425 -1.9701947 -0.5566622
3.7317367 -2.0887408 -0.55397761
4.0120835 -2.2456574 -0.55678219
4.294858 -2.4039333 -0.55455959
4.6357536 -2.5947404 -0.55390406
5.042726 -2.8225324 -0.55402106
5.5129032 -3.0857017 -0.55272853
6.078619 -3.4023459 -0.55115038
6.786418 -3.7985179 -0.55032682
7.6699877 -4.2930722 -0.54860115
8.8100262 -4.931179 -0.54594785
10.360888 -5.7992325 -0.54312539
12.551985 -7.025641 -0.53822678
15.933803 -8.9185238 -0.53130978
21.799992 -12.201968 -0.51915455
34.534805 -19.329943 -0.49341071
1.8316741 -0.9958539 -0.55864298
1.9023162 -1.0342609 -0.56094259
1.9601123 -1.0656838 -0.55824006
2.0451481 -1.1119165 -0.5619421
2.1163883 -1.1506488 -0.56037086
2.1963854 -1.194142 -0.55969179
2.2873735 -1.243611 -0.56019634
2.3729663 -1.2901464 -0.5577125
2.484355 -1.3507067 -0.55942929
2.5891919 -1.4077049 -0.55762535
2.7332892 -1.4860486 -0.5619179
2.844192 -1.5463448 -0.55697483
3.0039487 -1.6332021 -0.55904239
3.1600592 -1.7180771 -0.55744249
3.3450079 -1.8186309 -0.55770504
3.530098 -1.9192616 -0.55449402
3.7717998 -2.0506713 -0.55613965
4.0297461 -2.1909127 -0.55545264
4.3404341 -2.3598292 -0.55665553
4.6717815 -2.5399778 -0.55443507
5.076025 -2.7597592 -0.5539093
5.5416889 -3.0129337 -0.55185843
6.1263103 -3.3307834 -0.55171925
6.8105226 -3.7027795 -0.5485478
7.7107425 -4.1922154 -0.54778767
8.8696461 -4.8222942 -0.54592657
10.425117 -5.6679802 -0.54279774
12.630762 -6.867157 -0.53794324
16.038584 -8.7199383 -0.53118813
21.951328 -11.934609 -0.51922441
34.733303 -18.88398 -0.49289188
1.8583269 -0.98093581 -0.56305045
1.9100434 -1.0082349 -0.55952305
1.9742615 -1.042133 -0.55857795
2.0447736 -1.0793535 -0.55815017
2.1142707 -1.1160382 -0.55613446
2.2079048 -1.1654638 -0.55893308
2.3005867 -1.2143869 -0.55973291
2.3979456 -1.2657788 -0.55988294
2.4916589 -1.3152462 -0.55739003
2.6048138 -1.374976 -0.55730641
2.7414281 -1.4470893 -0.55989063
2.8656676 -1.5126703 -0.55749571
3.0173047 -1.5927134 -0.557841
3.1824703 -1.6798977 -0.55770981
3.3655491 -1.7765375 -0.55744547
3.5720408 -1.8855363 -0.55739826
3.810571 -2.0114465 -0.55816722
4.056735 -2.1413867 -0.55550128
4.3483524 -2.2953198 -0.55400938
4.6873727 -2.4742749 -0.55263287
5.0999889 -2.6920784 -0.55287021
5.5771022 -2.9439273 -0.55173838
6.1675382 -3.2555945 -0.55178523
6.8726392 -3.627789 -0.54991639
7.7714734 -4.1022472 -0.54847705
8.9299135 -4.7137408 -0.54602712
10.505248 -5.5452967 -0.54337859
12.711619 -6.7099509 -0.5378322
16.135429 -8.5172424 -0.53088683
22.07501 -11.652507 -0.51872152
34.9338 -18.440144 -0.4924821
1.8519604 -0.94864511 -0.55754501
1.9258778 -0.98650843 -0.56056565
1.9993182 -1.0241275 -0.56206179
2.0567286 -1.0535352 -0.5578351
2.133579 -1.092901 -0.5576362
2.2204521 -1.1374007 -0.55852664
2.2949162 -1.175544 -0.55479443
2.4021111 -1.2304534 -0.55728072
2.5181746 -1.2899055 -0.55973113
2.6237664 -1.3439938 -0.55778337
2.7407405 -1.4039124 -0.55618244
2.8919711 -1.4813784 -0.55902684
3.0366416 -1.5554843 -0.55783767
3.1959548 -1.6370906 -0.55650312
3.3785892 -1.7306428 -0.5560385
3.5884278 -1.8381302 -0.55638623
3.7994726 -1.9462355 -0.55299425
4.0816698 -2.0907876 -0.55535322
4.3925934 -2.2500546 -0.55607891
4.7290916 -2.4224219 -0.55399776
5.1283793 -2.6269524 -0.5524044
5.6086535 -2.8729672 -0.55132312
6.2018399 -3.1768203 -0.55131757
6.9292617 -3.5494335 -0.55091304
7.8095531 -4.0003524 -0.54765153
8.9894743 -4.6047535 -0.54616559
10.541494 -5.3997574 -0.54177803
12.787036 -6.5500097 -0.53757471
16.236429 -8.3169212 -0.53080493
22.20575 -11.374637 -0.51846784
35.142262 -18.001213 -0.49226317
1.868217 -0.92815369 -0.55896091
1.9302559 -0.95897543 -0.55836552
2.0022979 -0.99476671 -0.55941832
2.0694709 -1.0281392 -0.55782002
2.1535299 -1.0699008 -0.55936986
2.2365475 -1.1111449 -0.55909616
2.338321 -1.1617073 -0.56179166
2.4268875 -1.2057083 -0.55954689
2.5279908 -1.2559377 -0.55843812
2.6447713 -1.3139557 -0.55877167
2.7766674 -1.3794833 -0.55998856
2.9087353 -1.4450963 -0.55879027
3.0493979 -1.5149792 -0.55671674
3.2188306 -1.5991555 -0.55702025
3.3972728 -1.6878079 -0.55565578
3.6183407 -1.7976372 -0.55755484
3.8475695 -1.911521 -0.55653143
4.0979552 -2.0359159 -0.55412096
4.4092207 -2.1905563 -0.55473191
4.7632747 -2.3664548 -0.55455142
5.1685624 -2.5678067 -0.55328977
5.6504421 -2.8072107 -0.55199599
6.2366223 -3.0984325 -0.55098099
6.9571204 -3.4563849 -0.54970735
7.8564987 -3.9032073 -0.54753649
9.0328197 -4.4876189 -0.54540521
10.61447 -5.2734017 -0.54215491
12.862829 -6.3904152 -0.53741693
16.333235 -8.1145563 -0.53066754
22.322727 -11.090212 -0.51797593
35.327728 -17.55126 -0.49180084
1.8894792 -0.90992433 -0.56193233
1.9531749 -0.94059855 -0.56160712
2.0135736 -0.96968496 -0.55919504
2.0897186 -1.0063545 -0.55989987
2.1694615 -1.0447567 -0.56012875
2.2515261 -1.0842768 -0.55946529
2.3420839 -1.1278871 -0.55932134
2.4363041 -1.173261 -0.55834943
2.5507617 -1.2283808 -0.56008923
2.6510849 -1.2766939 -0.55674672
2.785464 -1.3414075 -0.55839384
2.9233549 -1.4078122 -0.558231
3.0709515 -1.4788908 -0.55728954
3.2452793 -1.5628426 -0.55822939
3.4280877 -1.6508784 -0.55733341
3.6357846 -1.7508999 -0.5568831
3.8633711 -1.8604996 -0.55546594
4.1348267 -1.9912257 -0.55575377
4.428802 -2.1327968 -0.55385411
4.7975168 -2.31036 -0.55518848
5.1963716 -2.5024381 -0.55293089
5.6734047 -2.7321651 -0.55091554
6.2596397 -3.0144808 -0.54969817
6.995903 -3.369046 -0.54945683
7.9032974 -3.8060238 -0.54749495
9.0754395 -4.3704967 -0.5446924
10.674838 -5.1407261 -0.5419687
12.929386 -6.2264581 -0.53695828
16.425203 -7.9099536 -0.53045541
22.455423 -10.813951 -0.51793033
35.51511 -17.103159 -0.4914445
1.888393 -0.88096392 -0.55834544
1.954144 -0.91163772 -0.55862027
2.0316706 -0.94780505 -0.56094176
2.1025932 -0.98089153 -0.56007534
2.1663663 -1.0106426 -0.55607897
2.2662358 -1.0572333 -0.55984777
2.351439 -1.0969819 -0.55829191
2.4468484 -1.1414918 -0.55750698
2.5553629 -1.1921155 -0.55783862
2.6651027 -1.2433107 -0.55643785
2.8055606 -1.3088365 -0.55915391
2.9517727 -1.3770466 -0.56038177
3.0833485 -1.4384288 -0.55628741
3.2603686 -1.5210112 -0.55756563
3.4356253 -1.6027713 -0.55531275
3.6512222 -1.7033504 -0.55599749
3.8933067 -1.8162864 -0.55651677
4.1571336 -1.9393656 -0.55550468
4.4757819 -2.0880201 -0.55647635
4.8219509 -2.2495131 -0.55477315
5.2287869 -2.4393082 -0.55314666
5.7142105 -2.6657655 -0.55165321
6.3157258 -2.9463816 -0.55140013
7.023138 -3.2764003 -0.54839021
7.9456401 -3.7067614 -0.54722935
9.1384182 -4.2632108 -0.54528481
10.745531 -5.0129528 -0.54238725
13.030938 -6.0791297 -0.53803062
16.511755 -7.7029834 -0.53015155
22.57589 -10.531994 -0.51768267
35.682068 -16.646225 -0.49088529
1.9105893 -0.86287546 -0.5617286
1.9610934 -0.88568449 -0.55745143
2.0246739 -0.91439921 -0.5558635
2.1159623 -0.95562756 -0.56046402
2.195214 -0.99141997 -0.56031221
2.2820177 -1.0306228 -0.56057334
2.3750279 -1.0726289 -0.5607186
2.4626222 -1.1121889 -0.55794281
2.5691876 -1.1603168 -0.55769974
2.67204 -1.2067678 -0.55474615
2.8111579 -1.2695974 -0.55711591
2.9576066 -1.3357377 -0.55832893
3.1153772 -1.4069914 -0.55890232
3.2745962 -1.478899 -0.55684674
3.4618275 -1.5634578 -0.55639839
3.6834192 -1.6635349 -0.55774325
3.9139357 -1.7676426 -0.55631655
4.1751876 -1.8856312 -0.55477697
4.4951267 -2.0301247 -0.55573571
4.844039 -2.1877034 -0.55417752
5.2562423 -2.3738658 -0.55292135
5.7430873 -2.5937386 -0.55132031
6.333591 -2.8604264 -0.54984748
7.0767474 -3.1960566 -0.54946595
8.0043678 -3.6149957 -0.5481711
9.1992254 -4.1546268 -0.54582351
10.788856 -4.8725481 -0.54150885
13.086931 -5.9104233 -0.53730112
16.593254 -7.4939766 -0.52976954
22.69696 -10.250581 -0.51752943
35.88448 -16.206432 -0.49089125
1.908897 -0.83400685 -0.55817372
1.9821862 -0.8660273 -0.56037778
2.0465751 -0.89415914 -0.55881554
2.1251817 -0.92850268 -0.55983955
2.1963897 -0.95961392 -0.55755836
2.2870107 -0.99920672 -0.55873948
2.38029 -1.0399609 -0.55889958
2.4905417 -1.0881304 -0.56119448
2.578552 -1.1265825 -0.5566833
2.6998253 -1.1795676 -0.55746126
2.8275614 -1.235376 -0.5573141
2.9655626 -1.2956694 -0.55678105
3.1295283 -1.3673069 -0.55838251
3.2880569 -1.4365689 -0.55608976
3.486589 -1.5233085 -0.55732548
3.685267 -1.610112 -0.55498314
3.9236584 -1.7142664 -0.55466038
4.2040391 -1.8367662 -0.5555675
4.513104 -1.9717981 -0.55491877
4.8682923 -2.1269817 -0.55391812
5.2807937 -2.3072057 -0.55247784
5.782114 -2.5262353 -0.55204302
6.3869381 -2.7904859 -0.55145824
7.112453 -3.1074669 -0.54922992
8.0435019 -3.5142472 -0.54785037
9.2400179 -4.0370111 -0.54525727
10.85224 -4.7413988 -0.54172295
13.145032 -5.7431316 -0.5367465
16.686277 -7.2903199 -0.52983737
22.814613 -9.9678211 -0.51737821
36.040417 -15.746242 -0.49033859
1.915405 -0.8089515 -0.55712593
1.9907417 -0.84076917 -0.55983138
2.0489266 -0.86534297 -0.55651009
2.1350088 -0.90169895 -0.55946517
2.2137411 -0.93495071 -0.55900234
2.2949059 -0.96922976 -0.5577144
2.4007576 -1.0139351 -0.56073552
2.4891834 -1.0512809 -0.55793339
2.6009152 -1.0984697 -0.55855298
2.7265575 -1.1515334 -0.56001484
2.8551881 -1.2058592 -0.55979449
2.988656 -1.262228 -0.55816066
3.1315341 -1.322571 -0.55579668
3.3232358 -1.4035343 -0.55907828
3.5083742 -1.4817256 -0.55785316
3.7200973 -1.5711447 -0.5572769
3.9552736 -1.6704689 -0.55618387
4.2243342 -1.784104 -0.5553084
4.527842 -1.9122874 -0.55379784
4.8972478 -2.0683022 -0.554277
5.3120852 -2.2435043 -0.55282354
5.8143306 -2.4556224 -0.55219418
6.4111881 -2.7076991 -0.55063564
7.1412148 -3.0160184 -0.5485456
8.0700846 -3.4083169 -0.54676509
9.2896948 -3.9234066 -0.5453006
10.900146 -4.6035643 -0.54124767
13.215234 -5.5813174 -0.53677011
16.768801 -7.0821295 -0.52965242
22.917181 -9.6788349 -0.51696616
36.206627 -15.291494 -0.49000469
1.9242734 -0.78495872 -0.55685586
2.0096145 -0.81977141 -0.56226146
2.0815833 -0.84912932 -0.56250149
2.1451299 -0.87505156 -0.55925548
2.235445 -0.91189331 -0.56160897
2.3128686 -0.94347632 -0.55921811
2.4022765 -0.97994798 -0.55823368
2.513973 -1.0255117 -0.56062096
2.6119974 -1.0654984 -0.5580771
2.7206516 -1.1098211 -0.55595684
2.8584516 -1.166033 -0.55758101
2.9972351 -1.2226462 -0.55691296
3.1587892 -1.2885482 -0.55777967
3.3301859 -1.3584652 -0.55739516
3.5194519 -1.4356714 -0.5567655
3.724071 -1.5191406 -0.5550319
3.9770479 -1.6223363 -0.55639845
4.2517204 -1.7343819 -0.55606288
4.5573077 -1.8590386 -0.55456388
4.9163742 -2.0055106 -0.55360878
5.3440886 -2.1799858 -0.55332261
5.845263 -2.3844273 -0.55230558
6.4404569 -2.6272216 -0.5503332
7.1906528 -2.9332452 -0.54953104
8.1317291 -3.3171332 -0.54813659
9.3329287 -3.8071322 -0.54504925
10.960844 -4.471199 -0.54149067
13.290616 -5.4215708 -0.53708357
16.827457 -6.864336 -0.52879912
23.028698 -9.3939753 -0.51683694
36.369263 -14.835922 -0.48969981
1.9399078 -0.76365185 -0.55862063
2.0046997 -0.78915745 -0.55812919
2.0773256 -0.81774682 -0.55859149
2.1524656 -0.84732598 -0.55840939
2.2361336 -0.8802622 -0.55902034
2.3251996 -0.91532338 -0.5594359
2.4169259 -0.95143175 -0.55887693
2.5200434 -0.9920243 -0.55921209
2.6292078 -1.0349973 -0.5589928
2.7577977 -1.0856172 -0.56077725
2.8797584 -1.1336275 -0.55897582
3.0258267 -1.1911278 -0.55946177
3.1676607 -1.2469612 -0.55659658
3.3392045 -1.3144901 -0.55615723
3.5353382 -1.3916988 -0.55652934
3.738647 -1.4717321 -0.55446517
3.9943337 -1.5723842 -0.55606979
4.2665238 -1.6795328 -0.55525595
4.5710573 -1.7994136 -0.55350268
4.9374647 -1.9436512 -0.55325061
5.3644404 -2.1117315 -0.55269945
5.8646154 -2.3086276 -0.55141014
6.4728203 -2.5480494 -0.55037969
7.2226772 -2.8432336 -0.54926503
8.1726685 -3.217201 -0.54818815
9.372962 -3.6897008 -0.54469639
11.008859 -4.3336778 -0.54118919
13.349919 -5.2552447 -0.53682804
16.930243 -6.6646523 -0.52941382
23.131937 -9.1059723 -0.51660192
36.515228 -14.374353 -0.48924825
1.9577333 -0.74299914 -0.56108034
2.0077255 -0.76197219 -0.55632097
2.0928121 -0.79426432 -0.5600872
2.1673477 -0.82255208 -0.55960393
2.2584345 -0.85712135 -0.56191814
2.3369989 -0.8869381 -0.55960852
2.4227934 -0.91949886 -0.55757713
2.5168982 -0.95521355 -0.55586571
2.6350951 -1.0000715 -0.55758774
2.7581892 -1.0467882 -0.55819726
2.8716633 -1.089854 -0.55476135
3.029866 -1.1498951 -0.5575521
3.1959205 -1.2129161 -0.55889928
3.3579736 -1.2744186 -0.55663121
3.5521336 -1.3481061 -0.55652165
3.7793179 -1.4343272 -0.5578391
4.0049911 -1.5199747 -0.55490953
4.2825594 -1.6253176 -0.55469996
4.5968137 -1.7445832 -0.55398196
4.9621577 -1.8832387 -0.55338085
5.3964105 -2.0480464 -0.55335677
5.9071093 -2.2418668 -0.55277181
6.4931831 -2.4642937 -0.54949307
7.2568154 -2.7541075 -0.54924423
8.1975288 -3.1111269 -0.54724824
9.4230986 -3.5762556 -0.54501325
11.063856 -4.198956 -0.54131371
13.410616 -5.0895982 -0.53671157
16.996433 -6.4504881 -0.52896327
23.240669 -8.8203011 -0.51656896
36.675575 -13.919119 -0.48906648
1.9635437 -0.71771026 -0.56017393
2.0349977 -0.743828 -0.56130099
2.1008255 -0.76788926 -0.55966252
2.1797931 -0.79675329 -0.56024528
2.2606988 -0.82632583 -0.55991107
2.3507917 -0.85925639 -0.56033885
2.4425545 -0.89279729 -0.55955607
2.5319896 -0.92548746 -0.55664325
2.6489289 -0.96823084 -0.55795354
2.7678182 -1.0116869 -0.55758619
2.905355 -1.0619591 -0.55870515
3.0591328 -1.1181676 -0.5603652
3.207027 -1.1722256 -0.55827862
3.3820043 -1.2361829 -0.55805266
3.5655651 -1.3032777 -0.55607319
3.7792041 -1.3813666 -0.55527312
4.0298605 -1.472986 -0.55580366
4.2996483 -1.5715983 -0.55436844
4.6199079 -1.688659 -0.55422086
4.976872 -1.8191357 -0.55248547
5.4294982 -1.9845786 -0.55420542
5.9307656 -2.1678009 -0.55244935
6.5388741 -2.3900752 -0.55083096
7.2758565 -2.6594555 -0.54816884
8.243474 -3.0131369 -0.54780054
9.4531698 -3.4553025 -0.54425395
11.124614 -4.0662451 -0.54179907
13.456757 -4.918685 -0.53609705
17.080378 -6.2431831 -0.52914661
23.320549 -8.5240774 -0.51597571
36.831863 -13.462705 -0.48890609
1.9780083 -0.69554859 -0.561818
2.0430472 -0.71841896 -0.56104219
2.1079192 -0.74123067 -0.55908185
2.1725895 -0.76397139 -0.55593735
2.2671833 -0.79723436 -0.5590468
2.3600092 -0.82987577 -0.56006122
2.4489858 -0.86116362 -0.55856133
2.5472324 -0.89571118 -0.55753076
2.6672633 -0.9379189 -0.55934381
2.7780402 -0.97687262 -0.55718344
2.9101429 -1.0233253 -0.55716395
3.0645461 -1.0776198 -0.55888724
3.2020707 -1.1259791 -0.55496359
3.388761 -1.191627 -0.55670768
3.5839319 -1.260257 -0.55647868
3.8125565 -1.3406509 -0.55770922
4.0623841 -1.4285005 -0.55782455
4.3224473 -1.5199494 -0.55485624
4.6440549 -1.6330397 -0.5546667
5.0120625 -1.7624463 -0.55394429
5.4334593 -1.9106266 -0.55216992
5.9454169 -2.0906518 -0.55137777
6.5581217 -2.3061039 -0.55002201
7.3058724 -2.5690436 -0.5480088
8.2653999 -2.9064527 -0.54684132
9.5027809 -3.3415668 -0.54470336
11.152839 -3.9217944 -0.54078418
13.506348 -4.7493844 -0.53570563
17.159441 -6.0339618 -0.52925736
23.432158 -8.239706 -0.51616436
36.972572 -13.00107 -0.48861486
1.9583064 -0.66167933 -0.55386919
2.0473063 -0.69175094 -0.55983365
2.1169901 -0.71529591 -0.55911261
2.1905918 -0.74016476 -0.55817282
2.2724347 -0.76781809 -0.55797148
2.3516214 -0.7945739 -0.55571002
2.451405 -0.82828921 -0.55674803
2.553169 -0.86267358 -0.55646628
2.691896 -0.90954709 -0.56212157
2.8068397 -0.9483847 -0.56057835
2.9115679 -0.98377061 -0.5550788
3.0671127 -1.0363266 -0.55698925
3.2292035 -1.0910944 -0.55729866
3.4020367 -1.1494919 -0.55652452
3.6017077 -1.2169574 -0.55687314
3.8175771 -1.2898961 -0.55608135
4.0602813 -1.3719019 -0.55517739
4.3459282 -1.4684173 -0.55551058
4.6693888 -1.5777092 -0.55533344
5.0317974 -1.7001611 -0.55377299
5.4651308 -1.8465774 -0.55303919
5.9724874 -2.0180047 -0.55154532
6.5982494 -2.2294395 -0.55104661
7.3321819 -2.477423 -0.54765582
8.3012381 -2.8048511 -0.54688919
9.5400581 -3.2234278 -0.54452693
11.200019 -3.784301 -0.54077458
13.572888 -4.5860543 -0.53606761
17.22859 -5.8212552 -0.52914238
23.526106 -7.9490819 -0.5160417
37.100288 -12.535573 -0.48822865
1.9922538 -0.64596802 -0.5611816
2.0513947 -0.66514391 -0.55867279
2.1212134 -0.68778193 -0.55795223
2.2141254 -0.71790767 -0.56187743
2.2935157 -0.74364918 -0.56086004
2.3735511 -0.76959985 -0.55861372
2.4693801 -0.8006714 -0.55855209
2.5739601 -0.83458042 -0.55871874
2.6802192 -0.86903381 -0.55740964
2.7913513 -0.90506732 -0.55522037
2.9388773 -0.95290118 -0.55800921
3.0875859 -1.0011183 -0.55842942
3.247812 -1.0530701 -0.5582332
3.4341249 -1.1134801 -0.55949157
3.6172037 -1.1728415 -0.55699712
3.8170545 -1.2376411 -0.55374664
4.0802288 -1.3229727 -0.55563849
4.3601408 -1.4137315 -0.55506325
4.6759415 -1.5161265 -0.55385363
5.0563865 -1.639482 -0.55421853
5.4963832 -1.7821463 -0.55394226
6.0045662 -1.9469197 -0.55225515
6.6031775 -2.1410131 -0.549218
7.3843637 -2.394305 -0.54931277
8.3305454 -2.7010949 -0.54659051
9.5639114 -3.101001 -0.54367083
11.256857 -3.6499214 -0.54131103
13.632982 -4.4203558 -0.53625375
17.278088 -5.6022444 -0.52850688
23.605249 -7.6537623 -0.51567435
37.237747 -12.07396 -0.48804688
1.9818645 -0.61577439 -0.55608022
2.0640612 -0.64131325 -0.55993241
2.1330662 -0.6627534 -0.55888402
2.216058 -0.68853939 -0.56017697
2.2841983 -0.70971084 -0.55640531
2.3842146 -0.74078643 -0.55893731
2.4891059 -0.77337664 -0.56082052
2.588625 -0.80429763 -0.55971289
2.678534 -0.83223283 -0.55488896
2.8116546 -0.87359399 -0.55708003
2.9661686 -0.92160219 -0.56099689
3.0866914 -0.95904917 -0.55609268
3.2516613 -1.0103061 -0.55671746
3.4306476 -1.065918 -0.55674756
3.6229129 -1.1256557 -0.55570287
3.8437166 -1.1942604 -0.55544215
4.0875282 -1.2700138 -0.55446398
4.3801003 -1.3609172 -0.55543178
4.6987057 -1.4599093 -0.55438173
5.0750937 -1.5768549 -0.55410188
5.4962559 -1.7077119 -0.5517714
6.0307674 -1.8737872 -0.552504
6.6501775 -2.0662405 -0.55097228
7.3827844 -2.293865 -0.54705572
8.3617964 -2.5980484 -0.54650354
9.610467 -2.9860163 -0.54418898
11.28889 -3.5075099 -0.5407365
13.669192 -4.2470808 -0.53558332
17.33703 -5.3866949 -0.52824384
23.692568 -7.3613892 -0.5155654
37.366482 -11.609938 -0.4878262
1.9878068 -0.59092003 -0.55566674
2.0653934 -0.61398435 -0.55820352
2.1389291 -0.63584453 -0.55832946
2.2286675 -0.66252124 -0.56126261
2.3089521 -0.68638766 -0.56033683
2.4010384 -0.7137624 -0.56078136
2.48943 -0.74003875 -0.558801
2.6059232 -0.77466893 -0.561351
2.7137127 -0.80671185 -0.56007934
2.8337486 -0.84239513 -0.55936289
2.9566994 -0.87894505 -0.55711973
3.1169925 -0.92659575 -0.55945671
3.2688127 -0.97172767 -0.55756605
3.4407978 -1.0228541 -0.55631155
3.6428788 -1.0829272 -0.55668074
3.8696551 -1.1503415 -0.55710423
4.1198883 -1.2247289 -0.5567686
4.3828373 -1.3028964 -0.55370539
4.7194862 -1.4029728 -0.55475616
5.0792427 -1.5099185 -0.55248594
5.5252323 -1.642499 -0.55261099
6.0471101 -1.7976388 -0.55193442
6.6711054 -1.9831352 -0.55064416
7.4337449 -2.209847 -0.54877681
8.3897676 -2.4940462 -0.54628599
9.6426325 -2.8664882 -0.54397333
11.331486 -3.3685377 -0.54075193
13.725467 -4.0802021 -0.53578192
17.414988 -5.1769948 -0.5286395
23.789566 -7.071981 -0.51574486
37.470715 -11.139008 -0.48736194
2.0135181 -0.57171428 -0.56084645
2.0736697 -0.58879364 -0.55844134
2.1481161 -0.60993177 -0.5587275
2.2402711 -0.63609803 -0.56217253
2.3122962 -0.65654868 -0.55914688
2.3967352 -0.68052417 -0.55777973
2.4858351 -0.70582306 -0.55600381
2.6114748 -0.74149686 -0.56054044
2.7197986 -0.77225411 -0.55933321
2.8441861 -0.80757248 -0.55942076
2.9695375 -0.8431645 -0.55754298
3.125885 -0.88755751 -0.55905163
3.2542772 -0.92401296 -0.55310684
3.4607098 -0.98262697 -0.55753523
3.6440256 -1.0346773 -0.55486983
3.8720572 -1.0994241 -0.55546176
4.133626 -1.1736935 -0.5566327
4.4143481 -1.2534012 -0.55569726
4.7416487 -1.3463341 -0.55537331
5.1071463 -1.4501128 -0.55353963
5.5433784 -1.5739757 -0.55244839
6.0618782 -1.7211976 -0.55130893
6.6990991 -1.9021287 -0.55098259
7.4493303 -2.1151478 -0.54796594
8.4232006 -2.3916667 -0.54650664
9.6848021 -2.7498832 -0.54440355
11.369147 -3.228133 -0.54061401
13.77846 -3.9122281 -0.53593212
17.451004 -4.9550033 -0.52784342
23.847879 -6.7713189 -0.51516503
37.572063 -10.668136 -0.48693711
1.9972126 -0.54063827 -0.55441111
2.0802062 -0.56310433 -0.55829471
2.1582472 -0.58422977 -0.55945182
2.2297301 -0.60357994 -0.55762285
2.3192036 -0.62780005 -0.55890822
2.3969879 -0.64885604 -0.55593973
2.5002728 -0.67681485 -0.55732948
2.6098847 -0.7064864 -0.55829227
2.7304621 -0.73912621 -0.55961472
2.8468041 -0.77061963 -0.55802971
2.9839516 -0.80774498 -0.55834228
3.1255586 -0.84607744 -0.55709046
3.2980599 -0.89277291 -0.55864018
3.4799597 -0.94201255 -0.5587281
3.6660614 -0.99238962 -0.55632502
3.8958898 -1.0546033 -0.55697823
4.1436982 -1.1216842 -0.55608964
4.425283 -1.1979082 -0.55517745
4.7477565 -1.2852006 -0.55419582
5.1208611 -1.3861986 -0.55313689
5.5616913 -1.5055299 -0.55238676
6.0946474 -1.6497991 -0.55240238
6.7348394 -1.8230968 -0.55203658
7.4752998 -2.0235367 -0.54800445
8.4562378 -2.2890732 -0.54678261
9.7155762 -2.6299715 -0.54427445
11.401978 -3.0864742 -0.54032958
13.819181 -3.7408025 -0.53568643
17.52026 -4.742671 -0.52813429
23.929905 -6.4777393 -0.51517731
37.713795 -10.208989 -0.48711023
2.0238249 -0.52122128 -0.55997699
2.0885034 -0.53787875 -0.55870426
2.1647773 -0.55752254 -0.5593251
2.2368314 -0.57607955 -0.55758506
2.3205988 -0.59765321 -0.55743122
2.4179826 -0.62273365 -0.55899078
2.5136485 -0.64737177 -0.55849439
2.6206157 -0.67492038 -0.55877024
2.7339735 -0.70411479 -0.55851769
2.8504529 -0.73411322 -0.55693334
2.9907057 -0.77023435 -0.55779171
3.1285529 -0.80573589 -0.55581623
3.2958441 -0.84882051 -0.55645484
3.4758272 -0.89517379 -0.55625522
3.6720278 -0.94570386 -0.55542374
3.9083374 -1.0065637 -0.55694616
4.1349549 -1.0649273 -0.5531171
4.4454165 -1.1448843 -0.55589515
4.7729249 -1.2292318 -0.5553273
5.1358466 -1.3226997 -0.55295694
5.5837393 -1.4380511 -0.55277848
6.0995064 -1.5708832 -0.55105031
6.7352176 -1.7346059 -0.55027765
7.5220175 -1.9372404 -0.54964143
8.4929104 -2.1872869 -0.54737335
9.744422 -2.5096045 -0.54412049
11.447471 -2.9482121 -0.5407266
13.863466 -3.5704341 -0.53566068
17.562525 -4.5230994 -0.52769184
23.987986 -6.1779299 -0.51475334
37.813446 -9.7385759 -0.48681381
2.0357907 -0.49769381 -0.56155205
2.1059697 -0.51485056 -0.56164068
2.1718137 -0.53094763 -0.55941403
2.2362981 -0.54671222 -0.55573434
2.338218 -0.57162881 -0.55993277
2.4330657 -0.59481645 -0.56074446
2.5076613 -0.61305296 -0.55544722
2.6298678 -0.64292902 -0.55901504
2.7432373 -0.67064464 -0.55868328
2.8569305 -0.69843948 -0.55647892
2.9917226 -0.73139238 -0.55626196
3.1432419 -0.76843458 -0.55670506
3.3187456 -0.81134033 -0.55859476
3.4937274 -0.85411847 -0.55739695
3.6846712 -0.90079892 -0.55561876
3.9173086 -0.95767218 -0.55650443
4.1582718 -1.0165809 -0.5545221
4.4370437 -1.0847329 -0.55313838
4.7734728 -1.1669804 -0.55367965
5.1660194 -1.262947 -0.55449158
5.5840149 -1.3651352 -0.55110228
6.1215129 -1.4965384 -0.55133432
6.766479 -1.6542145 -0.55112821
7.5302868 -1.8409442 -0.54855007
8.5088568 -2.0801771 -0.54671121
9.7754078 -2.3898134 -0.54416871
11.471376 -2.8044302 -0.54018611
13.90952 -3.4004881 -0.53578401
17.61902 -4.3073568 -0.527758
24.061373 -5.8823318 -0.51473707
37.910458 -9.2680454 -0.48655879
2.0270348 -0.46921733 -0.55750316
2.102401 -0.48666307 -0.55905074
2.1921868 -0.50744665 -0.56301188
2.2493849 -0.52068686 -0.55735326
2.3431139 -0.54238319 -0.55946583
2.4314857 -0.56283951 -0.558743
2.5389793 -0.58772206 -0.56074095
2.6376677 -0.61056644 -0.55903488
2.7505889 -0.6367054 -0.5585438
2.8801925 -0.66670603 -0.55937082
3.0265415 -0.7005828 -0.56109172
3.1491945 -0.72897446 -0.55612975
3.3082676 -0.76579666 -0.55520427
3.5032563 -0.81093258 -0.55728424
3.7043476 -0.85748112 -0.55695373
3.9241807 -0.90836805 -0.55585194
4.1686649 -0.96496111 -0.5542838
4.4591026 -1.0321916 -0.55426419
4.7957945 -1.1101289 -0.55464345
5.1663094 -1.1958956 -0.55290252
5.6197157 -1.3008499 -0.55300522
6.1297455 -1.4189113 -0.55046272
6.7760663 -1.5685215 -0.55029655
7.5481129 -1.7472346 -0.54824209
8.5311604 -1.9747901 -0.5465427
9.8008585 -2.2686994 -0.54399139
11.505659 -2.663326 -0.5402174
13.950582 -3.2292759 -0.53579563
17.671917 -4.0906892 -0.52779591
24.125164 -5.5844846 -0.51459378
38.022152 -8.8013544 -0.48656651
2.0323906 -0.44420147 -0.55743176
2.1026232 -0.45955157 -0.55756503
2.1858497 -0.47774166 -0.55983329
2.2741678 -0.49704453 -0.56193703
2.3450024 -0.51252621 -0.5583697
2.4413888 -0.53359258 -0.55946863
2.5347502 -0.5539977 -0.55826026
2.6558838 -0.58047277 -0.56134039
2.7659326 -0.60452521 -0.56010771
2.8836467 -0.6302529 -0.55849427
3.0144327 -0.65883762 -0.55730283
3.1689353 -0.69260591 -0.55806965
3.3269076 -0.7271325 -0.55678988
3.5019107 -0.76538134 -0.55553102
3.7026267 -0.80925006 -0.55515689
3.936228 -0.86030626 -0.55601788
4.1973972 -0.91738772 -0.55656219
4.4777217 -0.97865564 -0.55504072
4.8135562 -1.0520561 -0.55515951
5.1869483 -1.1336651 -0.5535776
5.6397524 -1.2326304 -0.55344355
6.1664548 -1.347747 -0.55222929
6.7845435 -1.4828372 -0.54946268
7.5712309 -1.6547763 -0.54840183
8.5505362 -1.8688143 -0.54627055
9.8227587 -2.1468728 -0.54370058
11.546496 -2.5236146 -0.54063696
13.984614 -3.0564923 -0.53561872
17.723967 -3.8737693 -0.52788788
24.190794 -5.2871661 -0.51456803
38.091557 -8.3253317 -0.48610786
2.0329311 -0.41819781 -0.55612755
2.1115215 -0.43436477 -0.55846608
2.1956923 -0.45167971 -0.56088924
2.26916 -0.46679288 -0.55923909
2.3689005 -0.48731068 -0.56259078
2.4400716 -0.5019514 -0.55771017
2.5407212 -0.5226562 -0.55811769
2.6511936 -0.54538167 -0.55888939
2.7588477 -0.56752741 -0.55721772
2.8937638 -0.59528124 -0.55899376
3.030266 -0.62336135 -0.55877072
3.1735587 -0.65283829 -0.557428
3.3442004 -0.68794131 -0.55822605
3.5204623 -0.72420043 -0.55701917
3.7192392 -0.76509118 -0.55619502
3.957386 -0.81408083 -0.55755043
4.1966805 -0.86330652 -0.55501759
4.4896245 -0.92356855 -0.55506647
4.8106613 -0.98960954 -0.55338037
5.1956301 -1.0688021 -0.5530597
5.640069 -1.1602285 -0.55203289
6.1709476 -1.2694365 -0.5511921
6.8189659 -1.4027414 -0.55081189
7.6041579 -1.5642647 -0.54935205
8.5772886 -1.7644491 -0.54655224
9.859869 -2.028291 -0.54433304
11.570063 -2.3800979 -0.54032922
14.023846 -2.8848698 -0.53572214
17.768991 -3.6552906 -0.52785027
24.24494 -4.9874687 -0.5143764
38.186794 -7.8554721 -0.48605382
2.0618255 -0.39778233 -0.56265128
2.1235547 -0.4096916 -0.56027395
2.1794727 -0.42047971 -0.55538321
2.2841539 -0.44067556 -0.56155646
2.3553357 -0.45440847 -0.55800003
2.4475462 -0.47219843 -0.55804932
2.5513599 -0.4922269 -0.55908287
2.6625946 -0.51368707 -0.55991894
2.7828784 -0.53689313 -0.56069547
2.8958111 -0.55868089 -0.55802
3.0313869 -0.58483714 -0.55760914
3.1834345 -0.61417133 -0.55779397
3.3419993 -0.64476281 -0.55649316
3.5328882 -0.68159044 -0.55761701
3.7272186 -0.71908206 -0.55602401
3.9558899 -0.76319903 -0.55597544
4.2148213 -0.81315392 -0.55605233
4.501348 -0.86843282 -0.55515367
4.8237033 -0.93062389 -0.55352241
5.2071543 -1.0046021 -0.5529297
5.6479058 -1.089635 -0.5514468
6.1732073 -1.19098 -0.55004424
6.8174052 -1.3152633 -0.54933786
7.606113 -1.4674265 -0.54814833
8.5840197 -1.6560913 -0.54564226
9.8707495 -1.9043367 -0.54359984
11.593904 -2.2367804 -0.54011732
14.050532 -2.7107308 -0.53542781
17.803528 -3.4347861 -0.52758169
24.30032 -4.6881943 -0.51428938
38.272148 -7.3837404 -0.48594785
2.0573022 -0.37073264 -0.5601306
2.1243377 -0.38281265 -0.55919629
2.1837945 -0.39352694 -0.5552094
2.2799051 -0.41084641 -0.55922759
2.3514764 -0.42374378 -0.55580932
2.463769 -0.44397926 -0.56046098
2.5581861 -0.46099356 -0.55929422
2.6640699 -0.48007417 -0.55894554
2.7783141 -0.50066137 -0.55849326
2.9042826 -0.52336127 -0.55837011
3.0450091 -0.54872066 -0.55883151
3.1775434 -0.57260376 -0.55548602
3.3550522 -0.60459149 -0.55738658
3.5413401 -0.63816112 -0.5576703
3.7422781 -0.67437083 -0.5569914
3.9632154 -0.71418446 -0.55572867
4.2237749 -0.76113814 -0.55595678
4.4973149 -0.81043094 -0.55338538
4.850306 -0.87404108 -0.55529976
5.2155685 -0.93986261 -0.55255419
5.6681719 -1.0214232 -0.55215746
6.2036905 -1.1179255 -0.55149382
6.8426023 -1.2330594 -0.55010492
7.6265197 -1.374324 -0.54835963
8.6186218 -1.553104 -0.54658651
9.900404 -1.7840854 -0.5439837
11.616965 -2.0934155 -0.53995162
14.073623 -2.5361133 -0.53507888
17.846832 -3.216058 -0.52765316
24.347216 -4.3874483 -0.51410127
38.323578 -6.9060349 -0.48548594
2.0445206 -0.34252995 -0.55546182
2.136044 -0.3578634 -0.561077
2.199717 -0.36853087 -0.55806327
2.2976606 -0.38493994 -0.56237924
2.3681858 -0.39675537 -0.55856341
2.4591882 -0.41200152 -0.55822432
2.5575171 -0.42847511 -0.55795383
2.6671295 -0.44683912 -0.55839247
2.7925551 -0.46785232 -0.56015718
2.9210572 -0.48938105 -0.5603959
3.0478234 -0.51061887 -0.55815351
3.1872542 -0.53397852 -0.5559938
3.3601789 -0.56294954 -0.55704618
3.5346975 -0.59218758 -0.5554356
3.7402618 -0.62662697 -0.55550247
3.969265 -0.66499311 -0.55538839
4.2250113 -0.70783979 -0.55493188
4.5199294 -0.757249 -0.55498028
4.8527598 -0.81300992 -0.55439425
5.2321291 -0.87656778 -0.5531249
5.6752472 -0.9508059 -0.55166608
6.1954002 -1.03795 -0.54958069
6.848155 -1.1473097 -0.54937553
7.6376147 -1.2795722 -0.5479846
8.6423788 -1.447906 -0.54692268
9.9145241 -1.6610357 -0.54359615
11.6399 -1.9500974 -0.53986228
14.105985 -2.3632543 -0.535164
17.875168 -2.9947267 -0.52736229
24.410498 -4.0896268 -0.51433671
38.412113 -6.4353962 -0.48556834
2.0700357 -0.32068986 -0.56128013
2.1238339 -0.32902426 -0.55676496
2.2083297 -0.34211433 -0.55913872
2.2876244 -0.3543987 -0.55881381
2.3802855 -0.36875373 -0.56030548
2.4758639 -0.38356078 -0.56089664
2.5600421 -0.39660165 -0.55739868
2.6623042 -0.41244408 -0.55627835
2.7867427 -0.43172207 -0.55788422
2.9189758 -0.45220762 -0.55888754
3.0495315 -0.47243333 -0.55736035
3.1953943 -0.49503037 -0.55630988
3.3612194 -0.52071995 -0.55611509
3.5479016 -0.54964077 -0.55640638
3.7557113 -0.58183467 -0.55669236
3.9749377 -0.61579722 -0.55508065
4.2344823 -0.65600586 -0.55507439
4.5250936 -0.70102733 -0.55451405
4.8493204 -0.75125653 -0.55290419
5.2331586 -0.81072074 -0.55213809
5.6936145 -0.88205457 -0.55235541
6.21838 -0.96335119 -0.55052674
6.8769927 -1.0653834 -0.55059642
7.6538239 -1.1857301 -0.54806006
8.6424389 -1.3388863 -0.5458433
9.9353046 -1.5391771 -0.54365671
11.654814 -1.8055633 -0.53948343
14.123943 -2.1880808 -0.53478408
17.897226 -2.7726376 -0.52696741
24.453773 -3.7883778 -0.51422817
38.47937 -5.9612231 -0.48545521
2.073463 -0.29516226 -0.56118286
2.1304133 -0.30326927 -0.55747002
2.2167737 -0.31556287 -0.56025195
2.290695 -0.32608575 -0.55854219
2.3707144 -0.33747667 -0.55703354
2.4723756 -0.35194841 -0.5590837
2.5672634 -0.3654559 -0.55795038
2.687258 -0.38253739 -0.56046712
2.8063474 -0.39949006 -0.56078315
2.9093122 -0.41414735 -0.5560202
3.0539782 -0.43474087 -0.55715388
3.1957753 -0.45492601 -0.55536026
3.3617599 -0.47855431 -0.55518901
3.5522964 -0.50567764 -0.55607837
3.7679486 -0.53637624 -0.55748647
3.9892271 -0.56787568 -0.55605894
4.2351213 -0.60287935 -0.5541445
4.5443149 -0.64689374 -0.55585271
4.8744907 -0.69389504 -0.5547592
5.2608724 -0.74889737 -0.55404866
5.6950669 -0.81070602 -0.55148751
6.2231865 -0.885885 -0.54994631
6.8602633 -0.97657436 -0.54825413
7.675303 -1.0925971 -0.54859459
8.6708517 -1.2343159 -0.54663795
9.9435806 -1.4154917 -0.54311609
11.689147 -1.6639771 -0.54008472
14.158101 -2.0154386 -0.53509861
17.929935 -2.5523679 -0.52696651
24.478127 -3.4845178 -0.51380038
38.530205 -5.4848642 -0.48520899
2.0785215 -0.26985154 -0.56161141
2.1425867 -0.27816901 -0.55971807
2.2307677 -0.28961742 -0.56284606
2.2937763 -0.29779771 -0.55835843
2.3666656 -0.30726084 -0.55515248
2.4749491 -0.32131916 -0.55872989
2.5887055 -0.33608797 -0.56166977
2.6778383 -0.34765998 -0.55756879
2.7939835 -0.36273894 -0.55737907
2.9275312 -0.38007724 -0.55856669
3.0611043 -0.39741886 -0.55752027
3.2059772 -0.41622749 -0.5562017
3.3870628 -0.43973759 -0.55843252
3.5627799 -0.4625507 -0.55678701
3.773447 -0.4899013 -0.55736655
4.0062275 -0.52012283 -0.55749494
4.2538567 -0.5522722 -0.55566531
4.5444083 -0.58999413 -0.5549348
4.8721371 -0.63254267 -0.55356431
5.259563 -0.68284166 -0.55298465
5.7080798 -0.74107194 -0.55182344
6.2375135 -0.8098076 -0.55029076
6.8927474 -0.89487565 -0.5499292
7.66435 -0.99505174 -0.5468958
8.6751413 -1.1262814 -0.54599398
9.9657421 -1.2938383 -0.5434165
11.707136 -1.5199211 -0.54001153
14.178831 -1.8408177 -0.5349862
17.970692 -2.3331096 -0.52728134
24.51866 -3.183223 -0.51379073
38.603397 -5.0118246 -0.48531792
2.0829103 -0.24441865 -0.56194264
2.1498523 -0.25227395 -0.56076336
2.2164514 -0.26008901 -0.55838478
2.3031588 -0.27026367 -0.55979103
2.3886714 -0.28029814 -0.55946362
2.4867616 -0.29180849 -0.56054419
2.5757771 -0.30225399 -0.55801606
2.6840172 -0.31495541 -0.5580067
2.8089378 -0.32961419 -0.55951142
2.918735 -0.34249833 -0.55604285
3.0507696 -0.3579919 -0.55479431
3.225122 -0.37845126 -0.5586735
3.3762028 -0.3961798 -0.55579674
3.5482755 -0.41637164 -0.55367827
3.7748823 -0.44296277 -0.55673194
4.0035324 -0.46979368 -0.55627406
4.2676163 -0.50078249 -0.55661625
4.5512266 -0.53406268 -0.55492347
4.8827233 -0.57296211 -0.55392474
5.2695947 -0.61835945 -0.5531981
5.7206545 -0.67128897 -0.55219942
6.2580433 -0.73434877 -0.55126369
6.9002633 -0.80970991 -0.54969293
7.6960802 -0.90309489 -0.54832613
8.6884804 -1.0195479 -0.54600322
9.9832335 -1.1714804 -0.5435437
11.722547 -1.3755797 -0.53990132
14.19515 -1.6657268 -0.53478861
17.993145 -2.1114018 -0.52713853
24.550053 -2.8808205 -0.51366746
38.632244 -4.5332923 -0.48494309
2.070575 -0.21719703 -0.55785209
2.1554744 -0.22610269 -0.56146216
2.2086775 -0.23168354 -0.55566657
2.3191407 -0.24327078 -0.56290591
2.3776543 -0.24940871 -0.55612296
2.4847331 -0.26064095 -0.55932224
2.5829718 -0.27094588 -0.55881077
2.6806424 -0.28119123 -0.55654418
2.7957053 -0.29326096 -0.55611533
2.938184 -0.30820656 -0.5589838
3.0661535 -0.32163018 -0.55683064
3.2325048 -0.33907992 -0.55918789
3.3944647 -0.356069 -0.55804014
3.5589042 -0.3733182 -0.55457854
3.7648044 -0.3949165 -0.55448747
4.0076599 -0.42039135 -0.55608726
4.2637458 -0.44725394 -0.55535215
4.5585718 -0.47818032 -0.55506021
4.8932028 -0.51328206 -0.55435568
5.2870445 -0.55459487 -0.55427217
5.7174592 -0.59974402 -0.55113739
6.2804203 -0.65879697 -0.55247945
6.9034534 -0.72415125 -0.54919618
7.7132258 -0.80909395 -0.54879737
8.7121191 -0.91387475 -0.54674113
10.010951 -1.0501183 -0.5443086
11.730021 -1.2304435 -0.53950793
14.21786 -1.4914103 -0.53491288
18.025244 -1.8907931 -0.52735788
24.583109 -2.5786934 -0.51365685
38.682404 -4.0576663 -0.48490977
2.072345 -0.19165294 -0.55765188
2.1447783 -0.19835165 -0.55799854
2.2300887 -0.20624126 -0.56037289
2.3128684 -0.21389684 -0.56070268
2.3757896 -0.21971586 -0.55501288
2.4934416 -0.23059647 -0.56060189
2.591589 -0.23967324 -0.55999511
2.6982954 -0.24954158 -0.55952984
2.8105729 -0.25992513 -0.55839479
2.9496238 -0.27278474 -0.56047964
3.0710135 -0.28401101 -0.55703688
3.2234766 -0.29811099 -0.55694991
3.3930259 -0.3137911 -0.55712712
3.5730519 -0.3304401 -0.556108
3.7712052 -0.34876558 -0.55475664
4.0138288 -0.37120369 -0.5562678
4.2662821 -0.39455086 -0.55500859
4.5570555 -0.42144194 -0.55420268
4.8892803 -0.4521665 -0.55323958
5.2739124 -0.48773772 -0.55222493
5.739285 -0.53077596 -0.5525704
6.2780704 -0.58060348 -0.55160302
6.9173555 -0.63972533 -0.54963481
7.7113776 -0.71315742 -0.54800051
8.7226868 -0.80668449 -0.54674047
10.012233 -0.92594326 -0.5437181
11.753641 -1.0869907 -0.53993875
14.225577 -1.3155985 -0.53455418
18.034704 -1.6678711 -0.52699482
24.608807 -2.2758517 -0.51357019
38.727776 -3.5815911 -0.48488981
2.0891991 -0.16733156 -0.56159103
2.1559119 -0.17267485 -0.56030035
2.2272329 -0.17838719 -0.55906183
2.3076475 -0.18482788 -0.55884373
2.4016335 -0.19235559 -0.56045544
2.4899998 -0.19943315 -0.55923438
2.5889683 -0.2073599 -0.55883563
2.701484 -0.2163717 -0.55959702
2.8059959 -0.22474243 -0.5568943
2.9383764 -0.23534526 -0.55775034
3.077795 -0.24651182 -0.55767494
3.224776 -0.25828406 -0.55658358
3.3841834 -0.27105159 -0.55508602
3.5796201 -0.28670484 -0.55653948
3.7851627 -0.30316746 -0.5562194
4.0090046 -0.32109579 -0.55501008
4.2709751 -0.34207797 -0.55502999
