# .PCD v0.7 - Point Cloud Data file format
VERSION 0.7
FIELDS x y z
SIZE 4 4 4
TYPE F F F
COUNT 1 1 1
WIDTH 1454
HEIGHT 1
VIEWPOINT 0 0 0 1 0 0 0
POINTS 1454
DATA ascii
3.4257281 -3.0756485 -0.55751175
3.6771207 -3.3013511 -0.55679202
3.9608462 -3.5560825 -0.55499357
4.3069673 -3.866833 -0.55490452
4.7117267 -4.2302294 -0.55398417
5.1947818 -4.6639204 -0.55235493
5.7961783 -5.2038598 -0.55119789
6.5609684 -5.8904948 -0.55032063
7.5353389 -6.7652931 -0.54759878
8.880969 -7.9734116 -0.54594547
10.782483 -9.6806078 -0.54219741
13.704058 -12.303623 -0.53587478
18.820742 -16.897427 -0.52560902
29.995695 -26.930397 -0.50256968
1.5769538 -1.3811641 -0.56169611
1.6145439 -1.4140872 -0.55600911
1.6843224 -1.4752021 -0.56022382
1.7434084 -1.5269523 -0.55945128
1.798623 -1.5753115 -0.55618161
1.8759265 -1.6430172 -0.55828059
1.9607861 -1.7173409 -0.56082803
2.0486503 -1.7942961 -0.56231928
2.1261637 -1.8621858 -0.55914521
2.2188761 -1.9433873 -0.55809438
2.3325932 -2.0429857 -0.56004459
2.4415381 -2.1384044 -0.55838853
2.5738366 -2.254277 -0.55940908
2.7080052 -2.3717875 -0.55789268
2.8685279 -2.5123804 -0.55855095
3.0511374 -2.6723175 -0.55971664
3.2373252 -2.8353889 -0.55746531
3.4639063 -3.0338385 -0.55761164
3.7124047 -3.2514839 -0.55603868
4.0180063 -3.5191433 -0.55689734
4.3567452 -3.8158252 -0.55523062
4.7605877 -4.169528 -0.55365902
5.2558355 -4.6032872 -0.55278629
5.8678122 -5.1392827 -0.55195868
6.6427541 -5.8180103 -0.55113828
7.6205859 -6.6744375 -0.54778814
8.9765129 -7.8620172 -0.54583466
10.878189 -9.5275869 -0.54107791
13.843809 -12.125005 -0.53546894
19.002687 -16.643373 -0.52493519
30.294365 -26.53311 -0.50206941
1.5832691 -1.3526589 -0.55797893
1.652576 -1.4118708 -0.56308508
1.7008076 -1.4530773 -0.55972171
1.7603047 -1.5039084 -0.55889672
1.8335232 -1.5664623 -0.56097496
1.8986607 -1.6221122 -0.55906802
1.9749495 -1.6872891 -0.5589025
2.0506604 -1.7519724 -0.5569157
2.1495385 -1.8364487 -0.55931145
2.2463903 -1.9191936 -0.55903685
2.3513398 -2.0088568 -0.55857259
2.4818046 -2.1203187 -0.56159228
2.6048439 -2.2254364 -0.56015831
2.7355971 -2.3371451 -0.55761433
2.8963773 -2.4745071 -0.55800676
3.0751693 -2.6272571 -0.55815661
3.2752411 -2.7981875 -0.55802727
3.4977043 -2.9882479 -0.55709511
3.7540331 -3.2072413 -0.55632472
4.0462041 -3.456856 -0.55487204
4.397666 -3.7571261 -0.55451596
4.810595 -4.1099105 -0.55355555
5.3117614 -4.5380793 -0.5527575
5.9230237 -5.0603085 -0.55125737
6.7051878 -5.7285471 -0.55043226
7.7035184 -6.5814662 -0.54789072
9.0647326 -7.7444139 -0.54536724
11.009602 -9.406004 -0.54182047
13.989303 -11.951698 -0.5353716
19.190117 -16.394989 -0.52450401
30.592093 -26.136215 -0.50163943
1.6159127 -1.3465319 -0.56360537
1.663565 -1.3862404 -0.56097901
1.7205412 -1.4337182 -0.5603717
1.7801192 -1.4833643 -0.55935431
1.849625 -1.5412831 -0.5600605
1.9418683 -1.618149 -0.565889
1.9989136 -1.6656846 -0.55984563
2.0819545 -1.7348821 -0.55957872
2.1780996 -1.8149995 -0.56089354
2.2721794 -1.8933955 -0.55961841
2.3764331 -1.9802697 -0.55870682
2.4893081 -2.0743277 -0.55747628
2.6199026 -2.1831515 -0.5575816
2.7730765 -2.3107905 -0.55941975
2.925467 -2.4377768 -0.5577938
3.1100969 -2.5916281 -0.55866975
3.3087668 -2.7571785 -0.55792069
3.5244911 -2.9369404 -0.5555675
3.7827373 -3.1521356 -0.55479252
4.0997806 -3.4163263 -0.55641633
4.4404864 -3.7002349 -0.55413622
4.8602567 -4.0500274 -0.55349767
5.3773026 -4.4808788 -0.55380225
5.9860463 -4.988142 -0.55137265
6.7708797 -5.6421394 -0.55008811
7.7918601 -6.4929171 -0.54845393
9.1568069 -7.6303201 -0.54522061
11.104888 -9.2536469 -0.54086906
14.13146 -11.775674 -0.53523004
19.378086 -16.147661 -0.52417499
30.864183 -25.718967 -0.50087738
1.6169406 -1.3140413 -0.55828601
1.6825374 -1.36735 -0.56166452
1.7382041 -1.4125886 -0.5604248
1.7933522 -1.457406 -0.5578391
1.8716877 -1.5210669 -0.56103516
1.9368916 -1.5740563 -0.55875605
2.0270307 -1.6473098 -0.5620048
2.0969977 -1.70417 -0.55794746
2.185394 -1.7760072 -0.55710608
2.2889755 -1.8601847 -0.5580793
2.3972118 -1.9481453 -0.55791777
2.5127671 -2.0420537 -0.55706441
2.6493559 -2.1530557 -0.55817324
2.7891316 -2.2666471 -0.55699384
2.9546638 -2.4011705 -0.55768889
3.1255097 -2.5400121 -0.55578589
3.339278 -2.7137356 -0.55739665
3.5743132 -2.9047418 -0.55774856
3.8343265 -3.1160474 -0.55669713
4.1313896 -3.3574617 -0.55506116
4.4875979 -3.6469421 -0.5543772
4.9155469 -3.994724 -0.55415833
5.4117041 -4.3979368 -0.55173397
6.0413847 -4.9096603 -0.55086738
6.8448524 -5.5626154 -0.55049914
7.8620453 -6.3892589 -0.54782265
9.2515945 -7.5185061 -0.54531854
11.207532 -9.1080399 -0.54037267
14.257319 -11.586514 -0.53456038
19.557327 -15.89368 -0.52369732
31.142874 -25.30892 -0.50031185
1.6428244 -1.3018658 -0.56165326
1.6885986 -1.3381399 -0.55815285
1.7586803 -1.3936765 -0.56145889
1.8164264 -1.4394377 -0.55946845
1.8826913 -1.4919497 -0.55879211
1.9648759 -1.5570775 -0.56126314
2.0442805 -1.620002 -0.56122196
2.1302149 -1.6881014 -0.56122017
2.2075958 -1.7494223 -0.55723983
2.3221421 -1.8401952 -0.56060648
2.4222307 -1.9195108 -0.55820507
2.5332749 -2.0075085 -0.55609626
2.6799095 -2.1237099 -0.5590663
2.810694 -2.227351 -0.55578834
2.9905565 -2.369884 -0.55892098
3.1630344 -2.5065651 -0.55693567
3.369734 -2.6703656 -0.55695724
3.5981944 -2.8514102 -0.55596179
3.8683012 -3.0654578 -0.55611503
4.1736317 -3.3074188 -0.5552305
4.5232177 -3.5844502 -0.55329072
4.9531851 -3.9251804 -0.55291843
5.4804411 -4.3430076 -0.55325544
6.1101856 -4.8420525 -0.55167007
6.8976374 -5.466073 -0.54929721
7.9375272 -6.2901397 -0.54765135
9.3383703 -7.4002466 -0.54502851
11.318851 -8.9696894 -0.54038113
14.395336 -11.407668 -0.53443533
19.744362 -15.646536 -0.52351415
31.421114 -24.899845 -0.49982518
1.6499172 -1.2747765 -0.55867684
1.7100981 -1.3212742 -0.5598467
1.7693518 -1.3670553 -0.55945683
1.8229345 -1.4084549 -0.55609655
1.9077804 -1.4740094 -0.56081665
1.9702727 -1.5222929 -0.55741554
2.0517642 -1.5852557 -0.55788285
2.1517034 -1.6624718 -0.56145328
2.2446387 -1.7342765 -0.5611648
2.3347306 -1.8038843 -0.55824834
2.4573131 -1.8985952 -0.56086737
2.5659342 -1.9825193 -0.557872
2.6934917 -2.081074 -0.55651927
2.8433368 -2.1968489 -0.55685937
3.0136552 -2.3284421 -0.5578447
3.2053649 -2.476563 -0.55898476
3.4005108 -2.6273386 -0.55666226
3.6330411 -2.8069987 -0.55597091
3.9042265 -3.0165248 -0.55590522
4.2099319 -3.252722 -0.55469674
4.5742373 -3.5341957 -0.55417377
5.0121174 -3.872515 -0.55413949
5.5341301 -4.2758379 -0.55332577
6.1449518 -4.7477775 -0.54949641
6.9593391 -5.3769984 -0.54890406
8.0100327 -6.188796 -0.54736191
9.4144821 -7.2739167 -0.5442093
11.446758 -8.8441153 -0.54125482
14.525396 -11.222765 -0.53410017
19.9266 -15.3959 -0.52328694
31.68092 -24.477646 -0.49913234
1.6658641 -1.2546929 -0.55881023
1.7314172 -1.3040661 -0.56153399
1.7846893 -1.3441894 -0.55903792
1.8424195 -1.3876706 -0.55679321
1.9177234 -1.4443879 -0.55847627
1.9853204 -1.4953005 -0.55642885
2.0723519 -1.5608507 -0.55821991
2.1571534 -1.6247213 -0.55762017
2.2578824 -1.7005883 -0.55920559
2.3662338 -1.7821963 -0.5604986
2.4594278 -1.852388 -0.55610907
2.6019464 -1.9597299 -0.56041998
2.7317472 -2.057493 -0.55915385
2.875258 -2.1655822 -0.55785364
3.042484 -2.2915332 -0.55792308
3.220952 -2.4259515 -0.55645871
3.4406936 -2.5914562 -0.55798155
3.6698158 -2.7640262 -0.5563553
3.9417574 -2.9688466 -0.55600905
4.2568631 -3.2061772 -0.5556438
4.62216 -3.4813111 -0.55475152
5.0550117 -3.8073258 -0.55366403
5.5855117 -4.2068868 -0.55324918
6.2293339 -4.6917996 -0.55184132
7.0295405 -5.2944984 -0.54926461
8.0870724 -6.0910087 -0.54746693
9.5073233 -7.1607108 -0.54444498
11.518971 -8.6758413 -0.53958416
14.647757 -11.032374 -0.53357083
20.096138 -15.135977 -0.52281195
31.945793 -24.060883 -0.49860641
1.6874419 -1.2387229 -0.56089652
1.7358097 -1.2742288 -0.55783474
1.8073231 -1.3267256 -0.56097507
1.8789124 -1.3792782 -0.5626536
1.9386297 -1.4231157 -0.55942619
2.0109301 -1.4761902 -0.55847681
2.103847 -1.544399 -0.56154567
2.1828892 -1.6024224 -0.55913705
2.2630866 -1.661294 -0.5553931
2.3943644 -1.7576629 -0.56199998
2.5001764 -1.8353376 -0.56017751
2.6043282 -1.9117937 -0.55582756
2.745177 -2.0151887 -0.55678856
2.9025066 -2.1306815 -0.55801493
3.0650849 -2.2500277 -0.55695188
3.2494211 -2.3853457 -0.55626774
3.4604332 -2.5402462 -0.5560751
3.7127645 -2.7254782 -0.55774349
3.9686799 -2.9133415 -0.55471152
4.2835379 -3.1444733 -0.55403668
4.6659055 -3.4251633 -0.55490494
5.0980344 -3.7423818 -0.55329412
5.6233125 -4.1279798 -0.55192381
6.2815704 -4.611196 -0.55140418
7.0923915 -5.2064061 -0.54913169
8.1536818 -5.9854813 -0.54695231
9.5968332 -7.0448747 -0.5445689
11.63602 -8.5418072 -0.54010612
14.792812 -10.859156 -0.53395033
20.269091 -14.8792 -0.52251208
32.214844 -23.648376 -0.49822938
1.6985717 -1.2150389 -0.55958748
1.7625195 -1.2607827 -0.5613938
1.8248824 -1.3053927 -0.56140059
1.8815168 -1.3459051 -0.55843532
1.9646169 -1.4053489 -0.56189603
2.0296166 -1.4518452 -0.55866617
2.1196523 -1.5162505 -0.56074548
2.2062075 -1.5781659 -0.56009686
2.2971013 -1.6431849 -0.5587399
2.4026954 -1.7187196 -0.55895257
2.5057285 -1.7924222 -0.55644113
2.6445312 -1.891712 -0.55940109
2.778966 -1.9878771 -0.55864173
2.9250989 -2.0924106 -0.55736977
3.0868552 -2.2081194 -0.55593193
3.2846539 -2.3496108 -0.55731112
3.4925969 -2.4983585 -0.55626488
3.7310028 -2.6688976 -0.5555113
4.01721 -2.87363 -0.55651367
4.3330832 -3.0995834 -0.55547327
4.7026763 -3.3639643 -0.55431664
5.1394577 -3.6764071 -0.55284166
5.6862493 -4.0675435 -0.55315012
6.3355885 -4.5320354 -0.55121237
7.1519737 -5.1160197 -0.5488326
8.2291508 -5.8865561 -0.54711783
9.670578 -6.9176526 -0.54388553
11.730745 -8.3913517 -0.53967267
14.90872 -10.664652 -0.5333603
20.43787 -14.619818 -0.52218926
32.458069 -23.218224 -0.49753794
1.7188693 -1.1978858 -0.56137937
1.7631695 -1.2287588 -0.55674613
1.8314677 -1.276356 -0.55855602
1.9015952 -1.3252281 -0.55951571
1.9705822 -1.3733053 -0.55873019
2.0582256 -1.4343842 -0.5616436
2.1234441 -1.4798353 -0.55689257
2.2303996 -1.5543728 -0.56134379
2.3257725 -1.6208386 -0.56082356
2.4200404 -1.6865343 -0.55812097
2.5331373 -1.7653519 -0.55766511
2.6598177 -1.8536358 -0.55777103
2.7987165 -1.9504349 -0.55774868
2.9603324 -2.0630655 -0.5592072
3.11747 -2.1725752 -0.55659217
3.3185966 -2.312741 -0.5582028
3.5205681 -2.4534955 -0.55587274
3.7665505 -2.6249218 -0.55595618
4.0390725 -2.8148429 -0.55470544
4.3720589 -3.0469024 -0.55562478
4.7432842 -3.3056107 -0.55427015
5.1855955 -3.6138587 -0.55298275
5.7259059 -3.9904027 -0.55219287
6.3919554 -4.4545751 -0.55130917
7.2286491 -5.0376697 -0.54992139
8.3084927 -5.7902164 -0.54761785
9.7613287 -6.8027024 -0.54424381
11.826775 -8.2421179 -0.53938717
15.037173 -10.479456 -0.53330541
20.591671 -14.350405 -0.52157092
32.719803 -22.802538 -0.49721435
1.7305001 -1.1746461 -0.56041819
1.7903436 -1.2152674 -0.56056577
1.8456485 -1.2528077 -0.55814046
1.9251264 -1.3067566 -0.56166905
1.9833323 -1.3462662 -0.55760938
2.0663536 -1.4026202 -0.55911285
2.1490321 -1.4587415 -0.55885679
2.2430882 -1.5225859 -0.55978292
2.349489 -1.5948097 -0.56177115
2.4336207 -1.6519173 -0.55652618
2.552819 -1.732828 -0.55726498
2.6796355 -1.8189099 -0.55719453
2.8250422 -1.9176105 -0.55825371
2.9701536 -2.0161107 -0.55633736
3.1536448 -2.1406624 -0.55830902
3.3396842 -2.2669442 -0.55701894
3.5537224 -2.4122312 -0.55638212
3.7997808 -2.5792532 -0.55613774
4.0885377 -2.7752583 -0.55676997
4.4046488 -2.9898314 -0.55505228
4.7840147 -3.2473412 -0.55432165
5.2259221 -3.5473037 -0.55258983
5.7830272 -3.9254611 -0.55300474
6.4348254 -4.3678951 -0.55033261
7.2718525 -4.9360609 -0.54854918
8.3696547 -5.6812377 -0.54700321
9.8357773 -6.6764274 -0.54377627
11.92401 -8.0938997 -0.53924197
15.152795 -10.285566 -0.53288019
20.770384 -14.098729 -0.52166688
32.953133 -22.368256 -0.49654281
1.7358896 -1.1473823 -0.55755234
1.8145572 -1.1993797 -0.56348681
1.8577667 -1.2279403 -0.5571968
1.9364462 -1.2799455 -0.56033736
1.9968022 -1.3198395 -0.55679154
2.0832996 -1.3770121 -0.55907428
2.1725638 -1.4360136 -0.56034189
2.2571151 -1.4919002 -0.55866301
2.3605564 -1.5602725 -0.55978769
2.4772675 -1.6374156 -0.56186056
2.5774624 -1.7036421 -0.55802929
2.7011395 -1.7853898 -0.55705881
2.8482895 -1.8826525 -0.5582307
3.004652 -1.9860045 -0.55818278
3.1810167 -2.1025774 -0.55853546
3.3571782 -2.2190161 -0.55534375
3.5787117 -2.3654444 -0.55569863
3.8395958 -2.5378828 -0.55735546
4.1116514 -2.717705 -0.55532473
4.4474239 -2.9396429 -0.5558455
4.8248606 -3.1891196 -0.55446869
5.268497 -3.482353 -0.55252206
5.8064928 -3.8379557 -0.55069417
6.4871092 -4.287827 -0.55025327
7.3425384 -4.8532457 -0.54933804
8.4339542 -5.574646 -0.54668421
9.9234257 -6.5591516 -0.5441218
12.024646 -7.9480085 -0.53933245
15.272101 -10.094501 -0.53267038
20.933701 -13.836685 -0.52145606
33.197681 -21.942888 -0.49612451
1.7532175 -1.1281083 -0.55862015
1.8180742 -1.1698405 -0.56006962
1.8834965 -1.2119365 -0.56040186
1.9558493 -1.2584919 -0.56143159
2.0234063 -1.3019614 -0.55970341
2.1001492 -1.3513416 -0.55909449
2.1959147 -1.412962 -0.56184083
2.2833622 -1.4692301 -0.56064546
2.3693299 -1.5245461 -0.5573805
2.4802694 -1.5959301 -0.55804831
2.5986145 -1.6720793 -0.55811512
2.7188852 -1.7494675 -0.55623996
2.8690979 -1.846122 -0.55781764
3.0200987 -1.9432834 -0.55657113
3.2015851 -2.060061 -0.55765694
3.3834448 -2.1770785 -0.55521846
3.6150377 -2.326097 -0.5568558
3.851104 -2.4779942 -0.55456096
4.1423054 -2.6653678 -0.55499637
4.4771624 -2.8808315 -0.55509293
4.8610649 -3.1278536 -0.55416745
5.3072157 -3.4149296 -0.55213708
5.8583522 -3.7695584 -0.55117476
6.5448947 -4.2113147 -0.55072069
7.3851433 -4.7519727 -0.54811245
8.4997025 -5.4691367 -0.54654551
9.9883537 -6.4270096 -0.54330754
12.106005 -7.7896128 -0.53864473
15.382965 -9.8981733 -0.53225172
21.090065 -13.570409 -0.521155
33.434479 -21.513428 -0.49567249
1.7674907 -1.1068014 -0.55878937
1.8393823 -1.1518198 -0.56222808
1.8970239 -1.187915 -0.56003821
1.95478 -1.2240818 -0.55676186
2.025094 -1.2681124 -0.55581492
2.1129987 -1.3231583 -0.55814171
2.2065213 -1.381722 -0.56016523
2.2826464 -1.4293915 -0.55611205
2.3935065 -1.498812 -0.55869013
2.5145254 -1.5745939 -0.56135702
2.6338069 -1.6492878 -0.56127542
2.7452278 -1.7190596 -0.55726254
2.8975136 -1.8144208 -0.55896229
3.0472314 -1.908174 -0.55720514
3.2152483 -2.0133862 -0.55568254
3.4171164 -2.1397958 -0.55638409
3.6383233 -2.2783153 -0.55608517
3.8817809 -2.4307683 -0.55463231
4.1754789 -2.614682 -0.55509138
4.4919438 -2.8128519 -0.5525955
4.8975945 -3.06687 -0.55399078
5.3699007 -3.3626277 -0.55431491
5.908813 -3.7000942 -0.55159998
6.5849233 -4.1234741 -0.54978079
7.4453921 -4.6622992 -0.54828763
8.5575123 -5.3587074 -0.54598445
10.070422 -6.3060908 -0.54351264
12.206285 -7.6435671 -0.53888392
15.511925 -9.7135553 -0.5325408
21.2321 -13.295526 -0.52058554
33.670166 -21.084232 -0.49528551
1.7882165 -1.0894026 -0.56106424
1.85729 -1.1314831 -0.56340647
1.9055467 -1.1608815 -0.55829787
1.9774654 -1.2046953 -0.55896169
2.065212 -1.2581515 -0.56253707
2.1265271 -1.2955055 -0.55746514
2.2211673 -1.3531615 -0.55961692
2.3060529 -1.4048747 -0.55756372
2.4141736 -1.4707432 -0.55925059
2.5353749 -1.5445803 -0.56172901
2.6427712 -1.6100074 -0.55892456
2.7711768 -1.6882337 -0.55827385
2.9265056 -1.7828618 -0.56028366
3.0773454 -1.8747551 -0.5584541
3.2576983 -1.9846283 -0.55875915
3.4444733 -2.0984137 -0.55659497
3.6683748 -2.2348173 -0.55643612
3.9173994 -2.3865261 -0.55548662
4.203495 -2.5608189 -0.55458778
4.5478621 -2.7706113 -0.55524135
4.9352741 -3.0066273 -0.55402911
5.3856525 -3.2810032 -0.55173457
5.9598608 -3.6308177 -0.55215585
6.6415596 -4.0461168 -0.55031389
7.5165262 -4.5791564 -0.54933792
8.6383333 -5.2625751 -0.54697096
10.141654 -6.1784153 -0.54321569
12.299555 -7.4930344 -0.5388931
15.599134 -9.5031767 -0.53148282
21.387537 -13.02954 -0.52042896
33.895077 -20.649282 -0.49482152
1.7951039 -1.0635579 -0.55907971
1.8493466 -1.0956954 -0.55686766
1.9275036 -1.1420016 -0.56057435
1.9845682 -1.1758111 -0.55684048
2.0685151 -1.2255477 -0.55928969
2.1482408 -1.2727834 -0.55901229
2.2455413 -1.3304316 -0.56159365
2.3379679 -1.3851922 -0.56111944
2.4210911 -1.4344407 -0.55672491
2.5272286 -1.4973248 -0.55580282
2.6667993 -1.5800172 -0.55985498
2.7904041 -1.6532502 -0.55800962
2.9334085 -1.7379771 -0.55747157
3.0916283 -1.8317187 -0.55691648
3.270021 -1.9374124 -0.55674446
3.4671972 -2.0542347 -0.55614322
3.6935377 -2.1883361 -0.55612928
3.9566989 -2.3442531 -0.55692965
4.2335711 -2.5082936 -0.55444461
4.5687265 -2.7068655 -0.55368316
4.9813166 -2.9513154 -0.55508184
5.4351277 -3.2201881 -0.55270481
6.0106688 -3.561183 -0.55276424
6.6840582 -3.960151 -0.54975885
7.5514522 -4.4740615 -0.54782832
8.6922913 -5.1499829 -0.54633641
10.205796 -6.0467 -0.54262775
12.386194 -7.3385353 -0.53869474
15.734939 -9.3225889 -0.53216386
21.538424 -12.761021 -0.52024293
34.102695 -20.205063 -0.49418804
1.8106166 -1.0428867 -0.55987483
1.8834065 -1.0848125 -0.56306434
1.9512297 -1.1238776 -0.56341279
2.0038145 -1.1541657 -0.55821639
2.0770972 -1.1963754 -0.55759037
2.1581566 -1.2430643 -0.55757284
2.2474792 -1.2945126 -0.55805516
2.3519285 -1.3546739 -0.56042981
2.4496658 -1.4109689 -0.55926371
2.5578375 -1.4732741 -0.5585081
2.6791837 -1.5431678 -0.55842912
2.8046687 -1.6154451 -0.55684775
2.9429581 -1.6950977 -0.55528319
3.1212564 -1.7977946 -0.55822921
3.2884707 -1.8941075 -0.55587822
3.4974713 -2.0144885 -0.55698377
3.7235596 -2.1447117 -0.55663663
3.9888728 -2.297528 -0.55743957
4.2536144 -2.4500151 -0.55308223
4.6028957 -2.6511958 -0.55383146
5.0038686 -2.8821497 -0.55360383
5.4777479 -3.1550968 -0.55305183
6.0370383 -3.4772391 -0.55121547
6.7358937 -3.8797688 -0.55005676
7.6066694 -4.3813219 -0.54788429
8.7531929 -5.0417018 -0.54622644
10.28148 -5.9219708 -0.54273897
12.470955 -7.183074 -0.53849894
15.814492 -9.1088991 -0.53102612
21.66679 -12.47973 -0.51959759
34.326866 -19.771736 -0.49387607
1.8292469 -1.0238725 -0.56170011
1.8887188 -1.0571604 -0.56072384
1.9533259 -1.0933224 -0.56009376
2.0186024 -1.1298592 -0.55842334
2.0908287 -1.1702861 -0.55737132
2.1774364 -1.2187623 -0.55863982
2.2675939 -1.2692256 -0.55913216
2.3674719 -1.3251297 -0.5602085
2.472163 -1.3837278 -0.56047302
2.5818284 -1.44511 -0.55982417
2.6930122 -1.5073423 -0.55740601
2.8357816 -1.5872537 -0.55910766
2.9796224 -1.6677647 -0.55828947
3.1422904 -1.7588137 -0.55808091
3.3077712 -1.8514373 -0.55525041
3.5220942 -1.9713991 -0.55700248
3.7478294 -2.0977483 -0.55636662
4.0005789 -2.239218 -0.55518562
4.2952423 -2.4041481 -0.55460912
4.6458817 -2.6004093 -0.55511421
5.0421519 -2.822211 -0.553958
5.5146022 -3.0866525 -0.55289888
6.0860114 -3.4064839 -0.55182064
6.7808914 -3.7954245 -0.5498786
7.6670713 -4.29144 -0.54839259
8.8037338 -4.9276567 -0.54555786
10.361542 -5.7995987 -0.54315966
12.547027 -7.0228662 -0.53801417
15.938427 -8.921113 -0.53146398
21.812468 -12.208951 -0.51945162
34.536182 -19.330713 -0.49343038
1.8501699 -1.0059098 -0.56428403
1.9065827 -1.0365806 -0.56220067
1.9686294 -1.0703144 -0.56066573
2.0276041 -1.1023781 -0.55712152
2.118098 -1.1515782 -0.5608235
2.2003615 -1.1963037 -0.56070501
2.2768049 -1.2378649 -0.55760795
2.365083 -1.2858603 -0.55585974
2.4876258 -1.3524851 -0.56016588
2.5982397 -1.4126241 -0.55957395
2.7219322 -1.479874 -0.55958313
2.84835 -1.5486054 -0.55778909
2.9917612 -1.6265759 -0.55677426
3.1501045 -1.7126647 -0.55568647
3.346267 -1.8193154 -0.55791497
3.5471568 -1.9285362 -0.55717355
3.7654297 -2.0472081 -0.5552004
4.0257258 -2.1887271 -0.5548985
4.3296714 -2.3539777 -0.5552752
4.6696916 -2.5388415 -0.55418706
5.0652795 -2.7539167 -0.5527367
5.5387983 -3.0113618 -0.55157053
6.0983467 -3.3155801 -0.54920095
6.8169155 -3.7062552 -0.54906267
7.7164016 -4.1952925 -0.5481897
8.8744888 -4.8249269 -0.54622459
10.417642 -5.6639161 -0.54240853
12.622462 -6.8626442 -0.53758973
16.035107 -8.718049 -0.53107303
21.943443 -11.930323 -0.51903796
34.748272 -18.892117 -0.49310428
1.84231 -0.97248107 -0.55819756
1.9111146 -1.0088003 -0.55983686
1.9724857 -1.0411956 -0.55807549
2.0541565 -1.0843064 -0.56071138
2.125284 -1.1218517 -0.55903137
2.2079175 -1.1654705 -0.55893624
2.3040562 -1.2162184 -0.56057703
2.3892202 -1.261173 -0.55784571
2.5052717 -1.3224318 -0.5604353
2.6221464 -1.3841252 -0.56101471
2.7490058 -1.4510893 -0.56143826
2.8613605 -1.5103967 -0.55665779
3.0164597 -1.5922674 -0.55768478
3.1700311 -1.6733315 -0.55552989
3.3600857 -1.7736536 -0.55654055
3.5598128 -1.8790815 -0.55549014
3.8000281 -2.0058815 -0.55662292
4.0524111 -2.1391044 -0.55490917
4.3588986 -2.3008866 -0.55535305
4.7037082 -2.4828978 -0.55455881
5.099885 -2.6920235 -0.55285895
5.5924096 -2.9520075 -0.5532527
6.1672258 -3.2554297 -0.55175734
6.8641634 -3.6233149 -0.54923815
7.7613049 -4.09688 -0.54775941
8.9299812 -4.7137766 -0.5460313
10.49329 -5.5389843 -0.54276001
12.716767 -6.7126684 -0.53805006
16.129276 -8.5139942 -0.53068435
22.092747 -11.661869 -0.51913834
34.940693 -18.443783 -0.49257928
1.8634732 -0.9545424 -0.56101096
1.9288577 -0.98803484 -0.56143302
1.9849906 -1.0167882 -0.55803388
2.0804782 -1.0657007 -0.56427658
2.1349018 -1.0935786 -0.55798191
2.2148876 -1.1345503 -0.55712694
2.3087065 -1.182608 -0.55812824
2.4085715 -1.2337626 -0.55877948
2.511867 -1.2866746 -0.55832911
2.6383491 -1.3514636 -0.56088346
2.7395198 -1.4032872 -0.55593473
2.8817472 -1.4761415 -0.55705053
3.0436137 -1.5590556 -0.55911839
3.1969464 -1.6375985 -0.55667573
3.3850863 -1.733971 -0.55710781
3.5801268 -1.8338782 -0.55509919
3.8214056 -1.9574705 -0.5561865
4.0734682 -2.0865865 -0.55423731
4.3764024 -2.241761 -0.55402923
4.7317176 -2.4237673 -0.55430537
5.1510057 -2.6385427 -0.55484164
5.6081824 -2.872726 -0.5512768
6.1981497 -3.1749299 -0.55098951
6.9215188 -3.5454671 -0.55029744
7.8107572 -4.0009694 -0.54773599
8.9826059 -4.6012354 -0.54574829
10.552184 -5.4052334 -0.5423274
12.787681 -6.5503402 -0.53760183
16.231113 -8.3141985 -0.53063118
22.207422 -11.375493 -0.51850694
35.1446 -18.002411 -0.49229592
1.8532736 -0.9207297 -0.55448997
1.9308255 -0.95925838 -0.55853027
2.0171828 -1.0021617 -0.563577
2.0777512 -1.0322529 -0.56005198
2.1532083 -1.0697409 -0.5592863
2.2387543 -1.1122413 -0.5596478
2.3269951 -1.1560805 -0.55907059
2.4192057 -1.2018918 -0.55777574
2.5292501 -1.2565632 -0.5587163
2.6457169 -1.3144255 -0.55897146
2.768518 -1.3754345 -0.55834496
2.9041338 -1.4428102 -0.55790627
3.0424626 -1.5115337 -0.55545062
3.2279994 -1.6037107 -0.55860686
3.4159064 -1.6970652 -0.55870342
3.6107316 -1.793857 -0.5563823
3.836561 -1.9060518 -0.55493909
4.1030469 -2.0384452 -0.55480939
4.4049735 -2.1884463 -0.55419755
4.7519927 -2.3608499 -0.55323792
5.1564155 -2.5617721 -0.55198944
5.6483784 -2.8061852 -0.55179435
6.2312598 -3.0957685 -0.55050725
6.959837 -3.4577346 -0.54992199
7.8606534 -3.9052715 -0.54782605
9.0336981 -4.4880548 -0.5454582
10.615127 -5.2737284 -0.54218847
12.869525 -6.3937421 -0.53769672
16.327127 -8.1115217 -0.53046912
22.334005 -11.095816 -0.51823759
35.340027 -17.557369 -0.49197203
1.8822279 -0.90643233 -0.55977583
1.9390287 -0.93378609 -0.55753958
2.0229938 -0.97422153 -0.56181115
2.0900331 -1.0065058 -0.55998409
2.1736836 -1.0467899 -0.56121886
2.2628694 -1.0897393 -0.56228387
2.334301 -1.1241391 -0.55746269
2.4462109 -1.1780319 -0.56061983
2.5348485 -1.2207174 -0.55659503
2.6565316 -1.279317 -0.55789059
2.7757909 -1.3367492 -0.55645466
2.9130025 -1.4028267 -0.55625415
3.0632958 -1.4752041 -0.55590028
3.2346752 -1.5577359 -0.55640537
3.4250219 -1.649402 -0.556835
3.6374533 -1.7517035 -0.55713868
3.867558 -1.8625159 -0.55606788
4.1424813 -1.9949119 -0.5567826
4.4387317 -2.1375785 -0.55509591
4.7833939 -2.3035588 -0.55355412
5.2182841 -2.5129907 -0.55526257
5.6843262 -2.7374246 -0.55197608
6.2734561 -3.0211344 -0.55091149
6.9925022 -3.3674083 -0.54918975
7.9042435 -3.8064792 -0.54756051
9.0768661 -4.3711839 -0.54477805
10.678927 -5.1426954 -0.54217625
12.94776 -6.2353063 -0.53772134
16.416412 -7.9057198 -0.53017151
22.452892 -10.812733 -0.51787192
35.518944 -17.105005 -0.49149755
1.9026481 -0.88761413 -0.56256026
1.9552408 -0.91214943 -0.55893379
2.0260198 -0.94516885 -0.55938154
2.1003144 -0.97982848 -0.55946839
2.180223 -1.017107 -0.55963582
2.2631159 -1.0557778 -0.55907702
2.3699532 -1.105619 -0.56268758
2.4517608 -1.1437836 -0.55862629
2.5616641 -1.1950551 -0.55921417
2.6732032 -1.2470897 -0.55812913
2.7960894 -1.3044181 -0.55726629
2.9406655 -1.3718649 -0.55827308
3.084419 -1.4389282 -0.55648059
3.2565751 -1.5192416 -0.55691689
3.4629152 -1.6155024 -0.55972368
3.6387691 -1.6975409 -0.55410117
3.8814039 -1.8107337 -0.55481541
4.1700883 -1.9454092 -0.55723578
4.4726548 -2.0865612 -0.55608755
4.8199368 -2.2485735 -0.55454141
5.2224855 -2.4363685 -0.55248004
5.7218838 -2.6693454 -0.55239403
6.308794 -2.9431479 -0.55079496
7.0406175 -3.2845547 -0.54975504
7.9597917 -3.7133634 -0.548204
9.1355705 -4.2618818 -0.54511487
10.737741 -5.0093184 -0.54199398
13.009273 -6.0690227 -0.53713608
16.505722 -7.7001691 -0.52995783
22.578968 -10.53343 -0.51775324
35.692398 -16.651045 -0.49102741
1.902557 -0.85924786 -0.55936706
1.9748572 -0.89190066 -0.56136388
2.0327265 -0.91803604 -0.55807436
2.1067607 -0.95147192 -0.55802679
2.183542 -0.98614848 -0.55733299
2.2763491 -1.0280627 -0.55918086
2.3554659 -1.0637941 -0.55610019
2.4500034 -1.1064899 -0.55508381
2.566848 -1.1592602 -0.55719191
2.6827426 -1.2116014 -0.55696815
2.819629 -1.2734231 -0.55879474
2.9642041 -1.3387173 -0.55957437
3.1005473 -1.4002937 -0.55624181
3.2823825 -1.4824156 -0.5581708
3.4627504 -1.5638747 -0.55654675
3.6688035 -1.656934 -0.55553013
3.9324307 -1.7759955 -0.55894536
4.1779108 -1.8868611 -0.55513877
4.4879608 -2.0268884 -0.55484986
4.8533502 -2.1919084 -0.55524272
5.2580018 -2.3746605 -0.55310643
5.755311 -2.5992591 -0.55249375
6.347867 -2.8668737 -0.55108684
7.0668993 -3.1916089 -0.54870129
8.0044823 -3.6150475 -0.54817891
9.1967945 -4.1535292 -0.54567927
10.778862 -4.8680348 -0.54100728
13.069263 -5.9024439 -0.53657573
16.602049 -7.4979482 -0.53005034
22.70768 -10.255422 -0.51777387
35.888275 -16.208147 -0.49094316
1.9209527 -0.83927405 -0.56169891
1.9827842 -0.86628854 -0.56054682
2.0470452 -0.89436454 -0.55894387
2.1341147 -0.93240565 -0.5621928
2.2139986 -0.96730733 -0.56202835
2.2991567 -1.0045133 -0.56170684
2.3840957 -1.0416236 -0.55979317
2.4786367 -1.082929 -0.55851191
2.5881252 -1.1307652 -0.55875009
2.6917002 -1.1760176 -0.55578357
2.8282163 -1.2356621 -0.5574432
2.9672196 -1.2963934 -0.55709219
3.1295128 -1.3673002 -0.55837977
3.3027723 -1.4429982 -0.55857855
3.4803579 -1.5205861 -0.55632943
3.6771023 -1.6065449 -0.55375361
3.9404621 -1.721608 -0.5570358
4.2003307 -1.8351458 -0.55507743
4.517961 -1.9739203 -0.555516
4.8592267 -2.1230209 -0.55288661
5.2826972 -2.3080373 -0.55267692
5.7794118 -2.5250545 -0.55178499
6.3724918 -2.7841742 -0.55021089
7.1139731 -3.1081312 -0.54934728
8.0374537 -3.5116045 -0.54743838
9.2393141 -4.0367036 -0.54521579
10.842893 -4.7373152 -0.54125637
13.150599 -5.745564 -0.53697389
16.693964 -7.2936788 -0.53008145
22.805288 -9.963747 -0.51716673
36.033154 -15.743069 -0.4902398
1.9258367 -0.81335723 -0.56016016
1.9812971 -0.83678037 -0.5571754
2.0579584 -0.86915749 -0.55896324
2.1261857 -0.89797258 -0.55715317
2.2209547 -0.93799728 -0.56082386
2.319983 -0.97982091 -0.5638088
2.3912208 -1.0099074 -0.5585081
2.4967773 -1.0544882 -0.55963552
2.5994999 -1.0978719 -0.558249
2.7047646 -1.1423293 -0.55553877
2.8382206 -1.1986932 -0.55646777
2.9888992 -1.2623308 -0.55820608
3.1384802 -1.3255047 -0.55702955
3.3145716 -1.399875 -0.5576207
3.4952197 -1.4761699 -0.55576158
3.7065325 -1.5654157 -0.55524486
3.9637949 -1.6740679 -0.55738211
4.2184854 -1.7816336 -0.5545395
4.531621 -1.9138832 -0.55426002
4.8975244 -2.0684187 -0.55430835
5.3106365 -2.2428925 -0.5526728
5.8049269 -2.4516509 -0.55130112
6.4055786 -2.7053301 -0.55015385
7.1552639 -3.0219517 -0.54962474
8.0786304 -3.411926 -0.54734403
9.2773924 -3.9182107 -0.54457843
10.90189 -4.6043005 -0.54133427
13.213284 -5.5804939 -0.53669095
16.762964 -7.0796652 -0.52946812
22.919189 -9.6796827 -0.51701146
36.20689 -15.291607 -0.49000826
1.9435116 -0.79280645 -0.56242311
2.0074184 -0.81887561 -0.56164706
2.0633152 -0.84167725 -0.55756491
2.1527822 -0.87817305 -0.56125045
2.2299182 -0.90963882 -0.56022048
2.3095243 -0.94211209 -0.55840951
2.4076216 -0.98212844 -0.55947578
2.5009782 -1.0202109 -0.55772305
2.6161587 -1.0671958 -0.55896616
2.7397316 -1.1176043 -0.55985576
2.8553386 -1.1647632 -0.55697376
3.0102081 -1.2279384 -0.55932349
3.1569664 -1.2878046 -0.5574578
3.3347754 -1.3603374 -0.55816334
3.5126135 -1.4328818 -0.55568367
3.7318065 -1.5222962 -0.55618477
3.9771538 -1.6223794 -0.55641323
4.2473521 -1.7326 -0.55549157
4.5621848 -1.861028 -0.5551573
4.9292526 -2.0107639 -0.55505896
5.3411937 -2.1788049 -0.55302286
5.8454232 -2.3844926 -0.55232072
6.4543204 -2.6328769 -0.55151784
7.1851115 -2.9309845 -0.54910755
8.1323681 -3.317394 -0.54817969
9.3271542 -3.8047767 -0.54471201
10.964483 -4.4726834 -0.54167044
13.277836 -5.4163575 -0.53656709
16.843601 -6.8709216 -0.52930641
23.037006 -9.3973646 -0.51702344
36.370705 -14.836511 -0.48971924
1.9410586 -0.76410484 -0.55895197
2.0087426 -0.79074895 -0.55925477
2.0773282 -0.81774789 -0.5585922
2.1605926 -0.8505252 -0.56051773
2.2401898 -0.88185889 -0.56003433
2.337975 -0.92035246 -0.56250966
2.4140005 -0.95028025 -0.55820054
2.5163333 -0.99056387 -0.55838883
2.6354673 -1.0374614 -0.56032354
2.7551758 -1.0845851 -0.56024408
2.8721187 -1.1306201 -0.55749291
3.0042102 -1.1826184 -0.55546492
3.1536393 -1.2414417 -0.55413288
3.3426409 -1.3158429 -0.55672956
3.5377166 -1.3926352 -0.55690378
3.7376659 -1.4713459 -0.55431968
4.0014782 -1.5751966 -0.55706435
4.2743373 -1.6826086 -0.5562728
4.5868187 -1.805618 -0.55541122
4.9372902 -1.9435824 -0.55323106
5.365799 -2.1122663 -0.5528394
5.8722653 -2.3116388 -0.55212945
6.4734583 -2.5483007 -0.55043399
7.2318912 -2.8468606 -0.54996574
8.1528921 -3.2094159 -0.54686159
9.3710518 -3.6889489 -0.54458535
11.025179 -4.3401022 -0.54199147
13.344832 -5.2532425 -0.53662354
16.927649 -6.663631 -0.52933264
23.134241 -9.1068792 -0.51665342
36.51944 -14.376012 -0.48930469
1.9497877 -0.73998368 -0.55880314
2.0236106 -0.7680009 -0.56072253
2.0988951 -0.79657286 -0.56171513
2.1586432 -0.8192485 -0.55735642
2.2498026 -0.85384536 -0.55977046
2.3310378 -0.88467574 -0.55818105
2.412895 -0.91574216 -0.5552991
2.5301464 -0.96024144 -0.55879158
2.6471074 -1.0046304 -0.56012958
2.753654 -1.0450671 -0.55727947
2.8943291 -1.0984561 -0.55914003
3.0397213 -1.1536354 -0.55936563
3.1989226 -1.2140555 -0.55942428
3.3642735 -1.2768095 -0.55767548
3.5540507 -1.3488337 -0.556822
3.7753451 -1.4328195 -0.55725271
4.0128913 -1.5229731 -0.55600411
4.292232 -1.6289884 -0.55595279
4.587038 -1.7408732 -0.55280387
4.9691153 -1.8858793 -0.55415678
5.3880577 -2.0448763 -0.55250031
5.8928752 -2.2364647 -0.55143982
6.4939828 -2.4645972 -0.54956073
7.2546339 -2.7532797 -0.54907912
8.1934137 -3.1095655 -0.54697353
9.4185705 -3.574537 -0.54475135
11.058149 -4.1967902 -0.54103452
13.417336 -5.0921493 -0.53698057
16.996965 -6.4506903 -0.52897984
23.237463 -8.8190851 -0.51649773
36.677315 -13.919779 -0.48908967
1.9623867 -0.71728742 -0.5598439
2.0368514 -0.74450558 -0.56181228
2.0931206 -0.765073 -0.55760992
2.1789496 -0.79644495 -0.56002849
2.2581816 -0.82540572 -0.55928761
2.3486083 -0.85845822 -0.55981839
2.4406643 -0.89210641 -0.5591231
2.5471029 -0.93101162 -0.55996579
2.6524081 -0.96950257 -0.55868638
2.7726207 -1.0134424 -0.55855364
2.8968837 -1.0588628 -0.5570761
3.0400205 -1.1111817 -0.55686426
3.1897731 -1.1659191 -0.55527508
3.3800521 -1.2354693 -0.55773056
3.5587237 -1.3007771 -0.55500621
3.7943239 -1.3868932 -0.55749464
4.023665 -1.4707215 -0.55494916
4.3176289 -1.5781704 -0.5566867
4.6235299 -1.6899828 -0.55465531
4.9925156 -1.8248537 -0.55422205
5.432466 -1.9856634 -0.55450839
5.9282136 -2.166868 -0.55221164
6.5356159 -2.3888843 -0.55055648
7.2865691 -2.6633713 -0.54897594
8.2203293 -3.0046773 -0.54626256
9.4478388 -3.4533536 -0.54394698
11.110396 -4.0610485 -0.54110664
13.466316 -4.9221792 -0.53647792
17.073465 -6.2406564 -0.52893245
23.335335 -8.5294819 -0.51630282
36.830833 -13.462328 -0.48889241
1.966235 -0.69140869 -0.55847406
2.0377314 -0.71654975 -0.55958241
2.1143568 -0.74349439 -0.56078935
2.2035713 -0.77486587 -0.56386524
2.270653 -0.79845446 -0.55990243
2.3450153 -0.82460332 -0.556503
2.4454114 -0.85990667 -0.55774605
2.5541294 -0.89813638 -0.55904031
2.6675301 -0.93801272 -0.55939984
2.7936568 -0.982364 -0.56031561
2.9205678 -1.0269911 -0.55915982
3.0448108 -1.07068 -0.55528814
3.2161789 -1.1309401 -0.55740875
3.4010339 -1.1959426 -0.55872387
3.5815711 -1.259427 -0.55611217
3.813154 -1.340861 -0.5577966
4.0619349 -1.4283426 -0.55776286
4.3259912 -1.5211954 -0.55531114
4.6513028 -1.6355883 -0.5555324
5.0137033 -1.7630233 -0.55412561
5.4395909 -1.9127828 -0.55279303
5.9478092 -2.0914931 -0.55159962
6.5446553 -2.3013685 -0.54889256
7.3027978 -2.5679626 -0.54777819
8.2606936 -2.904798 -0.54653001
9.4976759 -3.3397715 -0.54441077
11.156206 -3.9229784 -0.54094744
13.515729 -4.7526832 -0.53607774
17.153034 -6.0317087 -0.52905977
23.41654 -8.2342129 -0.51582032
36.954399 -12.994679 -0.48837468
1.9691749 -0.66535157 -0.55694312
2.0359747 -0.68792218 -0.55673498
2.1096919 -0.71283001 -0.55718511
2.2011507 -0.74373239 -0.56086326
2.287534 -0.77291983 -0.56167895
2.3687747 -0.8003698 -0.55976349
2.4612896 -0.83162904 -0.55899292
2.5592496 -0.86472809 -0.55779153
2.6834173 -0.90668237 -0.56035107
2.7972808 -0.94515491 -0.55866927
2.9363728 -0.9921518 -0.55980772
3.0781426 -1.0400535 -0.55899227
3.2325027 -1.0922092 -0.55786812
3.4149323 -1.1538491 -0.55863398
3.5923581 -1.2137984 -0.55542761
3.8287864 -1.2936836 -0.55771416
4.0604019 -1.3719426 -0.5551939
4.3481197 -1.4691577 -0.55579066
4.6687145 -1.5774814 -0.55525321
5.0243554 -1.6976466 -0.55295396
5.4637432 -1.8461086 -0.55289876
5.9693375 -2.0169404 -0.55125439
6.5818391 -2.2238944 -0.54967612
7.35252 -2.4842949 -0.5491749
8.2982216 -2.8038318 -0.54669046
9.5305624 -3.2202191 -0.54398495
11.20458 -3.7858424 -0.54099488
13.581861 -4.5890861 -0.53642201
17.205276 -5.8133783 -0.52842635
23.523769 -7.9482923 -0.51599044
37.124226 -12.543661 -0.48854366
2.0003326 -0.64858752 -0.56345725
2.0491035 -0.66440099 -0.55804884
2.12676 -0.68958032 -0.55941117
2.2090843 -0.71627313 -0.56059819
2.2993917 -0.74555439 -0.56229693
2.377147 -0.77076572 -0.55945998
2.4601886 -0.79769117 -0.55647314
2.572629 -0.83414882 -0.55842984
2.6971915 -0.87453693 -0.56093937
2.8230393 -0.91534179 -0.56152332
2.9299226 -0.94999766 -0.55630893
3.0961387 -1.0038916 -0.55997634
3.2317073 -1.0478482 -0.55546516
3.423064 -1.1098937 -0.55768949
3.6078665 -1.1698141 -0.55555934
3.8265979 -1.2407355 -0.55513108
4.0855069 -1.324684 -0.55635726
4.3461637 -1.4091995 -0.55328393
4.6866922 -1.5196124 -0.55512708
5.0441499 -1.6355143 -0.55287731
5.4798341 -1.7767806 -0.55227441
6.0020103 -1.9460908 -0.55202001
6.6113052 -2.1436486 -0.54989403
7.382431 -2.3936782 -0.549169
8.3357401 -2.7027791 -0.54693133
9.57726 -3.1053293 -0.54442972
11.259418 -3.6507521 -0.54143417
13.625396 -4.4178963 -0.53595537
17.274292 -5.6010141 -0.52839077
23.605722 -7.6539159 -0.51568466
37.239944 -12.074675 -0.48807573
1.9940774 -0.619569 -0.55950701
2.0645318 -0.64145952 -0.56006008
2.1267428 -0.66078877 -0.55722725
2.2133629 -0.68770206 -0.55949575
2.2961564 -0.71342629 -0.55931818
2.3875818 -0.74183261 -0.55972666
2.494602 -0.77508426 -0.56205881
2.5890265 -0.80442238 -0.55979967
2.6923089 -0.83651274 -0.5577426
2.8199947 -0.8761853 -0.55873251
2.9527783 -0.91744173 -0.55846435
3.0908861 -0.96035248 -0.55684841
3.2441759 -1.0079803 -0.5554359
3.4454238 -1.0705091 -0.55914551
3.6260917 -1.1266433 -0.55619043
3.8472219 -1.1953495 -0.55594867
4.0943155 -1.2721226 -0.55538464
4.3763061 -1.3597383 -0.55495065
4.7076969 -1.462703 -0.55544257
5.0712099 -1.5756482 -0.5536778
5.5143566 -1.7133359 -0.55358851
6.0188985 -1.8700994 -0.55141664
6.6613321 -2.0697064 -0.55189645
7.4196897 -2.3053315 -0.54979032
8.3636675 -2.59863 -0.54662579
9.6133718 -2.9869187 -0.54435349
11.285597 -3.5064867 -0.54057878
13.683788 -4.251616 -0.53615522
17.344456 -5.3890018 -0.52847004
23.714661 -7.3682537 -0.51604617
37.374863 -11.612541 -0.4879356
2.00722 -0.59669107 -0.56109345
2.0697694 -0.61528528 -0.55938619
2.1388931 -0.6358338 -0.55831999
2.2218659 -0.66049939 -0.55954975
2.308387 -0.68621969 -0.56019974
2.3825736 -0.70827329 -0.55646878
2.4838381 -0.73837644 -0.55754578
2.5851145 -0.7684831 -0.55686855
2.7053039 -0.80421209 -0.55834383
2.8398435 -0.84420705 -0.56056607
2.9596696 -0.87982798 -0.55767936
3.1112723 -0.92489529 -0.55843002
3.27209 -0.97270191 -0.55812502
3.4415884 -1.0230891 -0.5564394
3.6426408 -1.0828564 -0.55664438
3.8601937 -1.1475289 -0.55574208
4.1092544 -1.2215677 -0.55533153
4.3965464 -1.3069717 -0.55543733
4.7133722 -1.4011554 -0.55403751
5.0851121 -1.5116633 -0.55312437
5.5193534 -1.6407512 -0.55202299
6.0484104 -1.7980253 -0.55205309
6.6660995 -1.9816471 -0.55023098
7.4305105 -2.2088854 -0.54853803
8.3808756 -2.4914026 -0.54570699
9.6340113 -2.8639252 -0.54348695
11.342319 -3.3717582 -0.54126894
13.733519 -4.0825958 -0.53609627
17.401924 -5.1731114 -0.52824301
23.777163 -7.0682936 -0.51547599
37.47644 -11.14071 -0.48743641
2.0081785 -0.57019812 -0.55935913
2.0851905 -0.5920648 -0.56154394
2.1411109 -0.6079427 -0.55690545
2.2313805 -0.63357365 -0.55994153
2.3208833 -0.65898693 -0.56122339
2.3921278 -0.67921591 -0.55670744
2.4918151 -0.70752096 -0.55734134
2.6115086 -0.74150652 -0.56054771
2.7086103 -0.76907736 -0.55703229
2.8445268 -0.80766922 -0.55948776
2.9824193 -0.84682214 -0.55996162
3.1121843 -0.88366735 -0.55660129
3.2822106 -0.93194431 -0.55785447
3.4416175 -0.97720599 -0.55445939
3.6494312 -1.0362122 -0.55569291
3.8692446 -1.0986255 -0.5550583
4.1228342 -1.1706293 -0.55517948
4.4080324 -1.2516079 -0.5549022
4.7357578 -1.3446615 -0.55468333
5.1251216 -1.4552166 -0.55548793
5.5389109 -1.5727073 -0.5520032
6.0550127 -1.7192481 -0.55068451
6.6913204 -1.8999201 -0.5503428
7.4540176 -2.1164787 -0.5483107
8.4289665 -2.3933039 -0.54688078
9.673171 -2.7465806 -0.54374975
11.369267 -3.2281668 -0.54061973
13.782045 -3.9132464 -0.53607166
17.457033 -4.9567146 -0.52802569
23.840448 -6.7692089 -0.51500452
37.594486 -10.674502 -0.48722771
2.0205133 -0.54694569 -0.56087917
2.0762358 -0.56202954 -0.55722916
2.1624374 -0.58536404 -0.56053799
2.2439365 -0.60742551 -0.56117564
2.3114662 -0.6257056 -0.55704361
2.412782 -0.65313143 -0.55960286
2.5028594 -0.67751503 -0.55790603
2.6052222 -0.70522428 -0.55729485
2.7212644 -0.73663646 -0.55772966
2.8512943 -0.77183509 -0.55890983
2.9795146 -0.80654383 -0.55751199
3.1310966 -0.84757662 -0.55807757
3.2840428 -0.88897854 -0.55626589
3.4743915 -0.94050527 -0.55783409
3.6641483 -0.99187177 -0.55603468
3.9055612 -1.0572214 -0.55836093
4.1281338 -1.117471 -0.55400085
4.4146013 -1.1950166 -0.55383742
4.7513638 -1.286177 -0.55461687
5.1312613 -1.389014 -0.55426031
5.5709867 -1.5080462 -0.55330998
6.0786452 -1.6454674 -0.55095202
6.7027559 -1.8144119 -0.54940683
7.4813066 -2.0251627 -0.54844481
8.4479799 -2.2868378 -0.54624867
9.7068434 -2.6276073 -0.54378521
11.410542 -3.0887926 -0.54073548
13.820719 -3.7412188 -0.53574604
17.51059 -4.7400537 -0.52784276
23.919304 -6.4748697 -0.51494908
37.717815 -10.210076 -0.48716214
2.013912 -0.51866823 -0.55723411
2.1003859 -0.54093897 -0.56188297
2.1666925 -0.55801576 -0.55981994
2.2306075 -0.5744766 -0.55603355
2.3231764 -0.59831703 -0.55805039
2.4182179 -0.62279427 -0.5590452
2.5293391 -0.65141273 -0.56198055
2.6307163 -0.67752171 -0.56092393
2.7369914 -0.7048921 -0.55913424
2.8527777 -0.734712 -0.55738759
2.9928839 -0.77079535 -0.55819798
3.1309922 -0.80636412 -0.55624962
3.3053703 -0.85127389 -0.55806321
3.4622838 -0.89168578 -0.55408782
3.6800272 -0.94776404 -0.55663371
3.9099538 -1.0069799 -0.55717653
4.1530709 -1.069593 -0.55554038
4.4310832 -1.141193 -0.55410278
4.7592144 -1.2257007 -0.5537321
5.1485882 -1.3259811 -0.55432874
5.5710764 -1.4347899 -0.55152488
6.1042562 -1.5721065 -0.55147946
6.7383847 -1.7354217 -0.55053645
7.4941034 -1.9300514 -0.5476017
8.4863405 -2.1855948 -0.54694992
9.7437019 -2.509419 -0.54408026
11.442133 -2.9468374 -0.54047447
13.854676 -3.5681703 -0.53532106
17.560841 -4.522666 -0.52764124
23.997606 -6.1804075 -0.51495981
37.808815 -9.7373829 -0.48675421
2.025552 -0.49519071 -0.5587278
2.1133282 -0.5166496 -0.56360316
2.1849461 -0.53415811 -0.56279665
2.2450032 -0.5488404 -0.55789763
2.3295276 -0.56950426 -0.55785167
2.4244187 -0.59270251 -0.55875158
2.5200248 -0.61607546 -0.5581857
2.6374056 -0.64477181 -0.56061727
2.7278366 -0.66687959 -0.55554676
2.8682556 -0.70120817 -0.55868483
2.988085 -0.73050308 -0.55558556
3.1403821 -0.76773542 -0.5561986
3.3044536 -0.80784637 -0.55618924
3.4807019 -0.85093409 -0.55531883
3.7011323 -0.90482318 -0.55810094
3.913408 -0.95671862 -0.55595034
4.1732678 -1.0202471 -0.55652183
4.4412599 -1.0857636 -0.55366397
4.7759948 -1.1675969 -0.55397213
5.155201 -1.2603023 -0.55333042
5.6114764 -1.3718488 -0.5538125
6.130753 -1.4987973 -0.55216652
6.747776 -1.6496422 -0.54960483
7.5301962 -1.8409221 -0.54854351
8.4887609 -2.0752645 -0.54542005
9.769515 -2.3883729 -0.54384065
11.481774 -2.806972 -0.5406757
13.90166 -3.3985665 -0.53548121
17.62933 -4.3098769 -0.52806681
24.05274 -5.8802214 -0.51455241
37.901646 -9.2658911 -0.4864457
2.0298839 -0.4698768 -0.55828673
2.1125829 -0.48901996 -0.56175822
2.1679788 -0.50184298 -0.55679458
2.2573171 -0.52252299 -0.55931866
2.3388429 -0.54139453 -0.55844593
2.4190178 -0.55995339 -0.55587792
2.5351295 -0.58683091 -0.55989075
2.6180754 -0.60603118 -0.55488235
2.7540057 -0.63749629 -0.5592376
2.8604808 -0.66214311 -0.55554253
3.0174701 -0.69848299 -0.55941004
3.1506917 -0.72932106 -0.55639416
3.3160412 -0.76759607 -0.55650884
3.4970112 -0.80948699 -0.55629081
3.6969452 -0.85576761 -0.55584079
3.9167666 -0.90665179 -0.5548017
4.1878238 -0.96939605 -0.55683124
4.4527864 -1.0307295 -0.55347908
4.7999926 -1.1111006 -0.55512893
5.1663208 -1.1958982 -0.55290377
5.6188793 -1.3006563 -0.5529229
6.1295462 -1.4188652 -0.55044484
6.7738137 -1.5680001 -0.55011362
7.5451703 -1.7465534 -0.54802841
8.5362673 -1.9759722 -0.54686987
9.7958059 -2.26753 -0.54371095
11.510659 -2.6644833 -0.54045218
13.940428 -3.2269254 -0.53540564
17.662344 -4.0884733 -0.52750999
24.119507 -5.5831752 -0.51447314
38.006069 -8.7976322 -0.4863607
2.0380158 -0.44543096 -0.55897462
2.1076458 -0.46064931 -0.5588969
2.1838186 -0.47729772 -0.55931306
2.2552633 -0.4929128 -0.55726588
2.35057 -0.5137431 -0.55969536
2.4460361 -0.53460824 -0.56053358
2.526381 -0.55216855 -0.55641705
2.6452003 -0.57813781 -0.55908233
2.735122 -0.59779119 -0.55386847
2.8974171 -0.63326263 -0.56116128
3.0314207 -0.66255057 -0.56044352
3.1819632 -0.69545329 -0.56036395
3.3228514 -0.726246 -0.55611104
3.5148048 -0.7681995 -0.55757648
3.7060831 -0.81000549 -0.55567509
3.9306242 -0.85908151 -0.55522633
4.1859293 -0.91488117 -0.55504155
4.475255 -0.97811651 -0.55473495
4.8002253 -1.0491425 -0.55362201
5.1748514 -1.131021 -0.55228651
5.6373844 -1.2321128 -0.55321115
6.1583714 -1.3459803 -0.55150539
6.7925615 -1.4845896 -0.55011207
7.5512938 -1.6504189 -0.54695773
8.5624504 -1.8714184 -0.5470317
9.8159819 -2.1453915 -0.54332548
11.521629 -2.5181797 -0.53947264
13.982709 -3.0560758 -0.53554571
17.738401 -3.876924 -0.52831775
24.190744 -5.2871552 -0.51456702
38.093971 -8.3258591 -0.4861387
2.0408649 -0.41982991 -0.55829793
2.1098177 -0.43401429 -0.55801547
2.181565 -0.44877356 -0.55728042
2.2738607 -0.46775988 -0.56039757
2.3539672 -0.48423871 -0.55904424
2.4290624 -0.49968666 -0.5551939
2.5240862 -0.51923418 -0.55446351
2.6593602 -0.54706162 -0.56061095
2.755182 -0.5667733 -0.55647731
2.8829772 -0.59306228 -0.5569101
3.029747 -0.62325454 -0.55867499
3.1616864 -0.65039605 -0.55534267
3.3367219 -0.68640286 -0.55697769
3.5207815 -0.72426617 -0.55706972
3.7098355 -0.76315677 -0.55478877
3.9308574 -0.80862355 -0.5538128
4.1984315 -0.86366665 -0.55524915
4.4653821 -0.91858155 -0.55206931
4.8207598 -0.99168688 -0.55454201
5.1906276 -1.0677731 -0.55252719
5.6217861 -1.1564674 -0.55024338
6.1736155 -1.2699852 -0.5514304
6.8017139 -1.3991925 -0.54941833
7.5786028 -1.5590076 -0.54750586
8.5744295 -1.7638609 -0.54637009
9.8672705 -2.0298133 -0.54474157
11.565178 -2.3790929 -0.54010111
14.004152 -2.8808188 -0.53496987
17.759239 -3.6532843 -0.52756059
24.235474 -4.9855218 -0.51417559
38.177036 -7.8534646 -0.48592961
2.0394073 -0.39345726 -0.55653358
2.124752 -0.4099226 -0.56058985
2.1945224 -0.42338321 -0.55921823
2.2560134 -0.4352465 -0.55463815
2.3751385 -0.45822898 -0.56269151
2.4645474 -0.47547838 -0.56192565
2.5409391 -0.49021643 -0.55679929
2.6635935 -0.51387978 -0.56012899
2.766428 -0.53371942 -0.55738109
2.8928082 -0.55810153 -0.55744135
3.0245533 -0.5835188 -0.55635214
3.2055445 -0.61843693 -0.56166804
3.3278 -0.64202332 -0.55412871
3.5202341 -0.67914915 -0.55561978
3.740206 -0.72158772 -0.5579614
3.9524508 -0.76253551 -0.55549204
4.2142015 -0.81303436 -0.55597055
4.490067 -0.86625636 -0.55376238
4.8234601 -0.93057698 -0.55349451
5.2227402 -1.007609 -0.55458468
5.6493821 -1.0899198 -0.55159092
6.168735 -1.1901172 -0.54964578
6.8181562 -1.3154082 -0.54939842
7.6028638 -1.4667997 -0.54791415
8.5993214 -1.6590434 -0.54661489
9.8822908 -1.9065634 -0.54423547
11.601022 -2.2381535 -0.5404489
14.036897 -2.7081001 -0.53490818
17.794798 -3.4331017 -0.52732295
24.305395 -4.6891732 -0.51439679
38.266388 -7.3826294 -0.48587468
2.0628984 -0.37174109 -0.56165421
2.1221287 -0.38241461 -0.55861485
2.2025335 -0.39690378 -0.55997366
2.2704382 -0.40914044 -0.55690545
2.3598809 -0.42525834 -0.55779588
2.4667234 -0.44451168 -0.56113309
2.5560894 -0.46061572 -0.5588358
2.6656656 -0.4803617 -0.55928028
2.7912395 -0.50299054 -0.56109148
2.9019258 -0.52293658 -0.55791706
3.0290105 -0.54583764 -0.55589539
3.182236 -0.57344937 -0.55630636
3.3722618 -0.60769266 -0.56024569
3.5398805 -0.63789815 -0.55744046
3.7415624 -0.6742419 -0.55688488
3.9659638 -0.71467972 -0.55611408
4.2172956 -0.75997055 -0.5551039
4.5011077 -0.81111443 -0.55385208
4.8296642 -0.87032139 -0.55293661
5.2125793 -0.93932396 -0.55223751
5.6898828 -1.0253357 -0.55427241
6.2092776 -1.1189322 -0.55199051
6.8350596 -1.2317003 -0.5494985
7.6273642 -1.3744761 -0.54842031
8.6106787 -1.5516726 -0.54608274
9.8858862 -1.7814692 -0.54318595
11.60381 -2.0910447 -0.53934014
14.07548 -2.536448 -0.53514951
17.839272 -3.2146955 -0.52742964
24.343679 -4.3868113 -0.51402658
38.345421 -6.9099712 -0.48576266
2.0572965 -0.34467039 -0.55893284
2.1243405 -0.35590261 -0.55800283
2.2080977 -0.36993495 -0.56018943
2.3005908 -0.38543081 -0.5630964
2.3779356 -0.39838883 -0.56086302
2.4559517 -0.4114593 -0.55748963
2.574199 -0.43126991 -0.56159323
2.6767228 -0.44844633 -0.5604009
2.7810121 -0.46591848 -0.55784178
2.9090402 -0.48736775 -0.55809045
3.056448 -0.5120638 -0.55973291
3.1954522 -0.53535193 -0.55742389
3.3503928 -0.56131005 -0.55542386
3.5425036 -0.59349543 -0.5566622
3.7462058 -0.62762278 -0.55638528
3.9793711 -0.66668624 -0.55680245
4.2326345 -0.70911688 -0.55593318
4.507709 -0.75520164 -0.55347985
4.8309121 -0.80934966 -0.5518983
5.2265692 -0.87563634 -0.55253714
5.6851006 -0.95245671 -0.55262387
6.2109485 -1.0405549 -0.55095994
6.8494744 -1.1475307 -0.54948139
7.6423807 -1.2803707 -0.54832655
8.6270599 -1.4453394 -0.54595321
9.9150782 -1.6611284 -0.54362655
11.645713 -1.9510714 -0.54013187
14.099697 -2.362201 -0.5349254
17.860329 -2.9922407 -0.52692449
24.399107 -4.087719 -0.51409674
38.424141 -6.4374108 -0.48572034
2.0627644 -0.31956339 -0.55930853
2.1369851 -0.33106163 -0.56021255
2.2205575 -0.34400868 -0.56223476
2.2974999 -0.3559286 -0.56122619
2.3816659 -0.36896762 -0.56063044
2.4704878 -0.38272789 -0.55967867
2.562031 -0.39690974 -0.5578317
2.6654167 -0.41292626 -0.55692869
2.7832999 -0.43118873 -0.55719501
2.9027238 -0.44968987 -0.55577582
3.0586123 -0.47384012 -0.55901998
3.2130663 -0.4977681 -0.55938649
3.3615229 -0.52076703 -0.55616534
3.5418193 -0.54869848 -0.55545247
