# .PCD v0.7 - Point Cloud Data file format
VERSION 0.7
FIELDS x y z
SIZE 4 4 4
TYPE F F F
COUNT 1 1 1
WIDTH 1504
HEIGHT 1
VIEWPOINT 0 0 0 1 0 0 0
POINTS 1504
DATA ascii
2.03124 0.47019073 -0.55865973
2.1077735 0.48790669 -0.56047934
2.1887171 0.50664353 -0.5621208
2.2573063 0.52252048 -0.55931604
2.3468368 0.54324496 -0.56035471
2.436409 0.56397909 -0.5598743
2.5442407 0.58893996 -0.561903
2.6354425 0.61005133 -0.55856323
2.7482569 0.63616562 -0.55807024
2.8734334 0.66514134 -0.55805802
3.0050371 0.69560492 -0.557105
3.1592469 0.73130143 -0.5579049
3.325963 0.76989275 -0.55817395
3.4980915 0.80973697 -0.55646259
3.7045348 0.85752439 -0.55698186
3.9162486 0.90653187 -0.55472833
4.1870522 0.96921742 -0.55672866
4.4558153 1.0314306 -0.55385554
4.776957 1.1057683 -0.55246484
5.1706777 1.1969067 -0.55337
5.6238108 1.3017977 -0.55340815
6.1308799 1.419174 -0.55056459
6.7732186 1.5678624 -0.55006528
7.552206 1.7481821 -0.5485394
8.5361948 1.9759554 -0.54686522
9.8093128 2.2706563 -0.54446065
11.507174 2.6636767 -0.54028857
13.942412 3.2273848 -0.53548187
17.680866 4.092761 -0.52806318
24.140753 5.5880933 -0.51492631
38.007858 8.7980461 -0.48638362
2.0400856 0.49874377 -0.56273675
2.0925803 0.51157725 -0.55806988
2.1743307 0.53156298 -0.56006235
2.2625771 0.55313671 -0.5622648
2.3332419 0.57041228 -0.55874115
2.4206188 0.59177345 -0.55787581
2.523483 0.61692095 -0.55895174
2.6214843 0.64087945 -0.55723298
2.7474658 0.67167842 -0.55954444
2.8593173 0.69902295 -0.55694377
3.0161123 0.73735493 -0.5607968
3.149878 0.77005696 -0.5578804
3.3075264 0.80859756 -0.55670643
3.4912035 0.8535015 -0.55699432
3.6850171 0.9008835 -0.55567092
3.9067225 0.95508426 -0.55500054
4.1591058 1.0167849 -0.55463332
4.4609432 1.0905757 -0.55611777
4.7732019 1.1669141 -0.55364817
5.1563044 1.260572 -0.5534488
5.594779 1.3677667 -0.55216461
6.1153789 1.4950389 -0.55078185
6.7619262 1.6531014 -0.55075735
7.5380845 1.8428506 -0.5491181
8.5046873 2.0791578 -0.54644334
9.775713 2.389888 -0.54418564
11.474187 2.8051174 -0.54031843
13.881874 3.3937294 -0.53471911
17.642855 4.3131838 -0.52847195
24.059322 5.8818302 -0.5146932
37.918827 9.2700911 -0.4866662
2.0148034 0.51889789 -0.55748081
2.0877855 0.53769386 -0.55851221
2.1550233 0.5550105 -0.55680496
2.2457151 0.57836747 -0.55979949
2.3170433 0.5967375 -0.55657715
2.4184337 0.62284982 -0.55909503
2.5045013 0.64501595 -0.55646199
2.6144013 0.67331988 -0.55744517
2.7323833 0.70370531 -0.55819285
2.8544722 0.73514837 -0.55771863
2.9942589 0.7711494 -0.55845439
3.1377764 0.80811131 -0.55745488
3.3090527 0.85222226 -0.55868495
3.4822028 0.89681584 -0.55727559
3.670249 0.94524574 -0.55515468
3.8909945 1.0020971 -0.55447483
4.1580329 1.0708709 -0.55620414
4.4419394 1.143989 -0.55546033
4.754436 1.2244701 -0.55317611
5.1533394 1.3272047 -0.55484033
5.602221 1.442811 -0.55460811
6.1048923 1.5722703 -0.55153692
6.7246728 1.7318901 -0.54941612
7.5125113 1.9347922 -0.5489468
8.4836102 2.1848915 -0.54677397
9.7517719 2.5114975 -0.54453093
11.446374 2.9479296 -0.54067481
13.862895 3.570287 -0.53563863
17.562582 4.5231142 -0.52769357
23.983845 6.1768637 -0.51466453
37.789364 9.7323742 -0.48650381
2.0147552 0.54538703 -0.55928081
2.0800865 0.56307197 -0.55826265
2.1603353 0.584795 -0.55999303
2.245868 0.60794836 -0.56165862
2.3276045 0.63007414 -0.56093276
2.4127581 0.65312493 -0.55959731
2.5005016 0.67687678 -0.55738044
2.6180167 0.70868772 -0.56003183
2.7359309 0.74060667 -0.56073564
2.8417401 0.76924884 -0.55703706
2.9637399 0.80227369 -0.5545603
3.1354475 0.84875435 -0.55885303
3.2863493 0.8896029 -0.5566566
3.4732697 0.94020164 -0.55765402
3.6560957 0.98969191 -0.55481273
3.8958445 1.0545911 -0.55697173
4.1495337 1.1232638 -0.55687279
4.4278655 1.1986073 -0.55550152
4.7569571 1.2876912 -0.55526978
5.1189628 1.3856847 -0.55293185
5.5650306 1.5064337 -0.5527184
6.0762701 1.6448244 -0.55073673
6.727397 1.8210822 -0.55142659
7.4755988 2.0236177 -0.54802638
8.4541445 2.2885065 -0.54664725
9.7159147 2.6300631 -0.54429334
11.402616 3.086647 -0.54035985
13.826714 3.7428415 -0.53597838
17.507748 4.739284 -0.52775711
23.92692 6.4769311 -0.51511306
37.694893 10.203872 -0.48686609
1.9997704 0.56781077 -0.55701715
2.0848086 0.59195638 -0.56144106
2.1527214 0.61123937 -0.55992538
2.2266395 0.63222754 -0.55875188
2.3250644 0.66017413 -0.5622344
2.3924124 0.67929679 -0.55677372
2.493495 0.70799792 -0.55771708
2.6000264 0.73824626 -0.55808312
2.7096901 0.76938391 -0.55725431
2.8323665 0.80421644 -0.55709594
2.965456 0.84200561 -0.5567767
3.1155677 0.884628 -0.55720639
3.2804503 0.93144447 -0.55755532
3.4486287 0.97919667 -0.5555889
3.6415229 1.0339667 -0.55448878
3.8651142 1.0974528 -0.55446577
4.1223421 1.1704895 -0.5551132
4.4105248 1.2523155 -0.55521595
4.7237825 1.3412614 -0.55328071
5.1043768 1.4493264 -0.55323952
5.5339594 1.5713012 -0.55150968
6.0654244 1.7222043 -0.55163139
6.6945472 1.9008362 -0.55060822
7.4493055 2.1151409 -0.5479641
8.4223719 2.3914313 -0.54645288
9.6772194 2.7477303 -0.54397732
11.365726 3.2271616 -0.54045135
13.772669 3.910584 -0.53570694
17.45582 4.9563704 -0.52798903
23.846945 6.7710533 -0.51514482
37.614491 10.680182 -0.48748696
2.001651 0.59503555 -0.55953676
2.0684373 0.61488926 -0.55902618
2.137929 0.63554716 -0.55806834
2.2180831 0.65937483 -0.55859709
2.3174317 0.6889084 -0.56239462
2.3885734 0.71005684 -0.55787003
2.4857874 0.73895586 -0.55798334
2.5844984 0.76829994 -0.55673581
2.7065067 0.80456966 -0.55859208
2.8307624 0.84150749 -0.55877346
2.9513566 0.87735677 -0.556113
3.0986545 0.92114437 -0.55616528
3.2730284 0.97298092 -0.55828512
3.4387131 1.0222343 -0.55597448
3.645968 1.0838455 -0.55715281
3.8573182 1.1466742 -0.55532813
4.0983233 1.2183182 -0.55385429
4.3941302 1.3062534 -0.55513209
4.7100582 1.4001702 -0.55364794
5.0856662 1.5118281 -0.55318463
5.5224328 1.6416667 -0.55233103
6.0290837 1.79228 -0.55028909
6.6609497 1.9801164 -0.54980594
7.4332767 2.2097077 -0.54874229
8.3877993 2.4934609 -0.54615778
9.6522293 2.8693411 -0.54451472
11.332228 3.3687582 -0.54078734
13.716526 4.0775442 -0.53543293
17.414032 5.1767101 -0.52861047
23.760401 7.0633106 -0.51511258
37.480297 11.141856 -0.48748657
1.996662 0.62037206 -0.56023216
2.0491776 0.63668889 -0.55589485
2.1365371 0.66383189 -0.55979347
2.2134016 0.68771398 -0.55950546
2.2867322 0.71049821 -0.55702257
2.3710105 0.73668385 -0.5558418
2.4836106 0.77166921 -0.55958235
2.5738938 0.79972059 -0.55652767
2.6930447 0.83674139 -0.557895
2.8065727 0.872015 -0.55607313
2.9553933 0.91825426 -0.55895895
3.1027586 0.96404135 -0.55898738
3.2506464 1.0099907 -0.55654371
3.4307256 1.0659422 -0.55676019
3.634433 1.129235 -0.55746984
3.848839 1.1958519 -0.55618232
4.0829716 1.268598 -0.55384588
4.371201 1.3581522 -0.55430329
4.6986189 1.4598825 -0.55437154
5.0726342 1.5760907 -0.55383331
5.4908419 1.7060298 -0.55122787
6.0294218 1.873369 -0.55238074
6.6315742 2.0604606 -0.54943097
7.4087038 2.3019183 -0.5489763
8.3745356 2.6020064 -0.5473361
9.6168327 2.9879942 -0.54454947
11.292513 3.5086355 -0.54091007
13.674459 4.2487173 -0.53578973
17.350477 5.390873 -0.52865356
23.70331 7.364727 -0.51579916
37.362705 11.608765 -0.48777691
1.9750625 0.64039391 -0.55633909
2.0653968 0.66968387 -0.56248611
2.115458 0.68591583 -0.55643839
2.1997151 0.71323526 -0.55822057
2.2954638 0.74428082 -0.5613364
2.3770623 0.7707383 -0.55944008
2.461606 0.79815072 -0.55679369
2.5758018 0.8351776 -0.55911851
2.677546 0.86816716 -0.55685371
2.8123636 0.91188031 -0.55939984
2.9305182 0.95019072 -0.556422
3.0710909 0.9957701 -0.55544615
3.2431066 1.0515443 -0.55742449
3.4072165 1.1047554 -0.55510765
3.6082137 1.1699266 -0.5556128
3.8441002 1.2464105 -0.55767018
4.078783 1.3225039 -0.55544162
4.3822966 1.4209151 -0.55788374
4.6833534 1.5185298 -0.55473155
5.0501232 1.6374512 -0.55353206
5.4807792 1.777087 -0.55236965
6.0030365 1.9464236 -0.55211443
6.6229763 2.1474328 -0.55086476
7.3806186 2.3930905 -0.54903418
8.3290968 2.7006252 -0.5464955
9.5864458 3.1083076 -0.54495186
11.248451 3.6471961 -0.54090685
13.633232 4.4204369 -0.53626359
17.282118 5.6035514 -0.5286302
23.606421 7.6541419 -0.51569986
37.243233 12.07574 -0.4881188
1.9741672 0.66703844 -0.55835515
2.0446391 0.69084972 -0.5591042
2.1243248 0.71777415 -0.56104976
2.1992071 0.74307573 -0.56036806
2.2731562 0.76806188 -0.55814862
2.3665895 0.79963142 -0.55924714
2.4664643 0.83337748 -0.56016821
2.5742633 0.86980098 -0.56106377
2.674624 0.9037112 -0.55851489
2.8021216 0.94679052 -0.55963606
2.925741 0.98855942 -0.5577808
3.0599523 1.0339073 -0.55568892
3.2259135 1.0899827 -0.55673093
3.4153736 1.1539983 -0.55870622
3.5883236 1.2124351 -0.55480379
3.8168459 1.2896491 -0.5559749
4.0461287 1.3671199 -0.55324227
4.3318367 1.4636559 -0.55370939
4.6701636 1.577971 -0.55542558
5.0410013 1.703271 -0.55478591
5.4497423 1.8413779 -0.55148196
5.9612808 2.0142181 -0.55051041
6.5783281 2.2227082 -0.54938293
7.3454552 2.4819078 -0.54864722
8.3031702 2.8055036 -0.54701644
9.5312347 3.2204466 -0.54402333
11.203906 3.7856147 -0.54096234
13.569581 4.5849371 -0.53593701
17.233391 5.8228774 -0.52928978
23.527885 7.9496832 -0.51608074
37.096554 12.534312 -0.48817953
1.9715797 0.69328809 -0.55999207
2.0405767 0.71755028 -0.56036377
2.0973644 0.7375192 -0.55628246
2.173115 0.76415616 -0.55607182
2.2590094 0.79436016 -0.55703133
2.3569918 0.82881474 -0.55934519
2.4397774 0.85792553 -0.5564611
2.5400794 0.89319581 -0.55596507
2.6582823 0.93476081 -0.55746049
2.7937996 0.98241425 -0.56034428
2.9135644 1.0245285 -0.55781901
3.0580764 1.0753448 -0.55770737
3.2177224 1.1314828 -0.55767632
3.3882658 1.191453 -0.55662638
3.5805387 1.259064 -0.55595183
3.7991285 1.335929 -0.55574495
4.0530162 1.4252064 -0.55653822
4.3203483 1.5192112 -0.55458677
4.6503773 1.635263 -0.55542183
5.0166054 1.7640437 -0.55444634
5.4431553 1.914036 -0.55315524
5.9422736 2.0895467 -0.55108625
6.5689683 2.3099179 -0.55093169
7.3295493 2.5773695 -0.54978478
8.2599354 2.9045315 -0.54647982
9.4837008 3.3348572 -0.54360968
11.164022 3.9257269 -0.5413264
13.508649 4.7501936 -0.53579694
17.150585 6.0308471 -0.52898419
23.426889 8.2378531 -0.51604831
36.962406 12.997494 -0.48848045
1.9722917 0.72090787 -0.56266963
2.0272403 0.74099255 -0.55916131
2.1041675 0.7691108 -0.56055278
2.1715283 0.7937324 -0.55812114
2.2639294 0.82750666 -0.56071121
2.3446 0.85699314 -0.55886298
2.436069 0.89042675 -0.55807036
2.5328321 0.92579538 -0.55682844
2.6458671 0.96711171 -0.55730867
2.7551188 1.0070451 -0.5550279
2.9049666 1.0618172 -0.55863047
3.0355711 1.1095555 -0.55604923
3.1966507 1.168433 -0.5564723
3.3787994 1.2350116 -0.55752385
3.5635829 1.3025532 -0.55576408
3.781122 1.3820676 -0.55555487
4.0245852 1.4710578 -0.55507606
4.307096 1.5743206 -0.55532867
4.6358905 1.6945007 -0.55613816
4.9898415 1.8238763 -0.55392522
5.4146075 1.9791359 -0.5526855
5.9057951 2.1586735 -0.55012333
6.5363674 2.389159 -0.55061978
7.2991319 2.667963 -0.54992241
8.2318068 3.0088723 -0.54702526
9.4644995 3.4594436 -0.5449062
11.121286 4.0650287 -0.541637
13.457825 4.9190755 -0.53613967
17.081429 6.243567 -0.52917916
23.326008 8.5260725 -0.51609653
36.821098 13.458769 -0.48876315
1.9517018 0.74071008 -0.55935174
2.0127971 0.763897 -0.55772626
2.0912125 0.79365718 -0.55965912
2.1744692 0.82525486 -0.56144273
2.2396588 0.84999555 -0.55724657
2.326658 0.88301355 -0.5571323
2.4442587 0.92764539 -0.56251711
2.5300183 0.9601928 -0.55876333
2.6384552 1.0013468 -0.55829877
2.7506461 1.0439255 -0.55667073
2.8824983 1.0939661 -0.55685449
3.0281653 1.1492497 -0.55723917
3.1868489 1.2094733 -0.55731285
3.3519175 1.2721201 -0.55562729
3.5568118 1.3498816 -0.55725461
3.7624269 1.4279166 -0.55534589
4.0045042 1.5197899 -0.55484205
4.2999959 1.631935 -0.55695844
4.5890732 1.7416456 -0.55304915
4.9588237 1.8819734 -0.55300903
5.3818636 2.0425255 -0.5518651
5.9018774 2.239881 -0.55228221
6.511518 2.4712522 -0.5510447
7.2544332 2.7532034 -0.54906392
8.1975851 3.1111486 -0.54725206
9.4132776 3.5725281 -0.54444522
11.054111 4.1952577 -0.54083693
13.405028 5.0874777 -0.53648794
16.999189 6.4515347 -0.5290491
23.230438 8.8164186 -0.51634157
36.670498 13.917192 -0.48899874
1.9545485 0.7694152 -0.56283659
2.0113049 0.79175752 -0.55996811
2.0826221 0.81983185 -0.56001574
2.1605773 0.85051918 -0.56051379
2.2438169 0.88328671 -0.5609411
2.33301 0.91839796 -0.56131506
2.4073279 0.94765347 -0.55665755
2.5020394 0.98493695 -0.55521691
2.6302111 1.0353923 -0.55920613
2.7428184 1.0797206 -0.55773133
2.8741984 1.1314387 -0.55789661
3.006068 1.1833497 -0.55580848
3.1720915 1.2487055 -0.55737513
3.3434589 1.3161649 -0.55686581
3.5339921 1.391169 -0.55631745
3.7610674 1.480558 -0.55779028
3.9987147 1.5741087 -0.55667967
4.2763867 1.6834154 -0.5565396
4.5834551 1.8042939 -0.55500388
4.9317536 1.9414029 -0.55261064
5.361886 2.1107261 -0.55243629
5.8803411 2.3148179 -0.55288869
6.4632645 2.5442879 -0.54956722
7.2285266 2.845536 -0.54970986
8.1650133 3.2141876 -0.54767466
9.3784075 3.6918447 -0.54501283
11.018647 4.3375306 -0.54167038
13.339234 5.2510386 -0.53639841
16.91629 6.6591597 -0.52897751
23.147093 9.1119385 -0.51694041
36.527058 14.37901 -0.48940673
1.9388701 0.79091305 -0.56107992
2.0106673 0.82020092 -0.56255603
2.0829527 0.84968793 -0.56287158
2.1431139 0.87422913 -0.55872989
2.2202277 0.90568572 -0.55778587
2.3093166 0.94202739 -0.55835932
2.4116445 0.98376936 -0.56041056
2.5158362 1.0262718 -0.56103641
2.5987484 1.0600938 -0.55524629
2.7396672 1.117578 -0.55984265
2.8559616 1.1650174 -0.55709535
3.0046186 1.2256583 -0.55828488
3.164309 1.2907999 -0.55875438
3.3215795 1.3549544 -0.55595464
3.5019293 1.4285235 -0.55399346
3.7339337 1.5231639 -0.55650181
3.9780235 1.6227341 -0.55653495
4.2441225 1.7312826 -0.55506921
4.5413618 1.8525338 -0.55262345
4.9065514 2.0015035 -0.55250269
5.3513794 2.18296 -0.55407751
5.841783 2.3830078 -0.5519768
6.4462247 2.6295745 -0.55082607
7.2031879 2.9383585 -0.55048901
8.1263828 3.3149526 -0.54777628
9.3313665 3.806495 -0.544958
10.960037 4.4708705 -0.54145086
13.28501 5.4192843 -0.53685701
16.845243 6.8715911 -0.52935803
23.038 9.3977699 -0.51704574
36.35548 14.830299 -0.4895142
1.9209996 0.81131434 -0.55875325
1.9860455 0.83878583 -0.55851072
2.0600767 0.8700521 -0.55953854
2.125396 0.89763904 -0.55694622
2.2003505 0.9292953 -0.55562103
2.309361 0.9753347 -0.56122732
2.3907351 1.0097023 -0.55839467
2.4800301 1.0474151 -0.55588174
2.5900352 1.0938746 -0.55621648
2.7224579 1.149802 -0.55917281
2.8448102 1.2014762 -0.55775976
2.9844544 1.2604535 -0.55737597
3.1418529 1.3269291 -0.5576281
3.3150089 1.4000598 -0.55769426
3.5051711 1.4803728 -0.55734384
3.7057712 1.5650942 -0.55513084
3.951196 1.6687468 -0.55561048
4.2245789 1.7842072 -0.55534053
4.5165706 1.907527 -0.55241925
4.9031382 2.0707898 -0.55494368
5.3092537 2.2423084 -0.55252886
5.8151021 2.4559484 -0.55226749
6.4092216 2.7068684 -0.55046672
7.1566329 3.0225298 -0.54972994
8.0810709 3.4129567 -0.54750937
9.2774029 3.9182153 -0.54457909
10.913819 4.6093388 -0.54192662
13.216333 5.5817819 -0.53681481
16.765144 7.0805855 -0.52953696
22.919464 9.6797991 -0.51701766
36.210636 15.293188 -0.49005893
1.9225791 0.8399846 -0.56217444
1.9747779 0.86279058 -0.55828339
2.0428379 0.89252633 -0.55779505
2.1242342 0.92808878 -0.55958998
2.1984096 0.96049637 -0.55807102
2.2985318 1.0042403 -0.56155413
2.3849034 1.0419765 -0.55998284
2.4685829 1.0785364 -0.55624646
2.5987058 1.1353879 -0.56103432
2.7022946 1.1806463 -0.55797112
2.8392549 1.240485 -0.55961895
2.9785366 1.301338 -0.55921698
3.1218433 1.3639493 -0.55701137
3.2894559 1.43718 -0.55632639
3.4854989 1.5228323 -0.55715126
3.699388 1.6162816 -0.55710971
3.9333673 1.7185084 -0.5560329
4.1924334 1.8316954 -0.55403376
4.5114903 1.9710931 -0.55472034
4.8575292 2.1222794 -0.55269349
5.2814941 2.3075118 -0.55255109
5.7751741 2.5232031 -0.5513804
6.3706322 2.7833619 -0.55005038
7.0970712 3.1007466 -0.54804212
8.0326138 3.5094898 -0.54710871
9.238493 4.0363445 -0.54516727
10.853627 4.7420049 -0.54179221
13.155357 5.747643 -0.53716815
16.689949 7.291924 -0.52995396
22.806 9.9640579 -0.51718295
36.048325 15.749698 -0.49044621
1.9016439 0.8588354 -0.5590986
1.9793309 0.89392102 -0.56263554
2.0500097 0.92584157 -0.56281936
2.1016276 0.94915372 -0.55666721
2.1995323 0.99337018 -0.56141442
2.2771902 1.0284427 -0.55938756
2.3637936 1.0675552 -0.55806625
2.4676371 1.1144538 -0.55907899
2.576575 1.1636533 -0.55930334
2.6848791 1.2125663 -0.55741167
2.8287575 1.2775459 -0.56060386
2.9517033 1.3330716 -0.5572145
3.096276 1.3983647 -0.55547553
3.2725389 1.4779699 -0.55649686
3.4678338 1.5661705 -0.55736375
3.6717377 1.6582592 -0.55597442
3.9106846 1.7661743 -0.55585444
4.1887145 1.8917404 -0.55657434
4.4756675 2.0213363 -0.55333
4.8454709 2.18835 -0.55434132
5.2584968 2.3748839 -0.55315852
5.7498889 2.5968103 -0.55197322
6.3524299 2.8689346 -0.55148298
7.0577636 3.1874831 -0.54799199
7.9937906 3.610219 -0.54744673
9.1940813 4.1523037 -0.54551828
10.804452 4.8795919 -0.54229164
13.075643 5.9053254 -0.5368377
16.602743 7.4982619 -0.53007245
22.699856 10.251888 -0.51759547
35.878201 16.203596 -0.49080533
1.888975 0.88123542 -0.55851752
1.9669181 0.91759712 -0.56227195
2.0246115 0.94451189 -0.55899268
2.1080101 0.98341858 -0.56151825
2.1869166 1.0202297 -0.56135404
2.2739198 1.0608181 -0.561746
2.3533895 1.0978919 -0.55875504
2.4419403 1.1392021 -0.55638874
2.5704398 1.199149 -0.56112993
2.6716406 1.2463608 -0.55780292
2.8038802 1.3080525 -0.558819
2.9404123 1.3717469 -0.55822504
3.0909894 1.4419934 -0.55766594
3.2653224 1.5233223 -0.55841279
3.4257665 1.5981719 -0.55371922
3.6425426 1.6993012 -0.55467576
3.8727717 1.8067065 -0.55358148
4.1512775 1.9366338 -0.55472219
4.4739656 2.0871725 -0.55625051
4.8137221 2.2456741 -0.55382633
5.2262044 2.4381034 -0.55287343
5.7162356 2.6667104 -0.55184871
6.3177056 2.9473052 -0.55157298
7.0336771 3.2813168 -0.54921311
7.9490609 3.7083571 -0.54746491
9.1451321 4.2663426 -0.54568541
10.732481 5.0068645 -0.5417285
13.011592 6.0701046 -0.5372318
16.499146 7.6971016 -0.52974671
22.586187 10.536798 -0.51791883
35.684219 16.647228 -0.49091488
1.8868226 0.90864497 -0.56114227
1.9413382 0.93489832 -0.55820364
2.0119264 0.96889174 -0.55873758
2.083149 1.0031906 -0.55813962
2.1558511 1.0382023 -0.55661476
2.2650385 1.090784 -0.56282288
2.3352768 1.124609 -0.55769569
2.4340332 1.1721674 -0.55782896
2.5475209 1.2268202 -0.55937761
2.6590726 1.2805406 -0.55842417
2.7838273 1.3406193 -0.55806571
2.9288132 1.4104408 -0.5592733
3.0682261 1.4775784 -0.556795
3.2359676 1.5583584 -0.55662769
3.4211338 1.6475296 -0.55620283
3.6258178 1.7461002 -0.5553565
3.8599765 1.8588649 -0.55497783
4.1303158 1.9890534 -0.55514747
4.4349523 2.1357584 -0.55462325
4.7919059 2.3076582 -0.5545392
5.200182 2.5042732 -0.55333638
5.6830759 2.7368224 -0.55185467
6.26721 3.0181262 -0.55036294
6.9926729 3.3674905 -0.54920316
7.9109097 3.8096895 -0.54802233
9.0796909 4.3725448 -0.54494762
10.676869 5.1417041 -0.54207176
12.941744 6.2324095 -0.53747147
16.424364 7.9095492 -0.53042829
22.464382 10.818266 -0.51813692
35.519459 17.105253 -0.4915047
1.8779616 0.93299496 -0.56187648
1.9247257 0.9562279 -0.55676574
2.0112638 0.99922121 -0.56192333
2.0763042 1.0315341 -0.55966192
2.1518114 1.069047 -0.55892348
2.2328758 1.1093208 -0.55817831
2.3241627 1.1546732 -0.55839008
2.4148448 1.1997253 -0.55677027
2.5297048 1.2567892 -0.55881673
2.6336553 1.3084331 -0.55642313
2.7799165 1.3810976 -0.56064379
2.8994932 1.4405047 -0.55701476
3.0517874 1.5161664 -0.55715299
3.2227702 1.6011127 -0.55770195
3.4129596 1.6956012 -0.55822146
3.6130998 1.7950335 -0.5567472
3.8516901 1.9135681 -0.55712742
4.1008544 2.0373559 -0.55451292
4.4224715 2.1971395 -0.55639905
4.7625194 2.3660796 -0.55446345
5.1759562 2.5714803 -0.55408132
5.6565962 2.8102682 -0.55259717
6.2454643 3.1028254 -0.55176216
6.9615622 3.4585917 -0.55005831
7.8619337 3.9059076 -0.54791528
9.0378466 4.4901156 -0.54570866
10.609262 5.2708149 -0.54188895
12.870091 6.3940234 -0.53772038
16.329327 8.1126146 -0.53054059
22.31925 11.088485 -0.51789522
35.345005 17.559843 -0.49204132
1.8531059 0.94923186 -0.55788982
1.9258306 0.98648423 -0.56055194
1.984304 1.0164366 -0.55784088
2.0666058 1.0585947 -0.56051403
2.1418662 1.0971459 -0.55980217
2.2255054 1.1399891 -0.5597977
2.3224366 1.189641 -0.56144744
2.4189005 1.2390536 -0.56117582
2.5148487 1.2882019 -0.55899185
2.6187067 1.3414019 -0.55670768
2.7485304 1.4079026 -0.55776322
2.8879693 1.4793286 -0.55825329
3.0486863 1.561654 -0.56005025
3.2054961 1.641978 -0.55816448
3.3766825 1.7296662 -0.55572474
3.5969565 1.8424989 -0.55770862
3.8135793 1.9534615 -0.55504739
4.0891399 2.0946143 -0.55636966
4.3759723 2.2415407 -0.55397475
4.7329078 2.424377 -0.55444479
5.1362653 2.6309919 -0.55325383
5.6323757 2.8851187 -0.55365497
6.1949091 3.17327 -0.55070144
6.9229155 3.5461826 -0.55040848
7.8118362 4.0015221 -0.54781163
8.986371 4.6031637 -0.545977
10.544362 5.4012265 -0.54192543
12.785148 6.5490427 -0.53749532
16.224508 8.3108149 -0.53041524
22.212059 11.377869 -0.51861519
35.15765 18.009096 -0.49247873
1.8530293 0.97813934 -0.56144536
1.9085379 1.0074401 -0.55908203
1.9886949 1.0497518 -0.56266159
2.054749 1.0846192 -0.56087315
2.123534 1.1209278 -0.55857104
2.213671 1.1685076 -0.5603928
2.2903063 1.2089603 -0.55723166
2.3858347 1.2593859 -0.55705523
2.5012679 1.3203183 -0.55953962
2.6138685 1.3797556 -0.55924362
2.7246275 1.4382209 -0.55645937
2.8601794 1.5097733 -0.55642802
3.0154152 1.5917159 -0.55749166
3.182929 1.6801398 -0.55779016
3.3699806 1.7788768 -0.5581795
3.5669742 1.8828617 -0.5566076
3.8016469 2.006736 -0.55686003
4.0569263 2.1414876 -0.55552745
4.3548412 2.2987449 -0.55483609
4.7106333 2.4865534 -0.55537528
5.1088204 2.6967402 -0.55382758
5.5849533 2.9480715 -0.55251503
6.1557493 3.2493718 -0.55073053
6.8750358 3.6290538 -0.55010813
7.7575684 4.0949073 -0.54749572
8.9351711 4.716516 -0.54634863
10.484318 5.5342484 -0.54229593
12.724544 6.716773 -0.53837901
16.145199 8.5223989 -0.53120828
22.079103 11.654668 -0.51881772
34.948952 18.448141 -0.49269569
1.8361911 0.99830967 -0.56002063
1.8970492 1.0313973 -0.55938947
1.9732982 1.0728528 -0.56199539
2.0392652 1.108718 -0.56032562
2.1120751 1.1483037 -0.55922878
2.1968551 1.1943973 -0.55981147
2.2787552 1.2389252 -0.55808562
2.3802619 1.2941128 -0.5594272
2.4858227 1.3515047 -0.5597598
2.5960181 1.4114163 -0.5590955
2.7134297 1.4752513 -0.55783516
2.8556039 1.5525492 -0.55920959
2.9913647 1.6263604 -0.55670047
3.1488471 1.7119812 -0.55546468
3.3259418 1.8082649 -0.55452615
3.5547423 1.9326605 -0.55836511
3.772773 2.0512004 -0.55628318
4.0332775 2.1928327 -0.55593938
4.3358822 2.3573544 -0.5560717
4.6725297 2.5403845 -0.55452383
5.0801177 2.7619841 -0.55435592
5.5608869 3.0233712 -0.55377018
6.1158285 3.3250847 -0.55077535
6.8158402 3.7056706 -0.54897612
7.7213955 4.1980076 -0.54854447
8.8549719 4.8143163 -0.54502338
10.413468 5.6616478 -0.54219133
12.635388 6.8696723 -0.53814024
16.040365 8.7209072 -0.53124714
21.952829 11.935426 -0.51925993
34.755077 18.895817 -0.49320084
1.824717 1.021337 -0.56030911
1.8746024 1.0492591 -0.55653298
1.9438394 1.0880127 -0.55737364
2.0188766 1.1300126 -0.55849922
2.1052155 1.1783386 -0.56120658
2.1842282 1.222564 -0.56038231
2.2868686 1.2800142 -0.56388485
2.3638334 1.3230933 -0.55934757
2.4740717 1.3847961 -0.56090569
2.5680265 1.437385 -0.55683154
2.6979141 1.5100861 -0.5584206
2.8378301 1.5884002 -0.55951154
2.9782104 1.6669744 -0.55802488
3.1302276 1.752062 -0.55593854
3.3000557 1.8471189 -0.55395526
3.5266204 1.9739325 -0.55771828
3.7461972 2.0968347 -0.55612433
4.012578 2.2459342 -0.55685079
4.311595 2.4133012 -0.55672067
4.6417542 2.598099 -0.55462104
5.0372863 2.8194878 -0.55342346
5.5181389 3.0886323 -0.55325347
6.088469 3.4078593 -0.5520435
6.7938552 3.8026807 -0.5509299
7.6631203 4.2892289 -0.54810995
8.8015289 4.9264226 -0.54542124
10.354293 5.7955418 -0.54277968
12.556879 7.0283809 -0.53843665
15.934985 8.9191856 -0.53134918
21.812777 12.209124 -0.51945901
34.533501 19.329212 -0.49339208
1.8148301 1.0453136 -0.56117767
1.8702163 1.0772152 -0.55912101
1.9385046 1.1165482 -0.55973846
2.0102103 1.1578496 -0.5599981
2.0860984 1.2015599 -0.56000668
2.1630716 1.2458953 -0.55884266
2.2408724 1.2907073 -0.55641466
2.3399105 1.3477517 -0.55756611
2.4417231 1.4063941 -0.55745041
2.5620191 1.4756826 -0.55942118
2.6927438 1.5509781 -0.56125546
2.8107078 1.6189234 -0.55804676
2.9453533 1.6964772 -0.55573517
3.1228299 1.7987009 -0.55851066
3.2975688 1.8993478 -0.55741614
3.4914687 2.0110312 -0.55602783
3.7169199 2.1408875 -0.55564409
3.972002 2.2878108 -0.5550819
4.2723637 2.4608142 -0.55552018
4.6062274 2.6531146 -0.5542323
5.0036139 2.8820028 -0.55357563
5.4705381 3.150944 -0.55232388
6.0522275 3.4859877 -0.55260229
6.7322068 3.8776453 -0.54975569
7.6064439 4.3811922 -0.54786807
8.7489424 5.0392532 -0.54596114
10.276416 5.919054 -0.54247171
12.465601 7.1799903 -0.53826773
15.846047 9.1270742 -0.53208572
21.66316 12.47764 -0.51951057
34.332752 19.775126 -0.49396077
1.794502 1.0632012 -0.55889225
1.848905 1.0954337 -0.55673462
1.9312314 1.1442102 -0.56165844
2.0051489 1.1880047 -0.5626151
2.0656819 1.2238691 -0.55852365
2.1526585 1.2754006 -0.56016177
2.2424827 1.3286195 -0.56082869
2.3265579 1.378432 -0.55838102
2.4236999 1.4359865 -0.55732483
2.539501 1.5045959 -0.55850184
2.6485612 1.5692116 -0.55602622
2.790359 1.6532236 -0.55800062
2.9406462 1.7422653 -0.55884701
3.0965283 1.8346219 -0.55779922
3.2625916 1.9330106 -0.55547953
3.4725916 2.0574307 -0.55700845
3.7027874 2.1938164 -0.55752194
3.9495425 2.340013 -0.55592233
4.2437463 2.514322 -0.55577719
4.5794272 2.7132053 -0.55497992
4.9792747 2.9501059 -0.55485427
5.4456882 3.226445 -0.55377871
6.0109749 3.5613644 -0.55279237
6.6851993 3.9608269 -0.54985273
7.5619373 4.4802742 -0.54858899
8.6876402 5.1472273 -0.54604411
10.212165 6.0504727 -0.54296631
12.392891 7.3425031 -0.53898597
15.729121 9.3191433 -0.5319671
21.531643 12.757004 -0.52007914
34.109489 20.209087 -0.49428648
1.7801884 1.0845119 -0.55854541
1.8469238 1.1251678 -0.56026185
1.9134891 1.1657201 -0.5606249
1.9830536 1.2080997 -0.56054127
2.0649788 1.2580094 -0.5624736
2.1404247 1.3039721 -0.56110835
2.2177911 1.3511045 -0.55876625
2.3278093 1.418129 -0.56282401
2.3924215 1.4574915 -0.55421162
2.5338097 1.5436269 -0.56138223
2.6529629 1.6162163 -0.56108004
2.7651832 1.6845824 -0.55706638
2.9127753 1.7744972 -0.55765492
3.0691154 1.8697413 -0.55696058
3.249583 1.9796845 -0.55736721
3.4360869 2.0933049 -0.55523986
3.6659975 2.2333691 -0.55607551
3.9259276 2.3917215 -0.55669588
4.210135 2.5648642 -0.55546379
4.5417361 2.7668793 -0.55449349
4.9330659 3.0052819 -0.55378115
5.3894262 3.2833021 -0.55212116
5.9477987 3.6234691 -0.55103832
6.6320415 4.040318 -0.54952526
7.4892545 4.5625424 -0.5473448
8.6309519 5.2580781 -0.54650354
10.138352 6.176404 -0.54303885
12.291287 7.487998 -0.53853089
15.615764 9.5133076 -0.53204942
21.387228 13.029352 -0.52042145
33.899555 20.65201 -0.49488688
1.7632768 1.1041627 -0.55745715
1.8301047 1.1460102 -0.55939227
1.8970481 1.1879301 -0.56004536
1.9703022 1.2338018 -0.56118292
2.0375984 1.2759426 -0.55924684
2.1120636 1.3225726 -0.55789465
2.2161355 1.3877423 -0.56260592
2.2832005 1.4297384 -0.556247
2.3945529 1.4994673 -0.55893439
2.5146234 1.5746553 -0.56137884
2.6124465 1.6359122 -0.55672348
2.758934 1.7276424 -0.56004483
2.8936045 1.811973 -0.55820817
3.0603571 1.9163933 -0.55960524
3.2222195 2.0177515 -0.55688733
3.4314041 2.1487427 -0.55871046
3.6339962 2.2756057 -0.55542386
3.8897738 2.4357734 -0.55577439
4.1733027 2.6133192 -0.55480206
4.5002975 2.818083 -0.55362314
4.9085526 3.0737319 -0.55523032
5.3604112 3.3566854 -0.55333537
5.9075632 3.6993117 -0.55148333
6.58705 4.1248059 -0.54995841
7.4518929 4.6663694 -0.54876631
8.570899 5.3670907 -0.54683858
10.073448 6.3079858 -0.54367596
12.197536 7.6380877 -0.53849763
15.50209 9.7073975 -0.5322032
21.225437 13.291352 -0.52042216
33.668076 21.082924 -0.49525476
1.7647697 1.1355416 -0.56230098
1.8231494 1.1731061 -0.56163305
1.8788278 1.2089323 -0.55901271
1.9493293 1.2542965 -0.55956
2.026737 1.3041046 -0.56062472
2.0956237 1.3484297 -0.55788976
2.1769879 1.4007835 -0.55699825
2.2803025 1.4672614 -0.55989426
2.3731499 1.527004 -0.55827916
2.4806077 1.5961479 -0.55812448
2.5984578 1.6719786 -0.55808151
2.7190988 1.7496049 -0.55628365
2.8728042 1.8485068 -0.55853826
3.0296049 1.9494002 -0.55832303
3.2009344 2.0596423 -0.55754364
3.3883555 2.1802385 -0.55602425
3.6144638 2.3257279 -0.55676734
3.8688195 2.4893932 -0.55711198
4.140224 2.6640284 -0.55471748
4.4750385 2.8794651 -0.55482966
4.8512874 3.1215622 -0.55305278
5.3253293 3.426585 -0.5540216
5.8659458 3.7744448 -0.55188924
6.5558949 4.2183928 -0.55164629
7.4000044 4.7615352 -0.54921538
8.5069065 5.473772 -0.54700875
9.9837275 6.4240327 -0.54305589
12.12102 7.799274 -0.53931278
15.384672 9.899272 -0.53231078
21.076811 13.561881 -0.52082747
33.429207 21.510033 -0.49559429
1.7446396 1.1531658 -0.56036276
1.8062608 1.1938961 -0.56091052
1.8747476 1.2391642 -0.56228983
1.9393387 1.2818574 -0.56117439
2.0112648 1.3293988 -0.56082428
2.0909894 1.382095 -0.56113791
2.1574416 1.4260184 -0.55644166
2.2717676 1.5015851 -0.56228971
2.3522708 1.5547959 -0.55782282
2.4737477 1.6350892 -0.56106228
2.5785065 1.7043324 -0.55825537
2.7011681 1.7854087 -0.55706471
2.8421383 1.8785868 -0.55702513
3.0049458 1.9861987 -0.55823737
3.1750631 2.0986421 -0.55749005
3.3729951 2.2294707 -0.55796021
3.5906789 2.3733547 -0.55755687
3.8190341 2.524292 -0.5543707
4.110249 2.716778 -0.55513531
4.4335608 2.9304798 -0.55411285
4.8176532 3.1843557 -0.55364048
5.2792892 3.4894865 -0.5536539
5.8181553 3.845664 -0.55180019
6.4890089 4.2890825 -0.55041438
7.350358 4.8584142 -0.54992306
8.4370499 5.5766921 -0.54688489
9.9209137 6.5574913 -0.54398406
12.012526 7.9399977 -0.5387888
15.283348 10.101934 -0.53306264
20.929638 13.834 -0.52135485
33.214344 21.953901 -0.49637353
1.7159266 1.1647538 -0.55569863
1.7903279 1.2152567 -0.56056082
1.8481652 1.254516 -0.55890149
1.9225758 1.3050252 -0.56092489
1.9822917 1.3455597 -0.55731684
2.0584207 1.3972354 -0.55696642
2.1499197 1.459344 -0.55908763
2.220866 1.5075016 -0.55423713
2.3416386 1.5894809 -0.55989408
2.4482582 1.6618531 -0.55987352
2.5593026 1.737229 -0.5586803
2.6974983 1.8310349 -0.56090885
2.827199 1.9190744 -0.55867988
2.979249 2.0222845 -0.55804098
3.1381998 2.1301787 -0.55557466
3.3376203 2.2655432 -0.55667472
3.5575428 2.4148245 -0.55698025
3.7963333 2.5769131 -0.55563313
4.0766711 2.7672036 -0.55515403
4.3951254 2.9833672 -0.55385226
4.7790942 3.2440014 -0.55375153
5.2201638 3.543395 -0.55198097
5.7743783 3.9195902 -0.55217767
6.4360213 4.3687067 -0.55043489
7.2704358 4.9350991 -0.5484423
8.3670263 5.6794538 -0.54683149
9.836134 6.6766696 -0.543796
11.921865 8.0924425 -0.53914493
15.152733 10.285523 -0.53287798
20.76384 14.094288 -0.52150255
32.980362 22.38674 -0.49695313
1.7190056 1.1979808 -0.56142384
1.7779368 1.2390501 -0.56140912
1.8348176 1.2786906 -0.55957764
1.9004099 1.324402 -0.55916697
1.9735876 1.3753998 -0.55958235
2.0597544 1.4354496 -0.56206071
2.1381099 1.4900559 -0.56073886
2.2134633 1.5425699 -0.55708128
2.312922 1.6118829 -0.55772483
2.4216657 1.6876668 -0.55849576
2.5410194 1.7708448 -0.55940026
2.6719389 1.8620832 -0.56031287
2.8062418 1.9556792 -0.55924833
2.9502652 2.0560496 -0.55730551
3.1213796 2.1752999 -0.5572902
3.316967 2.3116052 -0.55792868
3.5221012 2.4545641 -0.55611479
3.7557547 2.617398 -0.55436271
4.0418315 2.8167658 -0.55508435
4.3602948 3.0387042 -0.55412978
4.7397017 3.3031142 -0.55385154
5.1846495 3.6131992 -0.55288184
5.73383 3.9959252 -0.55295706
6.3876615 4.4515824 -0.55093879
7.2231588 5.0338435 -0.54950374
8.2904491 5.7776418 -0.54642856
9.7385292 6.7868137 -0.54297262
11.826076 8.2416315 -0.53935528
15.035923 10.478585 -0.53326106
20.614441 14.366272 -0.5221476
32.721985 22.80406 -0.49724752
1.7010616 1.21682 -0.56040776
1.767203 1.2641329 -0.56288552
1.8255852 1.3058954 -0.56161684
1.8861361 1.3492093 -0.55980629
1.9605042 1.4024071 -0.56071979
2.0288329 1.4512845 -0.55845046
2.1226323 1.5183821 -0.56153381
2.1992145 1.5731636 -0.55832154
2.2977698 1.6436633 -0.5589025
2.3956964 1.713713 -0.55732435
2.5137134 1.7981341 -0.55821437
2.6401746 1.8885956 -0.55847955
2.7730603 1.9836526 -0.55745453
2.9355416 2.0998802 -0.55935955
3.0917144 2.2115953 -0.55680704
3.2817907 2.3475626 -0.55682528
3.4877481 2.4948902 -0.55549264
3.7312479 2.6690726 -0.55554777
4.0178952 2.87412 -0.55660862
4.3240957 3.0931544 -0.55432111
4.7070031 3.3670597 -0.55482674
5.127142 3.6675973 -0.55151689
5.6751204 4.0595827 -0.55206758
6.3349562 4.5315828 -0.55115736
7.1671257 5.1268587 -0.54999536
8.2283134 5.8859577 -0.54706216
9.6683331 6.9160471 -0.54375929
11.735325 8.3946276 -0.53988338
14.90937 10.665117 -0.53338355
20.429668 14.613951 -0.52197969
32.469212 23.226192 -0.49770871
1.6959423 1.2449628 -0.56372195
1.7456566 1.2814573 -0.56099921
1.8091238 1.3280475 -0.56153405
1.8731998 1.3750846 -0.56094289
1.9453325 1.4280361 -0.56136042
2.004606 1.4715478 -0.5567205
2.0966156 1.5390904 -0.55961549
2.1850088 1.6039784 -0.55967999
2.2714446 1.6674294 -0.55744427
2.3832533 1.7495064 -0.55939198
2.4985683 1.8341571 -0.55981719
2.6251702 1.9270936 -0.56027585
2.7617335 2.0273423 -0.56014663
2.8950653 2.1252189 -0.5565843
3.0672586 2.2516234 -0.55734688
3.2585495 2.3920467 -0.55783039
3.4570479 2.537761 -0.55553108
3.6974061 2.7142038 -0.55543631
3.9686759 2.9133387 -0.55471092
4.2981062 3.1551678 -0.55592096
4.652586 3.4153855 -0.55332088
5.1011009 3.744633 -0.55362689
5.6318736 4.134264 -0.55276406
6.2900066 4.6173887 -0.55214471
7.0878887 5.2031002 -0.54878306
8.154026 5.985734 -0.54697537
9.6019878 7.0486584 -0.54486138
11.633294 8.5398064 -0.53997958
14.788857 10.856253 -0.53380758
20.273443 14.882395 -0.52262425
32.208153 23.643465 -0.49812588
1.6689285 1.2570009 -0.55983818
1.7239467 1.2984394 -0.55911112
1.7799156 1.3405939 -0.55754256
1.8393904 1.3853892 -0.5558778
1.9152126 1.4424968 -0.5577451
2.0019643 1.5078363 -0.56109363
2.0857112 1.5709127 -0.56181842
2.159687 1.6266297 -0.5582751
2.2451577 1.6910043 -0.55605406
2.3638053 1.780367 -0.55992335
2.4817548 1.8692042 -0.56115746
2.594449 1.954083 -0.55880517
2.7347937 2.0597875 -0.55977744
2.8895345 2.1763349 -0.56062353
3.0397208 2.2894521 -0.55741638
3.2253633 2.4292741 -0.55722088
3.4265773 2.5808241 -0.55569232
3.6589639 2.7558527 -0.55471009
3.940171 2.9676518 -0.5557853
4.2551355 3.2048762 -0.55541831
4.6205096 3.4800682 -0.55455345
5.0617485 3.8123996 -0.55440187
5.5679879 4.1936884 -0.55151337
6.2283812 4.691082 -0.55175698
7.0424662 5.3042336 -0.55027455
8.0675955 6.0763388 -0.54614836
9.5091171 7.1620617 -0.54454768
11.536531 8.6890669 -0.5404067
14.646259 11.031247 -0.53351629
20.108835 15.14554 -0.52314228
31.956619 24.069036 -0.49877536
1.655389 1.2790041 -0.56052965
1.7235329 1.3316542 -0.56424493
1.7750294 1.371442 -0.56125206
1.8360189 1.4185643 -0.56008804
1.9181905 1.4820526 -0.56387687
1.9766631 1.5272303 -0.55922353
2.0596635 1.591359 -0.5600307
2.1446393 1.6570138 -0.55960995
2.228111 1.7215066 -0.55703276
2.3404615 1.8083119 -0.55961859
2.4495213 1.8925751 -0.55908895
2.5743048 1.9889865 -0.55969185
2.7016943 2.0874116 -0.55821407
2.8450778 2.198194 -0.55720037
3.0037029 2.3207526 -0.5560025
3.2007129 2.4729686 -0.55817354
3.3973715 2.624913 -0.55614835
3.6243081 2.8002512 -0.55463445
3.8950708 3.0094507 -0.55460155
4.2030678 3.2474186 -0.55379236
4.5795169 3.5382745 -0.55481339
5.0057187 3.8675711 -0.55343205
5.5346327 4.276226 -0.55337602
6.1588497 4.7585154 -0.55073923
6.9743423 5.3885903 -0.55008739
8.0087023 6.1877685 -0.54727101
9.4283619 7.2846403 -0.54501158
11.423804 8.8263807 -0.54016942
14.540202 11.234204 -0.5346446
19.914274 15.386376 -0.52296323
31.686796 24.482187 -0.49922493
1.6331916 1.2942322 -0.55835998
1.6950134 1.3432232 -0.56027317
1.7522527 1.3885828 -0.55940682
1.824684 1.4459815 -0.56201184
1.8857191 1.4943491 -0.55969077
1.9672012 1.5589201 -0.56192738
2.0278141 1.6069533 -0.55670142
2.126817 1.6854086 -0.56032497
2.2002418 1.7435944 -0.5553835
2.3142121 1.8339109 -0.55869198
2.4255719 1.9221587 -0.5589751
2.5411072 2.0137153 -0.55781555
2.6696079 2.1155465 -0.55691725
2.8149502 2.2307239 -0.55662996
2.9976547 2.375509 -0.5602476
3.1640158 2.5073428 -0.55710846
3.3763666 2.6756215 -0.55805343
3.5931442 2.8474081 -0.5551815
3.8604093 3.0592039 -0.55498046
4.1679111 3.3028855 -0.55446947
4.5420794 3.5993974 -0.5555979
4.9531107 3.9251213 -0.55291009
5.4700131 4.334744 -0.5522027
6.0952611 4.8302255 -0.55032259
6.9050546 5.471951 -0.5498879
7.931952 6.2857218 -0.54726666
9.3359394 7.3983202 -0.54488665
11.34306 8.9888744 -0.54153699
14.389333 11.402911 -0.53421247
19.738346 15.641768 -0.52335465
31.422012 24.900557 -0.49983948
1.6366065 1.3300232 -0.56507611
1.6703688 1.3574609 -0.55760235
1.7411656 1.4149954 -0.56137961
1.818137 1.4775479 -0.5655486
1.8659849 1.5164324 -0.55932575
1.9389901 1.5757617 -0.5593614
2.0134077 1.6362388 -0.55822778
2.1036341 1.7095631 -0.55971324
2.2011111 1.7887799 -0.56111264
2.292908 1.8633806 -0.5590381
2.3992498 1.9498014 -0.55839211
2.5053685 2.0360413 -0.55542421
2.6391671 2.1447754 -0.5560267
2.7917817 2.268801 -0.55752307
2.9535263 2.4002461 -0.5574742
3.1387086 2.5507386 -0.55813295
3.3430588 2.7168081 -0.55802768
3.5719411 2.9028141 -0.55737847
3.8270907 3.1101668 -0.55564654
4.1344056 3.3599131 -0.55546641
4.4924035 3.6508477 -0.55497092
4.9084368 3.9889457 -0.55335677
5.4229946 4.4071121 -0.55288512
6.0445032 4.9121943 -0.55115169
6.8430891 5.5611825 -0.55035734
7.8677812 6.3939204 -0.54822236
9.2378798 7.50736 -0.54451013
11.212971 9.1124601 -0.54063493
14.251172 11.581519 -0.53432989
19.569757 15.903781 -0.52403015
31.148813 25.313747 -0.50040722
1.606601 1.3387724 -0.56035757
1.6584496 1.3819776 -0.55925399
1.7205697 1.4337419 -0.560381
1.7962254 1.4967855 -0.56441522
1.8502805 1.5418293 -0.56025898
1.9214815 1.6011608 -0.55994797
2.0009739 1.6674014 -0.56042266
2.0753384 1.7293689 -0.55780041
2.1772234 1.8142692 -0.56066787
2.2766566 1.8971264 -0.5607211
2.3762038 1.9800785 -0.55865288
2.4924462 2.0769427 -0.55817902
2.6272354 2.1892619 -0.55914223
2.7774761 2.3144567 -0.56030732
2.9285049 2.4403081 -0.55837303
3.1071124 2.5891409 -0.5581336
3.2959931 2.7465343 -0.55576682
3.5283883 2.9401879 -0.55618185
3.7842753 3.1534173 -0.55501813
4.0877047 3.4062636 -0.55477744
4.4446197 3.7036788 -0.55465198
4.8586011 4.0486474 -0.55330914
5.3638058 4.4696321 -0.55241227
5.9988437 4.9988055 -0.55255139
6.7688813 5.6404743 -0.54992574
7.7979064 6.4979558 -0.5488795
9.1557302 7.6294231 -0.54515648
11.106563 9.2550421 -0.54095066
14.12459 11.769948 -0.53496981
19.380192 16.149416 -0.52423197
30.865227 25.719835 -0.50089431
1.5930541 1.3610187 -0.56142735
1.653911 1.4130114 -0.56353998
1.6908444 1.4445654 -0.55644292
1.7574342 1.501456 -0.55798531
1.8328234 1.5658644 -0.56076086
1.90617 1.6285278 -0.56127918
1.9797989 1.6914324 -0.5602749
2.0629287 1.7624539 -0.56024754
2.1396439 1.8279952 -0.55673689
2.2474334 1.9200846 -0.55929637
2.3614445 2.0174894 -0.56097293
2.4698832 2.1101336 -0.55889469
2.5913432 2.2139022 -0.55725509
2.7359905 2.3374813 -0.55769449
2.894922 2.4732635 -0.55772638
3.0701668 2.6229832 -0.55724865
3.2822261 2.8041551 -0.55921733
3.4963346 2.9870777 -0.55687696
3.7514973 3.2050748 -0.55594891
4.045929 3.4566214 -0.55483437
4.3948092 3.7546854 -0.55415577
4.8151989 4.1138434 -0.55408531
5.317277 4.5427918 -0.55333149
5.9332013 5.0690036 -0.55220461
6.6964688 5.7210979 -0.54971653
7.7207212 6.5961637 -0.54911423
9.0701218 7.7490177 -0.54569143
11.001483 9.3990679 -0.54142088
13.983863 11.94705 -0.53516346
19.191698 16.396341 -0.52454728
30.586241 26.131216 -0.50154346
1.5765783 1.3808352 -0.56156242
1.6339386 1.4310738 -0.56268817
1.6936843 1.4834018 -0.56333774
1.749589 1.5323654 -0.56143457
1.8044658 1.5804288 -0.55798835
1.8886504 1.6541615 -0.56206727
1.9620799 1.7184741 -0.56119812
2.0367043 1.7838334 -0.55904031
2.1257715 1.8618423 -0.5590421
2.2310998 1.9540933 -0.56116891
2.3333423 2.0436418 -0.56022447
2.4417608 2.1385994 -0.55843949
2.5582569 2.2406316 -0.55602288
2.7043319 2.3685706 -0.55713594
2.8722293 2.5156221 -0.55927169
3.0530298 2.673975 -0.56006378
3.2256539 2.8251667 -0.55545557
3.4438751 3.0162942 -0.55438703
3.7179723 3.2563603 -0.55687255
4.0147901 3.5163262 -0.55645156
4.3634291 3.8216789 -0.55608237
4.7671857 4.1753063 -0.55442637
5.2744722 4.6196098 -0.55474645
5.8705211 5.1416554 -0.55221349
6.6381097 5.8139424 -0.55075294
7.6267891 6.6798706 -0.54823405
8.9715738 7.8576913 -0.54553437
10.892564 9.5401764 -0.54179293
13.856292 12.135938 -0.53595179
19.005175 16.64555 -0.52500385
30.301399 26.53927 -0.50218594
1.5490614 1.3907609 -0.55781037
1.6024565 1.4386994 -0.55789661
1.6663072 1.4960252 -0.5603081
1.7173176 1.5418228 -0.55712056
1.7865337 1.6039656 -0.55849999
1.8543544 1.6648556 -0.55791098
1.9291978 1.7320507 -0.55784261
2.0196817 1.8132879 -0.56044573
2.1099319 1.8943154 -0.56095988
2.2025743 1.9774904 -0.56006777
2.309232 2.0732486 -0.56051421
2.4173183 2.1702898 -0.55891055
2.5403044 2.2807074 -0.55817413
2.6880889 2.4133897 -0.55986106
2.8295197 2.5403676 -0.55699581
3.0121329 2.7043192 -0.55861938
3.2033331 2.8759806 -0.55765951
3.4272089 3.0769782 -0.55775273
3.6709642 3.2958238 -0.5558598
3.9632916 3.5582778 -0.55533624
4.3156781 3.8746536 -0.55602682
4.7122502 4.2306995 -0.55404574
5.1988778 4.6675982 -0.55279052
5.8049564 5.2117405 -0.55203265
6.568861 5.8975811 -0.55098259
7.5469856 6.7757497 -0.54844517
8.8876781 7.9794354 -0.54635793
10.766349 9.6661224 -0.54138613
13.70012 12.300088 -0.53572083
18.825428 16.901634 -0.52573991
30.010258 26.943472 -0.50281364
1.5389341 1.416227 -0.56039208
1.5900501 1.4632672 -0.55979931
1.6421387 1.5112026 -0.55838752
1.7236449 1.5862098 -0.56545806
1.772614 1.6312743 -0.56037682
1.8385417 1.6919453 -0.55937076
1.9145906 1.7619305 -0.55984128
1.9951702 1.836085 -0.55986667
2.0692761 1.904282 -0.55633426
2.1781471 2.0044723 -0.5600816
2.2867374 2.104404 -0.56129271
2.3830361 2.1930244 -0.55717689
2.514622 2.3141181 -0.55874121
2.6490965 2.4378703 -0.55794126
2.7934499 2.5707138 -0.55607599
2.9785855 2.7410877 -0.55860656
3.1541986 2.902698 -0.55527753
3.3816047 3.1119719 -0.55651647
3.6317656 3.3421862 -0.55610526
3.9224501 3.6096931 -0.5557909
4.2558327 3.9164932 -0.55447924
4.6558495 4.2846146 -0.55356711
5.1438832 4.7337346 -0.55309039
5.745573 5.2874489 -0.55252665
6.4896574 5.9722037 -0.5504573
7.4678402 6.8723907 -0.54879326
8.7881927 8.0874653 -0.5463143
10.663216 9.8129826 -0.54222673
13.570509 12.488461 -0.53661686
18.620174 17.13549 -0.52585244
29.715771 27.346378 -0.50347555
1.5144885 1.4285184 -0.55784464
1.5773278 1.4877908 -0.56171864
1.6189762 1.5270751 -0.55685443
1.6939497 1.5977926 -0.56211925
1.7610526 1.6610864 -0.56313646
1.8152267 1.7121853 -0.55864048
1.8945017 1.7869602 -0.56034994
1.9731189 1.8611147 -0.5600583
2.055166 1.9385045 -0.55890709
2.1585484 2.0360181 -0.56143725
2.2510023 2.123224 -0.55888748
2.3668201 2.2324677 -0.55976158
2.4924297 2.3509469 -0.56019121
2.6233239 2.4744108 -0.5588792
2.7694204 2.6122143 -0.55764455
2.9329236 2.7664361 -0.55638069
3.1279032 2.9503479 -0.55699295
3.3522353 3.1619456 -0.55803961
3.5963156 3.3921707 -0.55702198
3.8747756 3.654824 -0.55536169
4.213829 3.9746308 -0.55533236
4.5975928 4.3366103 -0.55293894
5.0952997 4.8060651 -0.55417901
5.6702752 5.3484015 -0.55156833
6.4209356 6.0564508 -0.5509035
7.3745422 6.9559259 -0.54818124
8.6846418 8.191658 -0.54609752
10.550008 9.9511366 -0.54265124
13.403501 12.642651 -0.5361197
18.410004 17.36496 -0.52590746
29.409195 27.739782 -0.50402242
1.4934249 1.4437598 -0.55658323
1.5532948 1.5016387 -0.5596934
1.6176214 1.5638261 -0.56295997
1.6692455 1.6137334 -0.56046379
1.7315873 1.6740019 -0.56025422
1.7916909 1.7321067 -0.55790991
1.8741504 1.811824 -0.56087768
1.9511251 1.8862388 -0.56035668
2.0276992 1.9602666 -0.55795056
2.1252105 2.0545349 -0.55929482
2.2237227 2.149771 -0.55863541
2.3357589 2.2580812 -0.55894005
2.4579372 2.3761964 -0.55896366
2.5900509 2.5039165 -0.55830783
2.7354023 2.6444342 -0.55730021
2.9081979 2.8114834 -0.5582062
3.0877533 2.9850676 -0.55633759
3.3002264 3.1904747 -0.55587053
3.5556633 3.437417 -0.55723011
3.8374679 3.7098498 -0.55651069
4.1683064 4.029686 -0.55582118
4.5602765 4.4086208 -0.55492878
5.0346169 4.8671865 -0.55404645
5.601758 5.4154673 -0.55133933
6.3505783 6.1393847 -0.55130243
7.2871528 7.0448127 -0.54808307
8.5901222 8.304451 -0.54653382
10.423444 10.076804 -0.54247373
13.259428 12.818476 -0.53662109
18.236168 17.629709 -0.52709448
29.107941 28.139933 -0.5047515
1.4861947 1.47255 -0.56059456
1.5329633 1.5188892 -0.55905491
1.5914549 1.5768437 -0.56055909
1.6405692 1.6255072 -0.55750448
1.7031045 1.6874684 -0.55771011
1.7816795 1.765322 -0.56150937
1.849492 1.8325118 -0.56019938
1.9188125 1.901196 -0.5577485
2.0072391 1.9888109 -0.55900764
2.0996444 2.0803678 -0.55925655
2.2064228 2.1861656 -0.56100023
2.3159995 2.2947364 -0.56092155
2.4275377 2.4052505 -0.55873412
2.5552633 2.5318036 -0.55747777
2.7102053 2.685323 -0.55885178
2.870209 2.8438578 -0.55758446
3.0679963 3.0398293 -0.55947036
3.2793446 3.2492371 -0.55904073
3.5021038 3.4699512 -0.55548126
3.7830415 3.7483096 -0.55525994
4.1169071 4.0791101 -0.55561382
4.5062919 4.46492 -0.55499858
4.9701362 4.9245057 -0.55357254
5.5520353 5.5010624 -0.55306137
6.2788782 6.2212324 -0.55167735
7.2059646 7.1398072 -0.54853845
8.4859905 8.4080811 -0.54644531
10.300476 10.205909 -0.54256433
13.112583 12.992197 -0.53710312
18.017328 17.851912 -0.52707416
28.777447 28.513243 -0.50506216
1.4681711 1.4909098 -0.56066889
1.5232551 1.546847 -0.56240863
1.5783563 1.6028014 -0.56284481
1.6270738 1.6522737 -0.55978036
1.6867276 1.7128514 -0.55920208
1.7585528 1.7857889 -0.56109893
1.8282013 1.8565161 -0.56062287
1.9068893 1.9364228 -0.56116158
1.9870846 2.0178602 -0.5602625
2.0789268 2.1111248 -0.56061029
2.1759937 2.2096949 -0.56012958
2.2797744 2.3150833 -0.55900049
2.3945639 2.4316504 -0.55798465
2.5331764 2.5724099 -0.5595178
2.6727049 2.7140992 -0.55795866
2.8345034 2.8784037 -0.55748183
3.0209908 3.0677793 -0.55773544
3.2287621 3.2787688 -0.55724865
3.466691 3.5203824 -0.55668831
3.7411549 3.7990973 -0.55592668
4.0676532 4.1306524 -0.5557794
4.4547596 4.5237541 -0.55546081
4.9140625 4.9901705 -0.55411953
5.4683599 5.5530529 -0.55148631
6.2019453 6.2979999 -0.55168045
7.132031 7.2424903 -0.54964817
8.3801012 8.5098906 -0.54632366
10.192151 10.350005 -0.54352105
12.967607 13.168447 -0.53775668
17.812855 18.088737 -0.52755952
28.468819 28.909739 -0.50584638
1.443554 1.5024228 -0.55828094
1.5005429 1.5617356 -0.56107086
1.5521657 1.6154636 -0.56054658
1.6073462 1.6728944 -0.56002808
1.6732579 1.7414942 -0.56179345
1.7391487 1.8100719 -0.5619669
1.8102785 1.8841023 -0.56218874
1.8754112 1.9518912 -0.55891907
1.9551413 2.0348728 -0.55826879
2.04725 2.1307378 -0.55909133
2.1445391 2.2319944 -0.55905539
2.2531788 2.3450644 -0.55950749
2.3730149 2.4697874 -0.55999768
2.4937656 2.5954626 -0.55782002
2.6410809 2.748785 -0.55837077
2.8025713 2.9168613 -0.55821359
2.9830825 3.1047339 -0.55774295
3.1819224 3.3116825 -0.55615073
3.4296851 3.5695491 -0.55775207
3.7015183 3.8524675 -0.55703396
4.0210996 4.185082 -0.55640799
4.3966174 4.5759134 -0.55518508
4.8485494 5.0462751 -0.55368733
5.4060526 5.6265135 -0.55213833
6.1365552 6.3868065 -0.55280793
7.0368834 7.3238502 -0.54921436
8.2845125 8.6223583 -0.54696268
10.054538 10.464566 -0.54300344
12.80714 13.329421 -0.53785866
17.601955 18.319769 -0.52794516
28.155182 29.303362 -0.50663769
1.433646 1.5293115 -0.56167936
1.4869627 1.5861859 -0.56324345
1.529271 1.6313174 -0.55948037
1.6000776 1.7068489 -0.56476557
1.6509889 1.7611574 -0.56154519
1.7148638 1.8292947 -0.5613457
1.7816259 1.9005116 -0.56050569
1.8571733 1.9811002 -0.56070137
1.9274224 2.0560369 -0.55753076
2.0250151 2.1601419 -0.56023067
2.1048369 2.24529 -0.55586088
2.2212176 2.3694367 -0.55876362
2.3370817 2.4930325 -0.55871004
2.4679589 2.632643 -0.55924636
2.6165788 2.7911799 -0.56040448
2.7701223 2.9549692 -0.55894542
