# .PCD v0.7 - Point Cloud Data file format
VERSION 0.7
FIELDS x y z
SIZE 4 4 4
TYPE F F F
COUNT 1 1 1
WIDTH 1499
HEIGHT 1
VIEWPOINT 0 0 0 1 0 0 0
POINTS 1499
DATA ascii
5.7119274 0.81310612 -0.5531202
6.2344499 0.88748842 -0.55094165
6.8805594 0.97946358 -0.54987615
7.6732531 1.0923054 -0.54844809
8.6645594 1.2334201 -0.54624122
9.9535084 1.4169049 -0.54365832
11.682589 1.6630435 -0.53978169
14.16031 2.015753 -0.53518212
17.93421 2.5529764 -0.52709216
24.463209 3.4823945 -0.51348728
38.509304 5.4818888 -0.48494577
2.0680213 0.32037777 -0.56073385
2.1464717 0.33253133 -0.5626995
2.2087927 0.34218606 -0.55925596
2.2858138 0.35411817 -0.55837154
2.3811929 0.36889434 -0.5605191
2.4743629 0.3833282 -0.56055653
2.5694261 0.3980554 -0.55944186
2.6841972 0.41583571 -0.56085277
2.7793715 0.43058014 -0.55640858
2.9099388 0.4508076 -0.55715722
3.0604413 0.47412345 -0.55935431
3.1937239 0.4947716 -0.55601907
3.3690112 0.52192706 -0.55740428
3.5522404 0.55031294 -0.55708677
3.7540178 0.58157229 -0.55644137
3.9705589 0.6151188 -0.55446917
4.2156067 0.65308166 -0.55260009
4.5360994 0.70273238 -0.55586272
4.8587203 0.75271279 -0.55397594
5.2500463 0.81333697 -0.55391991
5.6842399 0.88060224 -0.55144596
6.2366395 0.96617997 -0.55214328
6.8644719 1.0634438 -0.54959399
7.6685691 1.1880145 -0.5491159
8.6449099 1.3392692 -0.54599941
9.9284258 1.5381114 -0.5432803
11.668744 1.8077214 -0.54012823
14.127146 2.1885769 -0.53490537
17.912352 2.7749808 -0.52741271
24.448448 3.7875526 -0.51411617
38.437588 5.9547496 -0.48492807
2.0676441 0.34640396 -0.56174409
2.1301205 0.35687098 -0.55952108
2.2073877 0.36981598 -0.5600093
2.2767072 0.38142946 -0.55725056
2.372472 0.39747351 -0.55957443
2.4510903 0.41064483 -0.55638611
2.5613089 0.42911038 -0.55878109
2.6645958 0.44641465 -0.55786198
2.785398 0.46665326 -0.55872154
2.9040771 0.48653623 -0.55713826
3.0553384 0.51187789 -0.55952972
3.1954103 0.53534496 -0.55741656
3.3679633 0.56425369 -0.55833668
3.5291541 0.59125888 -0.55456448
3.7521157 0.62861294 -0.55726302
3.96749 0.66469574 -0.55514002
4.2292671 0.70855278 -0.55549085
4.5087943 0.75538355 -0.55361313
4.8563666 0.81361419 -0.55480629
5.2324991 0.87662983 -0.55316401
5.6886158 0.95304555 -0.55296558
6.2083368 1.0401174 -0.55072826
6.8573389 1.1488483 -0.55011231
7.6171432 1.2761425 -0.54651582
8.6318159 1.4461364 -0.54625422
9.9290991 1.6634774 -0.54439527
11.644958 1.950945 -0.54009688
14.107841 2.3635654 -0.53523439
17.868849 2.9936678 -0.52717584
24.389837 4.0861659 -0.51390141
38.38208 6.4303646 -0.48518869
2.0533428 0.37001914 -0.55905259
2.121531 0.38230687 -0.55845749
2.1935987 0.39529371 -0.55770206
2.2880862 0.41232067 -0.5612343
2.3614626 0.42554334 -0.55816972
2.4582026 0.44297621 -0.55919474
2.5424678 0.45816106 -0.55585772
2.6680927 0.48079911 -0.55978954
2.7726333 0.49963766 -0.55735135
2.9051774 0.5235225 -0.55854213
3.0374029 0.54734999 -0.55743563
3.1825852 0.57351232 -0.55636746
3.3543701 0.60446852 -0.55727327
3.528779 0.63589758 -0.55569226
3.743511 0.67459303 -0.55717492
3.9679635 0.71504009 -0.55639452
4.2213621 0.76070338 -0.55563921
4.5176592 0.81409705 -0.55588865
4.8303876 0.87045175 -0.5530194
5.2152801 0.93981063 -0.55252361
5.6474419 1.0176877 -0.55013806
6.2102408 1.1191058 -0.55207616
6.8427949 1.2330942 -0.55012035
7.6151204 1.3722697 -0.54753995
8.6213617 1.5535978 -0.54676026
9.8893099 1.7820863 -0.54337412
11.612902 2.0926831 -0.53976274
14.057817 2.5332649 -0.53447795
17.847448 3.2161689 -0.52767134
24.341337 4.3863893 -0.51397711
38.320343 6.9054518 -0.48544493
2.0624256 0.39789814 -0.56281507
2.114203 0.40788737 -0.55780655
2.1932826 0.42314401 -0.55890226
2.267761 0.43751293 -0.55752629
2.3625982 0.45580959 -0.55972058
2.4563136 0.47388989 -0.56004828
2.5623598 0.49434906 -0.56149328
2.6561527 0.51244432 -0.55856425
2.7640319 0.53325713 -0.5568983
2.8902874 0.55761522 -0.55695558
3.0358689 0.58570188 -0.55843359
3.174443 0.61243659 -0.5562185
3.353889 0.64705664 -0.55847293
3.5190868 0.67892778 -0.55543864
3.7148662 0.71669894 -0.55418128
3.9388371 0.75990903 -0.55357873
4.213501 0.81289917 -0.5558781
4.4820905 0.86471742 -0.5527786
4.8347683 0.93275863 -0.55479211
5.2259097 1.0082204 -0.55492127
5.6522064 1.0904647 -0.55186671
6.1723328 1.1908113 -0.54996634
6.8156939 1.3149332 -0.5492
7.6127052 1.4686984 -0.54862338
8.5942802 1.6580709 -0.54629445
9.8780785 1.9057506 -0.54400349
11.599322 2.2378256 -0.54036975
14.049253 2.7104838 -0.53537899
17.797537 3.4336302 -0.52740413
24.292654 4.6867151 -0.51412714
38.23035 7.3756766 -0.48541713
2.050602 0.42183292 -0.5609616
2.1200745 0.43612427 -0.56072825
2.1781633 0.4480738 -0.5564115
2.2675362 0.46645883 -0.55883884
2.3531122 0.48406282 -0.55884117
2.4446154 0.50288612 -0.55874872
2.5487633 0.52431053 -0.55988425
2.6379495 0.5426572 -0.55609751
2.777982 0.57146353 -0.56108236
2.8746116 0.59134138 -0.5552941
3.0307722 0.62346548 -0.55886406
3.1691597 0.65193337 -0.55665529
3.3325834 0.68555158 -0.55628693
3.5210705 0.72432554 -0.55711544
3.723856 0.76604092 -0.55688548
3.9381316 0.81011993 -0.5548377
4.2008376 0.86416167 -0.55556738
4.4858818 0.92279857 -0.5546037
4.8093185 0.98933327 -0.55322587
5.2015486 1.0700196 -0.55368966
5.6371121 1.1596202 -0.55174345
6.1683407 1.2689002 -0.55095923
6.8170271 1.4023426 -0.55065525
7.5831413 1.5599413 -0.54783374
8.5727081 1.7635068 -0.54626036
9.8575363 2.0278111 -0.54420424
11.565734 2.3792074 -0.54012704
14.002774 2.8805354 -0.53491724
17.746859 3.6507373 -0.52719277
24.238667 4.9861789 -0.5142433
38.150795 7.8480668 -0.48559564
2.0379696 0.44542083 -0.55896193
2.1154535 0.46235582 -0.56096733
2.1918318 0.47904915 -0.56136543
2.2642112 0.49486843 -0.55947679
2.3551772 0.51475006 -0.56079245
2.4462063 0.5346455 -0.56057262
2.5451396 0.55626845 -0.56054848
2.6422379 0.57749039 -0.55845624
2.763741 0.60404623 -0.55966395
2.880116 0.62948126 -0.55781043
3.0211401 0.66030365 -0.55854291
3.1722245 0.6933248 -0.55864888
3.3357005 0.72905427 -0.55826145
3.5198681 0.76930618 -0.55837971
3.7028501 0.80929893 -0.55519038
3.9375103 0.86058646 -0.55619901
4.2059808 0.91926366 -0.55770034
4.4721646 0.97744113 -0.55435187
4.7996187 1.0490098 -0.55355203
5.1880746 1.1339113 -0.55369782
5.6221294 1.2287787 -0.55171418
6.1662917 1.3477113 -0.55221468
6.7999172 1.4861972 -0.55070776
7.5808697 1.6568831 -0.54910004
8.5286884 1.8640393 -0.54487473
9.8264132 2.1476715 -0.54390287
11.534804 2.5210593 -0.54008949
13.954804 3.0499771 -0.534477
17.703861 3.8693748 -0.52728903
24.18092 5.285008 -0.51435804
38.091705 8.3253641 -0.48610982
2.0348899 0.47103563 -0.55966359
2.1056924 0.48742494 -0.55992597
2.1832755 0.50538385 -0.56072319
2.2484281 0.52046537 -0.55711615
2.3435845 0.54249215 -0.55957818
2.4367189 0.56405085 -0.55994558
2.5330036 0.58633876 -0.55942118
2.6340778 0.60973543 -0.55827403
2.7619655 0.63933885 -0.56085396
2.8949575 0.67012376 -0.56223834
3.0082324 0.69634455 -0.55769742
3.1626956 0.73209965 -0.55851394
3.3151147 0.76738161 -0.55635339
3.4905808 0.80799842 -0.55526787
3.6913486 0.8544721 -0.55499929
3.9154763 0.90635312 -0.5546189
4.1675167 0.96469533 -0.55413109
4.4658175 1.0337459 -0.55509877
4.8007398 1.1112735 -0.55521536
5.1669588 1.1960459 -0.55297202
5.5985751 1.2959563 -0.55092484
6.1341267 1.4199256 -0.55085617
6.7709155 1.5673292 -0.54987824
7.5504928 1.7477854 -0.54841501
8.5376072 1.9762825 -0.54695576
9.7918043 2.2666035 -0.54348886
11.520996 2.6668763 -0.54093754
13.944543 3.2278779 -0.53556365
17.675882 4.0916071 -0.52791429
24.127705 5.5850725 -0.51464796
37.988792 8.7936325 -0.48613963
2.0337183 0.49718714 -0.56098038
2.1061292 0.5148896 -0.56168324
2.1717331 0.53092796 -0.55939329
2.264709 0.55365795 -0.56279463
2.346657 0.5736919 -0.56195366
2.4206393 0.59177846 -0.55788052
2.5292864 0.61833966 -0.56023717
2.6236048 0.64139789 -0.55768371
2.7436786 0.67075258 -0.55877316
2.8509486 0.69697708 -0.55531371
2.9912314 0.73127234 -0.55617064
3.1476755 0.76951849 -0.55749035
3.3194692 0.81151724 -0.5587166
3.4872379 0.85253197 -0.55636162
3.6860206 0.90112883 -0.55582219
3.9043586 0.95450634 -0.55466473
4.1722946 1.0200092 -0.55639207
4.4542489 1.0889391 -0.55528325
4.7727656 1.1668074 -0.55359757
5.1554499 1.2603631 -0.55335712
5.6011596 1.3693267 -0.55279434
6.1230998 1.4969264 -0.55147719
6.7506018 1.6503329 -0.54983503
7.5222778 1.8389862 -0.54796666
8.503583 2.0788879 -0.54637235
9.7631226 2.3868098 -0.54348475
11.461213 2.8019454 -0.53970748
13.889672 3.3956356 -0.53501946
17.616003 4.3066192 -0.52766764
24.036974 5.8763666 -0.51421511
37.883663 9.2614946 -0.48621488
2.0234241 0.52111804 -0.55986607
2.0849502 0.5369637 -0.55775374
2.1486247 0.55336255 -0.5551517
2.2501276 0.57950383 -0.56089944
2.3394258 0.60250193 -0.56195366
2.4158852 0.62219352 -0.55850589
2.5221975 0.64957345 -0.56039381
2.6183934 0.674348 -0.55829638
2.7236404 0.70145363 -0.5564068
2.8478613 0.73344582 -0.556427
2.9760923 0.76647073 -0.55506617
3.1268318 0.80529261 -0.55551046
3.2991617 0.84967488 -0.55701494
3.4816537 0.89667434 -0.55718768
3.6644239 0.94374555 -0.55427361
3.9043946 1.0055482 -0.55638438
4.1455646 1.0676599 -0.55453634
4.439127 1.1432647 -0.55510867
4.7619996 1.2264181 -0.55405617
5.1440387 1.3248094 -0.55383897
5.5731907 1.4353344 -0.55173415
6.1090918 1.5733519 -0.55191636
6.7235937 1.7316122 -0.54932797
7.5107832 1.9343472 -0.5488205
8.4824982 2.1846054 -0.54670233
9.7486401 2.5106909 -0.54435605
11.436867 2.9454813 -0.54022574
13.849788 3.5669112 -0.53513217
17.556866 4.5216422 -0.52752179
23.979898 6.1758471 -0.51457983
37.767391 9.7267141 -0.4862209
2.0177166 0.54618865 -0.56010282
2.0821826 0.56363934 -0.55882519
2.1584771 0.58429193 -0.55951136
2.2338517 0.60469562 -0.55865359
2.3215353 0.62843126 -0.55947012
2.4081051 0.65186536 -0.55851811
2.5078354 0.67886204 -0.55901521
2.609045 0.70625913 -0.55811262
2.7066648 0.73268443 -0.55473745
2.8357291 0.76762164 -0.55585873
2.988529 0.80898398 -0.55919874
3.1378417 0.84940249 -0.5592798
3.2855368 0.88938296 -0.55651897
3.471849 0.93981701 -0.55742592
3.6565442 0.98981339 -0.5548808
3.8948314 1.0543168 -0.55682689
4.1282082 1.117491 -0.55401081
4.4313045 1.1995382 -0.55593294
4.733943 1.2814614 -0.5525834
5.1329179 1.3894624 -0.55443925
5.5696855 1.5076939 -0.55318069
6.0914211 1.6489258 -0.55210996
6.7213645 1.8194492 -0.55093211
7.4728694 2.0228789 -0.54782629
8.4494934 2.2872474 -0.54634649
9.7108784 2.6286998 -0.54401124
11.405975 3.0875566 -0.54051906
13.82239 3.7416711 -0.53581077
17.51268 4.7406192 -0.52790576
23.914799 6.47365 -0.51485211
37.686161 10.201509 -0.48675331
2.0077586 0.57007897 -0.55924225
2.0779834 0.59001845 -0.55960304
2.1449013 0.60901892 -0.55789131
2.2393064 0.63582414 -0.56193048
2.3102784 0.65597576 -0.55865896
2.4153244 0.6858024 -0.56210595
2.4929929 0.7078554 -0.55760479
2.6083484 0.74060917 -0.55986935
2.7108364 0.76970947 -0.55749011
2.83814 0.80585581 -0.55823159
2.9638736 0.84155631 -0.55647957
3.1248035 0.88725048 -0.55885822
3.283041 0.93218005 -0.55799562
3.463747 0.98348933 -0.55802453
3.6635728 1.0402274 -0.55784625
3.8711691 1.0991719 -0.55533433
4.1259522 1.1715145 -0.55559927
4.3988428 1.2489985 -0.55374533
4.7246437 1.3415059 -0.55338156
5.1017499 1.4485806 -0.55295479
5.5311551 1.570505 -0.55123019
6.0733342 1.7244502 -0.55235076
6.6857424 1.8983363 -0.54988402
7.4657121 2.1197991 -0.54917091
8.4247313 2.3921013 -0.546606
9.6704645 2.7458124 -0.54359764
11.366185 3.2272916 -0.54047316
13.75787 3.9063818 -0.53513128
17.461861 4.9580855 -0.52817178
23.842648 6.7698336 -0.51505202
37.56184 10.665234 -0.48680466
1.9957514 0.59328175 -0.55788755
2.063026 0.61328059 -0.55756366
2.1397755 0.63609612 -0.55855036
2.2352955 0.66449159 -0.56293184
2.3002431 0.68379867 -0.55822331
2.3983517 0.71296364 -0.56015384
2.4832618 0.73820513 -0.55741644
2.5879188 0.76931679 -0.55747265
2.7130718 0.8065213 -0.55994701
2.8267736 0.84032166 -0.55798608
2.9554722 0.87858021 -0.55688852
3.1062799 0.92341119 -0.55753392
3.2569935 0.96821415 -0.55555004
3.4399991 1.0226167 -0.55618244
3.6317508 1.0796192 -0.55498022
3.8618524 1.1480219 -0.55598086
4.10743 1.2210255 -0.555085
4.3791938 1.3018132 -0.55324513
4.7029281 1.3980505 -0.55280983
5.082727 1.5109543 -0.55286491
5.5255966 1.6426072 -0.55264741
6.0485401 1.7980639 -0.55206496
6.6636715 1.9809253 -0.55003059
7.4263139 2.207638 -0.54822826
8.3916311 2.4946001 -0.54640734
9.6443987 2.8670132 -0.54407299
11.320269 3.3652029 -0.54021657
13.70476 4.0740466 -0.53497362
17.399998 5.1725388 -0.52818447
23.760351 7.0632958 -0.51511151
37.451698 11.133355 -0.48711461
2.0033371 0.622446 -0.56210506
2.0630963 0.64101344 -0.55967063
2.1437235 0.66606474 -0.56167638
2.2274692 0.69208485 -0.56306148
2.2966588 0.7135824 -0.55944055
2.391027 0.74290305 -0.56053436
2.4829524 0.77146465 -0.55943406
2.5803795 0.8017357 -0.55793005
2.6870103 0.83486646 -0.55664492
2.8230772 0.87714309 -0.55934322
2.9465361 0.91550231 -0.55728376
3.0978928 0.96252954 -0.55811071
3.2671978 1.0151334 -0.55937749
3.4270539 1.0648015 -0.55616438
3.6299548 1.1278436 -0.55678302
3.8441894 1.1944072 -0.55551046
4.0897512 1.2707045 -0.55476552
4.3699012 1.3577484 -0.55413848
4.7000284 1.4603205 -0.55453783
5.0792365 1.578142 -0.55455416
5.5020084 1.7094992 -0.55234891
6.0264769 1.8724539 -0.55211091
6.646657 2.0651467 -0.55068058
7.4084706 2.3018458 -0.54895902
8.3663492 2.5994632 -0.54680109
9.5973825 2.9819508 -0.54344809
11.295041 3.5094211 -0.54103112
13.667161 4.2464495 -0.53550375
17.352682 5.3915582 -0.52872074
23.681122 7.3578334 -0.51531637
37.324795 11.596985 -0.48728195
1.9807755 0.64224631 -0.55794835
2.0457804 0.66332358 -0.55714387
2.1247895 0.68894142 -0.55889285
2.2013602 0.71376872 -0.55863804
2.2780712 0.73864144 -0.55708319
2.3748369 0.77001679 -0.55891633
2.4593775 0.79742813 -0.55628961
2.5751064 0.83495212 -0.55896759
2.6780055 0.86831605 -0.55694926
2.8125536 0.91194189 -0.55943763
2.9394789 0.95309615 -0.55812335
3.078867 0.99829137 -0.55685252
3.2417076 1.0510907 -0.55718404
3.4164934 1.1077633 -0.55661905
3.6244967 1.1752063 -0.55812019
3.8209498 1.2389041 -0.55431169
4.0757465 1.3215194 -0.55502808
4.3575301 1.412885 -0.55473089
4.6773963 1.5165982 -0.55402595
5.034771 1.6324733 -0.55184931
5.4862771 1.7788696 -0.55292374
6.0058994 1.9473519 -0.55237776
6.6247363 2.1480033 -0.55101115
7.3770614 2.3919373 -0.54876959
8.3244419 2.6991158 -0.54619002
9.5617838 3.1003113 -0.54354995
11.246741 3.6466415 -0.54082459
13.616267 4.4149361 -0.53559625
17.282763 5.6037602 -0.52864987
23.586168 7.6475759 -0.51525748
37.179852 12.055189 -0.48728809
1.9810423 0.66936141 -0.56029963
2.0488286 0.69226533 -0.56024987
2.1135931 0.71414816 -0.55821544
2.1803939 0.73671901 -0.5555743
2.2950466 0.77545822 -0.56352353
2.3708422 0.80106837 -0.56025207
2.4668498 0.83350772 -0.56025571
2.5775361 0.87090677 -0.56177706
2.6706412 0.90236545 -0.55768317
2.8007774 0.94633633 -0.5593676
2.9232218 0.98770827 -0.55730051
3.0577335 1.0331576 -0.55528599
3.2266428 1.0902293 -0.55685681
3.4122117 1.1529299 -0.55818897
3.5874083 1.2121259 -0.55466229
3.8104475 1.2874871 -0.55504286
4.0519118 1.369074 -0.55403298
4.3400126 1.4664185 -0.55475444
4.6473279 1.5702553 -0.5527097
5.0392656 1.7026844 -0.55459487
5.4542575 1.8429034 -0.55193889
5.9621639 2.0145166 -0.55059195
6.5833821 2.224416 -0.54980499
7.3388524 2.4796767 -0.54815406
8.3022842 2.8052044 -0.54695809
9.5367384 3.222306 -0.54433745
11.196816 3.7832189 -0.54061997
13.564416 4.5831919 -0.53573298
17.21118 5.8153729 -0.52860767
23.502449 7.9410887 -0.51552278
37.083763 12.52999 -0.48801121
1.9535798 0.68695861 -0.55487955
2.0345445 0.71542913 -0.55870724
2.0979023 0.73770833 -0.55642509
2.1792254 0.76630485 -0.55763543
2.2756991 0.80022889 -0.56114668
2.3584764 0.82933676 -0.55969745
2.4428627 0.85901052 -0.55716479
2.5606413 0.90042627 -0.56046563
2.6822312 0.94318223 -0.56248271
2.7805543 0.97775668 -0.5576877
2.9086688 1.022807 -0.55688173
3.0675914 1.0786906 -0.55944264
3.2098548 1.1287163 -0.55631274
3.3903961 1.192202 -0.55697626
3.5898743 1.2623466 -0.55740136
3.8032475 1.3373774 -0.55634743
4.0390916 1.4203099 -0.55462617
4.3305941 1.5228142 -0.555902
4.6410103 1.6319691 -0.55430305
4.9984441 1.7576574 -0.55243909
5.4262991 1.9081087 -0.55144227
5.9381342 2.0880909 -0.55070233
6.5492096 2.3029699 -0.54927456
7.3168664 2.5729096 -0.54883343
8.25737 2.9036293 -0.54631007
9.4953203 3.338943 -0.5442757
11.157405 3.9234002 -0.54100561
13.510685 4.7509098 -0.53587765
17.136049 6.0257359 -0.5285359
23.412075 8.2326441 -0.51572198
36.944004 12.991024 -0.48823729
1.9650688 0.71826774 -0.56060904
2.0307045 0.74225879 -0.56011683
2.0862684 0.76256835 -0.5557844
2.1665621 0.79191709 -0.55684471
2.2454555 0.82075405 -0.55613571
2.3321164 0.85243022 -0.5558874
2.4331088 0.88934469 -0.55739218
2.538379 0.92782283 -0.55804789
2.6471167 0.96756846 -0.55757183
2.7692189 1.012199 -0.55786842
2.9077394 1.0628307 -0.55916363
3.0600147 1.11849 -0.56052673
3.1949759 1.1678208 -0.55618078
3.3632908 1.2293428 -0.55496484
3.5687454 1.3044401 -0.55656916
3.7760696 1.3802209 -0.55481255
4.029686 1.4729222 -0.55577958
4.3094115 1.5751669 -0.55562723
4.6236448 1.6900247 -0.55466914
4.9880705 1.8232288 -0.55372858
5.4125581 1.9783866 -0.55247629
5.9355607 2.1695535 -0.55289596
6.5540628 2.395627 -0.55211043
7.2785993 2.6604581 -0.54837549
8.2272406 3.0072036 -0.54672188
9.4599943 3.4577968 -0.5446468
11.114729 4.0626321 -0.54131764
13.459287 4.91961 -0.5361979
17.069363 6.2391572 -0.52880538
23.32398 8.5253315 -0.51605165
36.796188 13.449664 -0.48843253
1.9587569 0.74338764 -0.56137371
2.0089679 0.76244372 -0.55666524
2.1102233 0.80087221 -0.56474686
2.1609967 0.82014167 -0.55796409
2.2427547 0.85117048 -0.55801684
2.3458414 0.89029402 -0.56172591
2.4247622 0.92024601 -0.55803019
2.5456891 0.96614027 -0.56222427
2.6356111 1.0002674 -0.55769694
2.7570441 1.0463537 -0.55796552
2.8786027 1.0924876 -0.55610192
3.0261722 1.1484932 -0.55687237
3.1928978 1.2117689 -0.55837065
3.35359 1.2727549 -0.55590457
3.5414453 1.3440497 -0.55484706
3.7727618 1.431839 -0.55687135
4.0169449 1.5245113 -0.55656576
4.2772374 1.6232976 -0.55401063
4.6012874 1.7462811 -0.55452108
4.9663911 1.8848453 -0.55385292
5.381474 2.0423777 -0.55182523
5.9004283 2.2393312 -0.55214667
6.5062261 2.4692438 -0.55059683
7.2456937 2.7498865 -0.54840243
8.1965132 3.1107416 -0.54718047
9.4067688 3.5700581 -0.54406875
11.071009 4.2016706 -0.54166365
13.402262 5.0864277 -0.53637725
16.979088 6.4439054 -0.52842343
23.226223 8.8148193 -0.51624787
36.659096 13.912865 -0.48884672
1.9453052 0.76577657 -0.56017488
2.0062165 0.78975451 -0.55855149
2.0860374 0.82117629 -0.56093407
2.1497014 0.84623784 -0.55769229
2.2436042 0.88320303 -0.56088793
2.3117454 0.91002709 -0.55619889
2.4179988 0.95185411 -0.55912507
2.5302813 0.99605453 -0.56148392
2.6199396 1.0313488 -0.55702227
2.7496347 1.0824038 -0.55911738
2.8917439 1.1383456 -0.56130224
3.0299261 1.1927415 -0.56021971
3.1724749 1.2488564 -0.55744255
3.34833 1.3180825 -0.55767715
3.5344617 1.3913538 -0.55639136
3.7319903 1.4691118 -0.553478
3.998316 1.5739517 -0.55662411
4.2797046 1.6847215 -0.55697137
4.5733085 1.8002996 -0.55377525
4.9348154 1.9426082 -0.55295378
5.3592029 2.1096699 -0.55215985
5.8636103 2.3082318 -0.55131567
6.4824095 2.5518243 -0.55119509
7.2229328 2.8433342 -0.54928446
8.1495771 3.208111 -0.54663926
9.3584833 3.6840014 -0.54385501
11.001523 4.33079 -0.54082859
13.342097 5.2521658 -0.53651357
16.927753 6.6636724 -0.52933598
23.133133 9.1064434 -0.51662862
36.491638 14.365067 -0.48893216
1.9334182 0.78868908 -0.55950218
1.9905571 0.81199747 -0.55692947
2.0824797 0.84949499 -0.56274372
2.1363742 0.87147987 -0.5569728
2.2259278 0.90801096 -0.55921793
2.3145607 0.94416654 -0.55962723
2.4059479 0.98144561 -0.5590868
2.5170987 1.0267868 -0.56131798
2.6110904 1.0651283 -0.55788326
2.7379794 1.1168896 -0.55949771
2.8467081 1.1612426 -0.55529028
2.9927993 1.2208368 -0.55608875
3.1592796 1.2887483 -0.55786633
3.3296506 1.3582468 -0.55730557
3.51317 1.4331089 -0.55577171
3.7276604 1.5206048 -0.55556685
3.979013 1.6231377 -0.55667335
4.2424078 1.730583 -0.55484492
4.544312 1.8537372 -0.55298245
4.9066787 2.0015554 -0.552517
5.3272171 2.1731036 -0.55157572
5.8340998 2.3798735 -0.55125076
6.4515495 2.6317468 -0.55128109
7.1810718 2.9293365 -0.5487988
8.1125536 3.3093112 -0.54684401
9.316946 3.8006127 -0.54411584
10.968759 4.4744277 -0.54188168
13.291729 5.4220252 -0.53712851
16.826853 6.8640895 -0.52878016
23.019928 9.390398 -0.51664013
36.344215 14.825704 -0.48936254
1.9215692 0.81155491 -0.55891889
1.9922482 0.84140545 -0.56025505
2.0737844 0.87584144 -0.56326175
2.1260796 0.89792776 -0.55712539
2.2072568 0.93221211 -0.55736494
2.3051546 0.97355825 -0.5602051
2.3750525 1.0030788 -0.55473173
2.4780691 1.0465869 -0.55544215
2.5961382 1.0964521 -0.55752712
2.7169058 1.1474571 -0.55803251
2.8326778 1.1963522 -0.55538106
2.9955332 1.2651324 -0.55944496
3.13557 1.3242756 -0.55651301
3.3158717 1.4004241 -0.55783939
3.4927216 1.4751148 -0.55536431
3.70873 1.5663438 -0.55557406
3.9523134 1.6692188 -0.5557676
4.2295971 1.7863265 -0.55600017
4.5384526 1.9167686 -0.55509561
4.8927436 2.0663998 -0.5537672
5.3117304 2.2433543 -0.55278665
5.8072653 2.4526386 -0.55152321
6.3988924 2.7025063 -0.54957962
7.1632805 3.0253375 -0.55024058
8.0784121 3.411834 -0.54732931
9.2832098 3.9206676 -0.54491991
10.896807 4.6021538 -0.54108191
13.218217 5.5825772 -0.53689128
16.764942 7.0805006 -0.52953058
22.89395 9.6690235 -0.51644212
36.186855 15.283144 -0.48973709
1.9122251 0.8354609 -0.55914688
1.9739974 0.86244953 -0.55806273
2.0406981 0.89159137 -0.55721074
2.1306286 0.93088251 -0.56127447
2.2056134 0.96364379 -0.55989975
2.2907491 1.0008399 -0.55965275
2.383986 1.0415757 -0.55976743
2.4853828 1.0858765 -0.56003201
2.5941117 1.1333807 -0.5600425
2.6954181 1.1776419 -0.55655122
2.8427303 1.2420034 -0.56030393
2.9684484 1.2969302 -0.55732286
3.127634 1.3664793 -0.55804455
3.3025723 1.4429107 -0.5585447
3.4844208 1.5223613 -0.55697888
3.7051282 1.6187894 -0.55797416
3.9296587 1.716888 -0.55550861
4.1967511 1.8335822 -0.55460441
4.5157433 1.9729513 -0.55524331
4.8725929 2.1288607 -0.55440742
5.2747383 2.3045602 -0.5518443
5.7841253 2.5271139 -0.55223501
6.3809071 2.7878511 -0.55093753
7.103353 3.1034913 -0.54852718
8.0290489 3.5079327 -0.54686594
9.2327271 4.0338259 -0.54482704
10.857634 4.7437558 -0.54199219
13.137208 5.7397132 -0.53642708
16.675528 7.2856231 -0.52949595
22.808027 9.9649439 -0.5172289
35.997993 15.727707 -0.48976141
1.9019886 0.85899115 -0.55919993
1.9654601 0.88765657 -0.55869269
2.0360417 0.91953325 -0.55898452
2.1098185 0.9528529 -0.55883676
2.1924634 0.99017763 -0.55961013
2.2639856 1.0224791 -0.55614382
2.366508 1.0687811 -0.55870712
2.4590018 1.1105539 -0.55712259
2.5796628 1.1650476 -0.5599736
2.6780796 1.2094955 -0.55600005
2.8101659 1.2691494 -0.55691934
2.9430084 1.3291447 -0.55557311
3.1128228 1.4058377 -0.55844402
3.2788591 1.4808242 -0.55757165
3.4673121 1.5659349 -0.55727994
3.6806321 1.6622761 -0.55732125
3.9075246 1.7647471 -0.55540526
4.1823421 1.8888624 -0.5557276
4.4703608 2.0189397 -0.55267394
4.8366709 2.1843755 -0.55333453
5.2623129 2.3766072 -0.5535599
5.7514191 2.5975015 -0.55212015
6.3492689 2.867507 -0.55120856
7.0780168 3.1966298 -0.54956448
7.9946718 3.6106169 -0.54750711
9.174963 4.1436691 -0.54438394
10.788136 4.8722229 -0.54147267
13.097315 5.915113 -0.53772742
16.598225 7.4962215 -0.52992827
22.669336 10.238105 -0.51689959
35.838715 16.185762 -0.49026516
1.9011554 0.88691771 -0.56211889
1.9672463 0.91775012 -0.56236577
2.0154965 0.94025964 -0.55647612
2.1073551 0.98311299 -0.56134379
2.1771829 1.0156888 -0.55885547
2.2614863 1.0550176 -0.5586744
2.3516674 1.0970885 -0.55834609
2.4493856 1.1426755 -0.55808514
2.5597968 1.1941839 -0.5588066
2.6770494 1.2488841 -0.55893213
2.7899532 1.3015554 -0.55604333
2.9365513 1.3699456 -0.55749208
3.0823822 1.437978 -0.55611312
3.2498631 1.5161104 -0.55576909
3.4594843 1.6139019 -0.55916917
3.6415465 1.6988366 -0.55452406
3.8787673 1.8095037 -0.55443853
4.1487703 1.9354643 -0.55438721
4.4699397 2.0852945 -0.55574995
4.8232698 2.2501283 -0.55492485
5.2196326 2.4350376 -0.55217826
5.7242751 2.6704609 -0.55262488
6.2954268 2.9369118 -0.5496279
7.0441375 3.2861967 -0.55002987
7.9434042 3.7057183 -0.54707533
9.1228809 4.2559619 -0.54435772
10.745167 5.0127831 -0.54236883
13.009218 6.0689969 -0.53713381
16.509569 7.7019639 -0.53008133
22.562212 10.525614 -0.51736903
35.663059 16.637358 -0.49062377
1.8724786 0.90173727 -0.55687636
1.9440352 0.9361971 -0.55897915
2.0107729 0.96833628 -0.55841726
2.0884864 1.0057611 -0.55956972
2.1609373 1.0406516 -0.55792791
2.2551355 1.086015 -0.56036216
2.3456457 1.1296023 -0.5601719
2.4371471 1.1736671 -0.55854267
2.5489831 1.2275244 -0.5596987
2.6653037 1.2835414 -0.55973279
2.7786462 1.3381242 -0.55702704
2.9177277 1.4051023 -0.55715644
3.062722 1.4749277 -0.55579615
3.2435057 1.5619886 -0.55792433
3.4339805 1.6537162 -0.55829144
3.6315336 1.7488527 -0.55623198
3.8772373 1.8671772 -0.55745959
4.1331797 1.9904326 -0.55553246
4.4400754 2.1382256 -0.55526394
4.7887001 2.3061142 -0.55416816
5.2109251 2.5094469 -0.55447948
5.6820974 2.7363513 -0.55175966
6.2684402 3.018719 -0.55047101
6.983932 3.3632812 -0.54851663
7.8988423 3.8038783 -0.54718637
9.0919161 4.3784318 -0.54568136
10.668756 5.1377969 -0.54165989
12.93392 6.2286415 -0.53714657
16.415844 7.9054456 -0.5301531
22.453964 10.813249 -0.51789665
35.492188 17.092121 -0.49112734
1.8662691 0.92718595 -0.5583781
1.9437444 0.96567667 -0.5622673
1.9931072 0.9902007 -0.55685055
2.0746727 1.0307235 -0.55922216
2.1599617 1.073096 -0.56104046
2.2412701 1.1134912 -0.56027675
2.3225455 1.1538699 -0.55800152
2.4294584 1.2069855 -0.5601396
2.5304937 1.2571812 -0.55899101
2.6397624 1.3114672 -0.55771345
2.7747796 1.3785454 -0.5596078
2.9043758 1.4429305 -0.55795276
3.0469048 1.5137405 -0.55626154
3.2207403 1.6001043 -0.5573507
3.414114 1.6961747 -0.55841029
3.5996709 1.7883618 -0.55467796
3.8344364 1.9049963 -0.55463177
4.1055818 2.0397048 -0.55515218
4.40728 2.1895921 -0.55448782
4.7634516 2.3665426 -0.55457199
5.1715145 2.5692735 -0.55360579
5.6415739 2.8028049 -0.55112964
6.2478862 3.1040285 -0.55197608
6.9581003 3.4568717 -0.54978478
7.8724751 3.9111447 -0.54864997
9.0257206 4.4840918 -0.54497653
10.614267 5.2733016 -0.5421446
12.849699 6.3838921 -0.53686839
16.328571 8.1122398 -0.53051609
22.32987 11.09376 -0.51814163
35.305405 17.540169 -0.49149007
1.8509007 0.9481023 -0.55722594
1.9329751 0.99014395 -0.56263149
1.9978877 1.0233947 -0.56165957
2.0578444 1.0541068 -0.55813771
2.1302295 1.0911852 -0.55676079
2.2179358 1.1361117 -0.55789369
2.3115113 1.1840447 -0.5588063
2.4024956 1.2306503 -0.55736989
2.5134308 1.2874756 -0.55867672
2.6183524 1.3412204 -0.55663234
2.746141 1.4066787 -0.55727839
2.8874142 1.4790442 -0.558146
3.0391707 1.5567797 -0.55830222
3.2009633 1.6396561 -0.55737519
3.3659871 1.7241876 -0.5539645
3.5732009 1.8303305 -0.55402535
3.818526 1.9559954 -0.55576742
4.0872898 2.0936666 -0.55611789
4.3807888 2.2440081 -0.5545845
4.73139 2.4235995 -0.55426699
5.1389699 2.6323774 -0.55354518
5.6232071 2.8804221 -0.55275369
6.2020674 3.1769366 -0.55133772
6.9167113 3.5430048 -0.54991525
7.8105469 4.0008616 -0.54772121
8.9875259 4.603755 -0.54604715
10.555976 5.4071755 -0.54252231
12.784846 6.5488882 -0.53748262
16.224367 8.3107433 -0.53041065
22.198086 11.37071 -0.51828891
35.110405 17.984896 -0.49181694
1.8521866 0.97769457 -0.56119001
1.9205221 1.0137662 -0.56259269
1.9791505 1.0447137 -0.5599612
2.0419066 1.0778401 -0.55736756
2.1331813 1.1260203 -0.56110865
2.2137904 1.1685706 -0.56042302
2.2958212 1.2118714 -0.55857348
2.3989289 1.2662977 -0.56011248
2.5058336 1.3227285 -0.560561
2.6091764 1.3772789 -0.55823982
2.7355549 1.443989 -0.55869114
2.8742509 1.5172011 -0.55916548
3.0100036 1.5888593 -0.55649114
3.1756117 1.6762773 -0.55650789
3.3532317 1.7700356 -0.55540532
3.5692599 1.8840683 -0.55696428
3.8063138 2.0091994 -0.55754364
4.0566397 2.1413364 -0.55548823
4.3585634 2.3007097 -0.55531037
4.696353 2.4790154 -0.55369163
5.0933671 2.6885829 -0.55215234
5.5905304 2.9510152 -0.55306679
6.1548285 3.2488856 -0.55064815
6.8690376 3.6258879 -0.5496282
7.7684779 4.100666 -0.54826564
8.9127007 4.7046552 -0.54497468
10.50245 5.5438194 -0.54323381
12.707009 6.7075176 -0.53763717
16.130434 8.5146046 -0.53072244
22.07233 11.651093 -0.51865858
34.916931 18.43124 -0.4922443
1.8417668 1.0013411 -0.56172121
1.8842545 1.024441 -0.55561668
1.9770889 1.0749137 -0.56307501
2.0433316 1.1109289 -0.56144297
2.105196 1.1445637 -0.55740738
2.2001748 1.1962022 -0.56065744
2.2904561 1.2452868 -0.56095129
2.3754656 1.2915052 -0.55829996
2.4792597 1.3479365 -0.55828196
2.5945234 1.4106036 -0.55877358
2.7158554 1.47657 -0.55833381
2.8364384 1.5421293 -0.55545646
2.9895794 1.6253897 -0.55636817
3.1623547 1.7193251 -0.55784744
3.331774 1.8114358 -0.55549854
3.5443583 1.9270147 -0.55673397
3.7798328 2.0550387 -0.55732411
4.0265689 2.1891854 -0.55501467
4.3269143 2.3524787 -0.55492163
4.6645889 2.5360672 -0.55358148
5.0656829 2.7541361 -0.55278075
5.5453887 3.014945 -0.55222684
6.1274753 3.3314168 -0.55182421
6.825738 3.7110519 -0.54977334
7.7111034 4.1924119 -0.5478133
8.8622952 4.8182979 -0.54547411
10.411077 5.660347 -0.54206675
12.633172 6.8684673 -0.53804588
16.019297 8.7094526 -0.53054941
21.930479 11.923274 -0.5187313
34.712952 18.872913 -0.49260303
1.8196517 1.0185019 -0.55875373
1.8814478 1.0530906 -0.5585652
1.9559879 1.0948125 -0.56085712
2.028244 1.1352558 -0.56109059
2.0900207 1.1698337 -0.55715591
2.1763742 1.2181678 -0.55836731
2.2715981 1.2714669 -0.56011945
2.3587782 1.3202636 -0.5581513
2.4694936 1.3822337 -0.5598678
2.5661149 1.4363148 -0.55641699
2.7018387 1.5122826 -0.55923289
2.8259702 1.581762 -0.55717319
2.9734857 1.6643299 -0.55713964
3.1369174 1.7558064 -0.55712664
3.3350768 1.8667209 -0.559834
3.5248868 1.972962 -0.5574441
3.744936 2.0961287 -0.55593705
3.9962628 2.2368023 -0.55458665
4.3140306 2.4146643 -0.55703515
4.6356211 2.5946662 -0.5538882
5.0457706 2.8242364 -0.55435556
5.5341687 3.0976045 -0.55486065
6.0813541 3.403877 -0.5513984
6.785326 3.7979066 -0.55023825
7.663527 4.2894564 -0.5481391
8.7973919 4.9241071 -0.54516488
10.346614 5.7912431 -0.54237717
12.546095 7.0223441 -0.53797418
15.92617 8.9142523 -0.53105527
21.805035 12.204791 -0.51927465
34.509579 19.315825 -0.49305034
1.8143092 1.0450135 -0.56101662
1.8755224 1.0802714 -0.56070727
1.9401202 1.1174787 -0.56020492
2.0094428 1.1574075 -0.55978429
2.0777974 1.1967787 -0.5577783
2.1521702 1.2396162 -0.55602622
2.2578824 1.3005047 -0.56063825
2.3412642 1.3485315 -0.55788869
2.4462514 1.4090023 -0.55848426
2.5563104 1.4723946 -0.55817467
2.6793451 1.5432607 -0.55846274
2.8068924 1.6167259 -0.5572893
2.9570873 1.7032359 -0.55794913
3.1092186 1.790861 -0.55607629
3.2956209 1.8982259 -0.55708688
3.4922125 2.0114596 -0.55614632
3.7176468 2.1413062 -0.55575275
3.973284 2.2885492 -0.55526108
4.2729583 2.4611568 -0.55559748
4.6108279 2.6557646 -0.55478585
5.0081053 2.8845899 -0.5540725
5.4676247 3.149266 -0.55202973
6.0415645 3.4798462 -0.55162871
6.7342262 3.8788083 -0.54992062
7.6217799 4.3900251 -0.54897267
8.7662268 5.0492086 -0.54703975
10.288785 5.9261785 -0.54312462
12.466147 7.180305 -0.53829134
15.819096 9.1115503 -0.53118068
21.648884 12.469417 -0.5191682
34.294941 19.753347 -0.49341676
1.7980398 1.0652972 -0.55999404
1.8627176 1.1036174 -0.56089389
1.9233822 1.1395597 -0.5593757
1.9868739 1.1771771 -0.55748737
2.0732245 1.228338 -0.56056309
2.1436918 1.2700881 -0.55782849
2.2279239 1.3199937 -0.55718768
2.333461 1.382522 -0.56003779
2.4185045 1.4329084 -0.55613017
2.5420263 1.5060921 -0.55905724
2.6517072 1.5710756 -0.55668664
2.8048799 1.6618268 -0.56090444
2.9377103 1.7405257 -0.55828905
3.0942824 1.8332912 -0.55739462
3.2805679 1.9436611 -0.55854017
3.4628291 2.0516467 -0.55544251
3.7004101 2.1924078 -0.55716401
3.9501638 2.3403814 -0.55600977
4.2381835 2.5110264 -0.5550487
4.5703874 2.7078495 -0.55388439
4.9668918 2.9427693 -0.55347443
5.4428992 3.2247925 -0.55349505
5.9932642 3.5508714 -0.55116367
6.7077384 3.9741807 -0.55170649
7.5577097 4.4777694 -0.54828233
8.6741362 5.1392264 -0.54519534
10.209247 6.0487442 -0.54281121
12.370302 7.3291197 -0.53800356
15.729812 9.3195524 -0.53199047
21.506723 12.74224 -0.51947725
34.074512 20.188366 -0.49377966
1.7746465 1.0811356 -0.55680662
1.8493168 1.1266257 -0.56098777
1.9079934 1.1623721 -0.5590148
1.9814674 1.2071333 -0.56009293
2.0500364 1.2489064 -0.55840343
2.1297846 1.2974899 -0.55831903
2.2212029 1.353183 -0.55962586
2.3062661 1.4050045 -0.55761522
2.4007995 1.4625955 -0.55615246
2.5200124 1.5352212 -0.55832529
2.6175201 1.5946242 -0.55358422
2.7635183 1.6835681 -0.55673099
2.9113953 1.7736565 -0.55739075
3.0652719 1.8673999 -0.55626309
3.2367094 1.9718416 -0.55515909
3.4422524 2.0970609 -0.55623615
3.6782525 2.240835 -0.5579344
3.909714 2.381844 -0.55439681
4.2064261 2.5626044 -0.55497444
4.5441108 2.768326 -0.55478346
4.9316411 3.0044141 -0.55362123
5.4013209 3.2905486 -0.55333972
5.957015 3.6290841 -0.55189222
6.6324296 4.0405545 -0.54955739
7.5062084 4.5728707 -0.54858387
8.6242781 5.2540126 -0.54608101
10.130773 6.1717868 -0.54263288
12.279302 7.4806957 -0.53800577
15.599533 9.5034199 -0.53149641
21.372259 13.020232 -0.5200572
33.847878 20.620527 -0.49413243
1.7696122 1.1081299 -0.55946004
1.8358479 1.1496066 -0.56114775
1.8927348 1.1852291 -0.55877197
1.9590511 1.2267563 -0.55797839
2.0449386 1.280539 -0.56126148
2.1211863 1.3282853 -0.5603044
2.2013364 1.3784752 -0.55884886
2.2962601 1.4379163 -0.55942869
2.3968432 1.5009015 -0.55946898
2.50632 1.5694557 -0.55952519
2.6249301 1.6437292 -0.55938375
2.7602482 1.7284653 -0.56031156
2.8883572 1.8086871 -0.5571959
3.045867 1.9073195 -0.55695564
3.2307713 2.0231066 -0.55836535
3.4333835 2.1499822 -0.55903274
3.635947 2.2768273 -0.555722
3.893877 2.4383428 -0.55636066
4.1672153 2.6095071 -0.55399275
4.5065212 2.8219802 -0.55438876
4.8847599 3.0588329 -0.55253899
5.3581848 3.3552914 -0.55310553
5.913434 3.7029879 -0.55203134
6.5879517 4.1253705 -0.55003369
7.4455094 4.6623721 -0.54829627
8.5659695 5.3640037 -0.54652405
10.064309 6.3022633 -0.54318273
12.202213 7.641017 -0.53870416
15.480892 9.6941233 -0.53147542
21.215117 13.28489 -0.52016908
33.641308 21.06616 -0.49486101
1.7535765 1.1283393 -0.5587346
1.813638 1.1669859 -0.55870295
1.8857708 1.2133998 -0.56107849
1.948216 1.2535802 -0.55924046
2.0290239 1.305576 -0.56125724
2.0977674 1.3498091 -0.55846041
2.1753883 1.3997544 -0.55658907
2.269223 1.4601322 -0.55717379
2.3660803 1.5224551 -0.55661607
2.4875991 1.6006464 -0.55969745
2.608644 1.6785328 -0.56026924
2.7274649 1.7549882 -0.55799526
2.8674986 1.8450929 -0.55750668
3.0274069 1.947986 -0.55791795
3.2035732 2.0613401 -0.55800325
3.4034755 2.1899674 -0.55850548
3.6160173 2.3267274 -0.55700666
3.8502297 2.4774315 -0.55443501
4.1472311 2.6685371 -0.55565637
4.4689898 2.8755729 -0.55407971
4.8474584 3.1190987 -0.5526163
5.3110662 3.417407 -0.55253768
5.859796 3.7704878 -0.55131066
6.5378208 4.2067628 -0.55012542
7.3928947 4.7569604 -0.54868776
8.4930534 5.4648576 -0.54611796
9.996871 6.4324899 -0.54377079
12.105247 7.789125 -0.53861099
15.378115 9.8950529 -0.53208393
21.070713 13.557957 -0.52067679
33.406612 21.495495 -0.49525934
1.7430093 1.1520883 -0.55983913
1.8044555 1.1927028 -0.56034988
1.8639091 1.2320002 -0.55903906
1.9262743 1.2732221 -0.55739403
1.991962 1.3166401 -0.5554418
2.0945408 1.3844423 -0.56209093
2.1670542 1.432372 -0.55892086
2.2651081 1.4971833 -0.56064141
2.3609047 1.5605026 -0.5598703
2.4791067 1.6386313 -0.56227773
2.5818896 1.7065685 -0.5589878
2.7084899 1.7902483 -0.55857468
2.8410063 1.8778385 -0.55680329
3.0010221 1.9836053 -0.55750841
3.1740816 2.0979934 -0.55731773
3.3555353 2.2179301 -0.55507201
3.595979 2.3768578 -0.55837989
3.8333936 2.5337832 -0.55645514
4.1184387 2.7221913 -0.55624145
4.4308658 2.9286983 -0.55377603
4.8131018 3.1813471 -0.55311739
5.2670002 3.4813635 -0.55236506
5.8176413 3.8453245 -0.55175149
6.4887438 4.2889075 -0.55039191
7.334446 4.8478966 -0.54873258
8.4331894 5.5741401 -0.54663461
9.9117193 6.551414 -0.54347992
12.032162 7.9529762 -0.53966951
15.259988 10.086494 -0.5322479
20.91449 13.823988 -0.52097756
33.153595 21.913748 -0.49546567
1.7360263 1.1783973 -0.56220782
1.7936877 1.2175373 -0.56161278
1.8690765 1.2687104 -0.56522524
1.9145824 1.2995994 -0.55859274
1.9915624 1.3518527 -0.55992329
2.0841613 1.4147078 -0.56393123
2.1573756 1.4644049 -0.56102645
2.2428877 1.5224497 -0.55973285
2.3329086 1.583555 -0.55780673
2.4280393 1.6481289 -0.55524987
2.551702 1.7320698 -0.55702114
2.6789651 1.8184546 -0.55705506
2.8195736 1.9138983 -0.55717301
2.9781029 2.0215063 -0.55782634
3.1546929 2.1413741 -0.55849457
3.3380215 2.2658155 -0.5567416
3.5519936 2.4110577 -0.55611145
3.7991879 2.5788507 -0.55605096
4.0747714 2.765914 -0.55489528
4.407362 2.9916732 -0.55539417
4.7788801 3.243856 -0.55372667
5.2372818 3.5550146 -0.55379105
5.7703323 3.9168441 -0.55179083
6.4365997 4.3690996 -0.55048436
7.2877779 4.9468708 -0.54975045
8.3631105 5.676796 -0.54657555
9.8314724 6.6735053 -0.54353827
11.931006 8.0986481 -0.53955835
15.144643 10.280032 -0.53259349
20.736887 14.075992 -0.52082556
32.919487 22.345419 -0.49603587
1.7106822 1.19218 -0.55870545
1.77101 1.2342228 -0.55922186
1.8361893 1.2796464 -0.55999601
1.8899267 1.3170962 -0.55608243
1.9712511 1.3737714 -0.55891985
2.0572059 1.4336736 -0.56136537
2.1371603 1.4893942 -0.56048977
2.2238262 1.5497919 -0.55968946
2.3173783 1.6149887 -0.55879939
2.4205999 1.6869242 -0.55825001
2.5311513 1.7639679 -0.55722785
2.6660502 1.8579793 -0.55907804
2.7927709 1.9462912 -0.55656374
2.9425166 2.0506496 -0.5558418
3.1207249 2.1748435 -0.55717331
3.3269708 2.3185771 -0.55961138
3.5289953 2.4593685 -0.55720335
3.7659869 2.6245289 -0.55587298
4.0461187 2.8197536 -0.55567318
4.3654852 3.0423212 -0.55478936
4.7444863 3.3064485 -0.55441064
5.1853881 3.6137142 -0.55296057
5.7282763 3.9920547 -0.55242145
6.3711944 4.4401064 -0.54951847
7.2180595 5.0302896 -0.54911578
8.2930088 5.7794251 -0.5465973
9.7426395 6.7896776 -0.54320174
11.833761 8.2469873 -0.53970581
15.011521 10.461579 -0.53239566
20.596857 14.354018 -0.52170223
32.670723 22.768335 -0.49646851
1.6874896 1.2071116 -0.55593652
1.7640232 1.2618583 -0.56187272
1.8161656 1.2991574 -0.55871898
1.8843386 1.3479235 -0.55927277
1.9574306 1.4002084 -0.55984074
2.0355675 1.456102 -0.56030416
2.1216996 1.517715 -0.56128705
2.1917953 1.5678566 -0.55643803
2.3047888 1.648684 -0.56060976
2.3951409 1.7133156 -0.55719513
2.5203266 1.8028647 -0.55968291
2.6304979 1.8816736 -0.5564326
2.7791896 1.9880371 -0.55868667
2.9389389 2.1023107 -0.56000692
3.0949488 2.2139091 -0.55738956
3.2808461 2.3468869 -0.556665
3.4984121 2.5025184 -0.55719107
3.7239902 2.6638811 -0.55446714
4.0162101 2.8729148 -0.55637515
4.3373632 3.1026452 -0.55602193
4.7107091 3.3697104 -0.55526352
5.1426516 3.6786919 -0.55318522
5.6839719 4.0659142 -0.55292857
6.3282776 4.5268054 -0.55057633
7.1578035 5.1201901 -0.54927999
8.2247458 5.8834052 -0.54682499
9.6686869 6.9162998 -0.54377919
11.728189 8.3895235 -0.53955513
14.910814 10.666149 -0.53343523
20.419127 14.606409 -0.52171034
32.443233 23.207611 -0.49731055
1.6874897 1.2387581 -0.56091243
1.7500767 1.2847021 -0.56241971
1.8035631 1.3239655 -0.55980802
1.8734339 1.3752565 -0.56101298
1.9363595 1.4214491 -0.55877107
2.0123858 1.4772588 -0.5588811
2.109756 1.5487367 -0.56312287
2.1736858 1.5956664 -0.55677968
2.2817719 1.6750106 -0.55997878
2.3898518 1.7543503 -0.5609408
2.5009844 1.8359308 -0.56035858
2.613718 1.9186867 -0.55783165
2.7515624 2.019876 -0.55808365
2.9111702 2.1370413 -0.55968052
3.060102 2.2463696 -0.55604643
3.2532234 2.3881369 -0.55691868
3.4698217 2.547138 -0.55758381
3.7061803 2.720645 -0.55675441
3.9728088 2.9163725 -0.55528861
4.2887836 3.1483243 -0.55471522
4.6699457 3.428129 -0.55538547
5.1009655 3.7445335 -0.55361223
5.6291451 4.1322613 -0.55249631
6.2686701 4.6017261 -0.55027175
7.1016874 5.2132301 -0.54985142
8.1493158 5.9822769 -0.54665947
9.588028 7.0384111 -0.54406923
11.628419 8.5362282 -0.53975332
14.778896 10.848941 -0.53344804
20.262129 14.87409 -0.52233267
32.174232 23.618567 -0.4976013
1.6631827 1.2526733 -0.55791074
1.7297584 1.3028167 -0.560996
1.7857032 1.3449531 -0.5593555
1.8452061 1.3897694 -0.55763531
1.9175839 1.4442828 -0.55843568
1.9889959 1.4980688 -0.55745894
2.0807607 1.5671841 -0.56048489
2.1673589 1.6324079 -0.56025827
2.2626712 1.7041951 -0.5603916
2.3673644 1.7830477 -0.5607664
2.4773893 1.8659161 -0.56017041
2.5903299 1.9509805 -0.55791795
2.7197673 2.04847 -0.55670172
2.8793669 2.1686769 -0.55865085
3.0310583 2.2829275 -0.55582786
3.217716 2.4235144 -0.55589968
3.4340363 2.586442 -0.55690187
3.6612234 2.7575543 -0.55505264
3.949017 2.9743145 -0.55703306
4.2537446 3.2038286 -0.55523676
4.6178455 3.4780614 -0.55423367
5.0597219 3.8108733 -0.55417991
5.5805373 4.2031403 -0.55275643
6.2317543 4.6936226 -0.55205578
7.0419517 5.3038459 -0.55023432
8.0787048 6.0847063 -0.54690045
9.5074739 7.1608243 -0.54445362
11.518134 8.67521 -0.53954488
14.655589 11.038274 -0.53385615
20.092251 15.13305 -0.52271086
31.91902 24.040716 -0.4981885
1.6515466 1.2760354 -0.5592286
1.7177739 1.3272046 -0.56235957
1.7699701 1.367533 -0.55965233
1.8349216 1.4177165 -0.5597533
1.9044585 1.4714428 -0.55984014
1.9800382 1.529838 -0.56017834
2.0498064 1.5837431 -0.55735052
2.1442106 1.6566827 -0.55949813
2.2350922 1.7269005 -0.55877805
2.3380411 1.8064419 -0.55903989
2.4467671 1.890447 -0.5584603
2.5696278 1.9853729 -0.55867499
2.6998622 2.0859959 -0.55783552
2.8390043 2.1935015 -0.5560109
3.0057254 2.3223152 -0.55637687
3.2010248 2.4732096 -0.5582279
3.4001811 2.6270838 -0.55660826
3.6278484 2.8029866 -0.5551762
3.9106219 3.0214658 -0.5568158
4.2218266 3.2619121 -0.55626398
4.5722961 3.5326958 -0.55393863
5.0045319 3.8666542 -0.5533008
5.528409 4.2714176 -0.55275375
6.1653624 4.7635474 -0.55132163
6.9734998 5.387939 -0.55002093
8.0071087 6.1865368 -0.54716212
9.4235973 7.2809591 -0.54473615
11.420354 8.8237143 -0.54000628
14.515975 11.215486 -0.53375375
19.913994 15.38616 -0.52295589
31.664858 24.465237 -0.49887928
1.6492171 1.3069319 -0.56383884
1.6898123 1.3391017 -0.55855399
1.7599863 1.3947115 -0.56187576
1.8253548 1.4465132 -0.56221843
1.8870995 1.4954431 -0.5601005
1.9679474 1.5595114 -0.56214052
2.04721 1.6223235 -0.5620262
2.1345868 1.6915659 -0.56237197
2.2040055 1.746577 -0.55633348
2.3249242 1.8423998 -0.56127805
2.4231951 1.9202752 -0.55842733
2.5431156 2.0153069 -0.55825645
2.6623015 2.1097565 -0.55539304
2.8300333 2.2426763 -0.55961245
2.9822953 2.3633373 -0.55737698
3.1651773 2.5082633 -0.55731297
3.3614509 2.6638014 -0.55558819
3.6122503 2.8625488 -0.5581336
3.8627679 3.0610731 -0.55531955
4.159101 3.2959042 -0.55329746
4.5287685 3.5888491 -0.55396974
4.9646888 3.9342968 -0.55420262
5.4657898 4.3313971 -0.55177635
6.1032014 4.8365178 -0.55103952
6.9031138 5.4704127 -0.54973334
7.937005 6.2897258 -0.54761529
9.3274574 7.3915977 -0.54439157
11.327394 8.9764605 -0.54078907
14.37765 11.393653 -0.53377873
19.728638 15.634073 -0.52309722
31.379908 24.867191 -0.49916971
1.6316876 1.3260258 -0.5633778
1.6757165 1.3618068 -0.55938756
1.7370095 1.4116178 -0.56003964
1.810896 1.4716634 -0.5632962
1.8674299 1.5176066 -0.55975884
1.94952 1.584319 -0.56239909
2.0157659 1.6381552 -0.55888158
2.0947018 1.7023041 -0.55733663
2.1893289 1.7792048 -0.5581091
2.2962606 1.8661052 -0.55985558
2.389591 1.9419521 -0.55614418
2.5131683 2.0423799 -0.55715334
2.6407759 2.1460829 -0.55636561
2.7983108 2.2741067 -0.55882692
2.9425316 2.3913112 -0.555399
3.1270149 2.5412354 -0.55605352
3.3300724 2.7062542 -0.55585998
3.5513165 2.8860531 -0.55416012
3.8285067 3.1113176 -0.55585217
4.1264806 3.3534725 -0.55440164
4.4888387 3.6479506 -0.5545305
4.9038429 3.9852126 -0.55283892
5.4236131 4.4076152 -0.55294818
6.0381742 4.9070511 -0.5505746
6.8369851 5.556222 -0.54986644
7.8582268 6.3861556 -0.54755658
9.252574 7.5193014 -0.54537624
11.209122 9.1093311 -0.54044932
14.247339 11.578404 -0.53418618
19.547745 15.885892 -0.52344072
31.113457 25.285013 -0.49983925
1.5962431 1.3301413 -0.55674493
1.6658515 1.3881456 -0.56174999
1.7220043 1.4349374 -0.56084824
1.7814485 1.484472 -0.55977196
1.8438029 1.5364316 -0.55829757
1.9382272 1.6151148 -0.56482792
1.9973121 1.6643499 -0.55939704
2.0851734 1.7375643 -0.56044382
2.183156 1.8192127 -0.56219554
2.2671404 1.8891965 -0.55837733
2.3867607 1.9888755 -0.56113482
2.4983971 2.0819016 -0.55951172
2.6296411 2.1912665 -0.55965418
2.7720923 2.3099704 -0.55922121
2.9240224 2.436573 -0.55751836
3.1030474 2.5857537 -0.55740339
3.2996998 2.7496231 -0.55639184
3.5279379 2.9398127 -0.55611086
3.7888486 3.1572282 -0.55568886
4.0900173 3.4081905 -0.55509126
4.4469538 3.7056241 -0.55494332
4.8607349 4.0504255 -0.55355215
5.3762479 4.48 -0.55369365
5.9848509 4.9871454 -0.5512625
6.7672572 5.6391211 -0.54979378
7.7841096 6.4864588 -0.54790843
9.1485281 7.6234221 -0.54472768
11.104865 9.2536278 -0.54086798
14.116395 11.76312 -0.53465945
19.376005 16.145926 -0.52411866
30.831932 25.692093 -0.50035405
1.589758 1.3582026 -0.56026578
1.6425062 1.4032679 -0.55965406
1.704729 1.4564276 -0.56101221
1.7559721 1.5002068 -0.5575211
1.8311234 1.564412 -0.56024075
1.9018605 1.624846 -0.56001025
1.9785701 1.6903824 -0.55992711
2.059016 1.7591109 -0.55918491
2.1511889 1.8378586 -0.5597409
2.2474365 1.9200873 -0.5592972
2.3533206 2.0105488 -0.55904311
2.4737523 2.1134391 -0.55977017
2.6029801 2.2238443 -0.55975753
2.7347755 2.3364432 -0.55744684
2.8948019 2.4731607 -0.5577032
3.0684719 2.6215351 -0.55694097
3.2695549 2.7933295 -0.55705845
3.4983051 2.9887612 -0.55719078
3.7498784 3.2036917 -0.555709
4.04462 3.4555032 -0.5546549
4.4100299 3.7676892 -0.55607498
4.8089705 4.1085219 -0.55336857
5.3170323 4.5425825 -0.55330598
5.9269161 5.0636339 -0.55161965
6.7044563 5.727922 -0.55037224
7.7017908 6.5799904 -0.54776788
9.059576 7.7400079 -0.54505694
11.002746 9.4001465 -0.54148304
13.971727 11.936683 -0.53469902
19.188957 16.393999 -0.52447236
30.557873 26.106981 -0.50107831
1.57105 1.3759934 -0.55959332
1.629781 1.4274324 -0.56125635
1.685321 1.4760767 -0.56055599
1.7422981 1.5259798 -0.55909497
1.8120205 1.5870457 -0.56032449
1.8793058 1.645977 -0.55928636
1.9509599 1.7087348 -0.55801755
2.0297966 1.7777834 -0.55714428
2.1366301 1.8713526 -0.56189764
2.2282658 1.9516112 -0.5604561
2.3298459 2.0405793 -0.55938494
2.4480548 2.1441119 -0.55987889
2.5587506 2.2410641 -0.55613017
2.7100713 2.3735971 -0.55831838
2.8695352 2.5132625 -0.55874711
3.037616 2.660475 -0.55723619
3.2320471 2.8307662 -0.55655646
3.4528341 3.0241411 -0.55582929
3.7206604 3.2587147 -0.55727518
4.0003228 3.5036552 -0.5544464
4.3575211 3.8165047 -0.5553295
4.7637706 4.1723156 -0.55402923
5.260746 4.6075878 -0.55330276
5.860785 5.1331277 -0.55129766
6.6392026 5.8148999 -0.5508436
7.627749 6.6807113 -0.54830301
8.9724712 7.8584766 -0.54558885
10.865092 9.5161152 -0.54042643
13.840045 12.121708 -0.53532338
18.988503 16.630949 -0.52454334
30.264481 26.506935 -0.5015741
1.5537053 1.3949302 -0.55948257
1.6135528 1.4486619 -0.56175983
1.6670198 1.496665 -0.56054771
1.7250679 1.548781 -0.55963486
1.7945503 1.6111629 -0.56100607
1.8556532 1.6660217 -0.55830175
1.923806 1.7272098 -0.55628353
2.0167315 1.8106393 -0.55962706
2.1146138 1.8985188 -0.5622046
2.2020085 1.9769826 -0.55992401
2.304491 2.0689921 -0.55936342
2.4288707 2.1806614 -0.56158155
2.544266 2.2842641 -0.5590446
2.6814513 2.4074306 -0.55847865
2.824306 2.5356867 -0.55596948
3.0078387 2.700464 -0.55782306
3.1984015 2.8715527 -0.55680096
3.4230552 3.0732491 -0.55707675
3.6781785 3.3023009 -0.55695224
3.954607 3.5504808 -0.55411929
4.3046455 3.8647482 -0.55460536
4.7244296 4.2416344 -0.55547774
5.2033486 4.6716118 -0.55326587
5.8065224 5.2131467 -0.5521816
6.5463085 5.8773332 -0.54909098
7.5620718 6.7892942 -0.54954153
8.8781128 7.9708476 -0.54576993
10.769802 9.6692228 -0.54155976
13.694227 12.294797 -0.53549039
18.814791 16.892082 -0.52544284
29.978525 26.914982 -0.50228196
