# .PCD v0.7 - Point Cloud Data file format
VERSION 0.7
FIELDS x y z
SIZE 4 4 4
TYPE F F F
COUNT 1 1 1
WIDTH 1463
HEIGHT 1
VIEWPOINT 0 0 0 1 0 0 0
POINTS 1463
DATA ascii
2.0556142 -5.4669285 -0.55993754
2.2488072 -5.9807272 -0.55901158
2.4876986 -6.6160612 -0.55924225
2.7779081 -7.3878765 -0.55851513
3.1453693 -8.3651438 -0.55778998
3.6197689 -9.6268139 -0.55614984
4.2715583 -11.360256 -0.55517071
5.201088 -13.832349 -0.55294776
6.6532955 -17.694511 -0.55005008
9.2280445 -24.542086 -0.54486269
15.044493 -40.01099 -0.53292507
0.76138663 -1.951727 -0.56134778
0.79630756 -2.0412428 -0.56761926
0.81601113 -2.0917506 -0.56179351
0.84294897 -2.1608028 -0.55989772
0.88057619 -2.2572558 -0.5636217
0.90867043 -2.3292723 -0.55974138
0.94579935 -2.4244478 -0.55994165
0.98974472 -2.5370967 -0.56231886
1.02926 -2.6383896 -0.56026989
1.0826625 -2.7752807 -0.56365317
1.1318873 -2.901463 -0.56251109
1.1853994 -3.038635 -0.56115389
1.2487016 -3.2009029 -0.56176084
1.3087656 -3.3548703 -0.55809402
1.3924816 -3.5694664 -0.56122559
1.4815098 -3.7976801 -0.56254238
1.5773352 -4.0433173 -0.56221163
1.6820936 -4.3118534 -0.56048
1.802916 -4.6215677 -0.55894548
1.9555187 -5.0127473 -0.56101024
2.1170759 -5.4268808 -0.55845982
2.3246031 -5.9588523 -0.55959642
2.5591455 -6.5600753 -0.55712771
2.8627431 -7.3383131 -0.55738729
3.2435541 -8.3144779 -0.55702901
3.7362218 -9.5773745 -0.55590576
4.4065895 -11.295786 -0.55462617
5.3698769 -13.765062 -0.55285573
6.8673143 -17.603571 -0.54980654
9.5151863 -24.391085 -0.54406679
15.506168 -39.74828 -0.53192532
0.78844261 -1.9499242 -0.56357509
0.81210047 -2.0084331 -0.56123018
0.84386623 -2.0869942 -0.56326038
0.87468928 -2.1632237 -0.56326938
0.90754277 -2.2444746 -0.56317425
0.9425993 -2.3311741 -0.56294119
0.97354907 -2.4077172 -0.55880022
1.0202998 -2.5233381 -0.56200755
1.0667174 -2.638135 -0.5629586
1.1155457 -2.758894 -0.56306845
1.1660275 -2.8837423 -0.56181282
1.2226119 -3.0236831 -0.56112653
1.2852792 -3.1786675 -0.56058979
1.3575563 -3.3574188 -0.56125247
1.429985 -3.5365443 -0.55877173
1.5210439 -3.7617455 -0.55994761
1.6170393 -3.9991548 -0.55879349
1.7356418 -4.2924747 -0.56069285
1.8613461 -4.6033583 -0.55946898
2.0127354 -4.9777641 -0.55982256
2.1852777 -5.4044843 -0.55887806
2.3971286 -5.9284201 -0.55946428
2.6538703 -6.5633769 -0.56013721
2.9535818 -7.3046036 -0.55754328
3.344316 -8.2709417 -0.55682522
3.8571262 -9.5391893 -0.55640024
4.5464172 -11.243898 -0.5547815
5.5337148 -13.685617 -0.55235612
7.0750723 -17.497601 -0.54917246
9.8094711 -24.260136 -0.54379529
15.964802 -39.483093 -0.53096342
0.81414509 -1.9443494 -0.56481463
0.83749187 -2.0001066 -0.56173861
0.86655146 -2.0695069 -0.56137407
0.89972645 -2.1487358 -0.56233513
0.93379802 -2.2301059 -0.56240743
0.9739393 -2.3259716 -0.56453419
1.007563 -2.4062719 -0.56129777
1.0514507 -2.5110853 -0.56211573
1.0991871 -2.6250899 -0.56301659
1.1481706 -2.7420723 -0.56247425
1.200367 -2.8667283 -0.56133133
1.259438 -3.0078025 -0.56101102
1.325073 -3.1645527 -0.56093168
1.3991098 -3.341368 -0.56140286
1.4770907 -3.5276029 -0.56018639
1.5732144 -3.7571666 -0.56210315
1.6724095 -3.994065 -0.56091338
1.7833253 -4.2589555 -0.55913651
1.9182429 -4.5811667 -0.55959642
2.0760651 -4.9580793 -0.56043738
2.2536821 -5.3822665 -0.55940396
2.4670012 -5.891717 -0.55882114
2.7297244 -6.519155 -0.55918556
3.0417252 -7.2642784 -0.5572781
3.4438927 -8.2247391 -0.55652362
3.9713283 -9.4843664 -0.55600882
4.6763887 -11.168199 -0.55384171
5.6994395 -13.611458 -0.55214989
7.280098 -17.386402 -0.54845065
10.097065 -24.113913 -0.54325962
16.412512 -39.196526 -0.52978367
0.83402222 -1.9250331 -0.56214005
0.86120361 -1.9877713 -0.56120598
0.89173138 -2.0582335 -0.561248
0.92766362 -2.1411698 -0.56329781
0.95817792 -2.2116008 -0.56066966
0.99897873 -2.3057745 -0.56257105
1.0374674 -2.3946111 -0.5615111
1.0797039 -2.492099 -0.56079519
1.1324522 -2.6138489 -0.5635497
1.1817826 -2.72771 -0.56246644
1.2339932 -2.8482187 -0.56063575
1.2935464 -2.9856756 -0.55980837
1.3641427 -3.1486208 -0.56103855
1.4395055 -3.3225682 -0.56117576
1.5240909 -3.5178025 -0.56156367
1.6116959 -3.7200062 -0.5594663
1.7219331 -3.9744482 -0.56108963
1.83902 -4.2447004 -0.56019151
1.9706278 -4.5484686 -0.55851996
2.1325593 -4.9222274 -0.55930668
2.3152733 -5.3439555 -0.55833888
2.5385728 -5.8593602 -0.55867064
2.80353 -6.4709163 -0.55796266
3.1329846 -7.2313409 -0.55766451
3.5450382 -8.182415 -0.55656731
4.0808864 -9.4192238 -0.55508971
4.8146429 -11.11283 -0.55399001
5.8616533 -13.529468 -0.55170602
7.4920783 -17.292704 -0.54835951
10.374405 -23.945492 -0.54229832
16.871037 -38.940575 -0.5290882
0.85270864 -1.9036493 -0.55891526
0.88649851 -1.9790844 -0.5617885
0.91616249 -2.0453084 -0.56075311
0.94958889 -2.1199319 -0.56074005
0.98839235 -2.2065597 -0.56243026
1.0209755 -2.2793005 -0.55913264
1.0657612 -2.3792837 -0.56094754
1.1161278 -2.4917257 -0.56375694
1.1640804 -2.5987785 -0.56334406
1.2142974 -2.7108867 -0.56203389
1.2728156 -2.841527 -0.56235677
1.3304632 -2.9702237 -0.55993634
1.4011893 -3.128118 -0.560413
1.476035 -3.2952087 -0.55957806
1.5644944 -3.492692 -0.56058383
1.6594698 -3.7047224 -0.56019425
1.7652103 -3.9407852 -0.55935925
1.8904746 -4.2204342 -0.56001461
2.0287485 -4.5291271 -0.55916595
2.191226 -4.8918538 -0.55887479
2.3870518 -5.32903 -0.5598039
2.6057818 -5.8173385 -0.55767697
2.879261 -6.4278736 -0.55726194
3.2236054 -7.1966133 -0.5580011
3.6463056 -8.1402807 -0.55670905
4.1947389 -9.3646431 -0.55487096
4.9465909 -11.043133 -0.5535059
6.023509 -13.447324 -0.55133504
7.6956158 -17.180258 -0.54775316
10.659539 -23.797136 -0.541866
17.311123 -38.646622 -0.52794653
0.87693655 -1.8949354 -0.55948049
0.90980685 -1.9659635 -0.56119728
0.94145459 -2.0343497 -0.56088012
0.97669774 -2.1105051 -0.56138086
1.0100914 -2.1826642 -0.55946314
1.0489211 -2.2665696 -0.55913132
1.0982765 -2.3732197 -0.56265932
1.1481458 -2.4809799 -0.56447732
1.1917458 -2.5751934 -0.5613656
1.2521741 -2.7057705 -0.5641228
1.3112271 -2.8333757 -0.56389189
1.372982 -2.966819 -0.56243473
1.4392313 -3.1099746 -0.56029069
1.5233964 -3.2918434 -0.56214511
1.6121798 -3.4836915 -0.56227851
1.7060244 -3.6864765 -0.56056499
1.812276 -3.9160712 -0.55897218
1.9436285 -4.1999054 -0.5604195
2.0843682 -4.5040236 -0.55918872
2.2485442 -4.8587847 -0.55821341
2.444387 -5.2819729 -0.55797595
2.6806967 -5.7926049 -0.5584237
2.963311 -6.4032941 -0.5582478
3.304383 -7.1403031 -0.55674338
3.7436271 -8.089447 -0.55633867
4.3121324 -9.3179054 -0.55520153
5.0843368 -10.98653 -0.55376065
6.1860938 -13.36727 -0.55112994
7.8997288 -17.070192 -0.54729968
10.936413 -23.632036 -0.5411278
17.752089 -38.359745 -0.52696973
0.90529758 -1.8947426 -0.56266773
0.93368584 -1.9541577 -0.56106216
0.96908683 -2.0282502 -0.56244135
1.0044869 -2.1023409 -0.56245214
1.0352178 -2.1666589 -0.55858129
1.0821153 -2.2648132 -0.56193811
1.1203737 -2.3448861 -0.55916578
1.1694077 -2.4475117 -0.56009191
1.2344964 -2.583739 -0.5664947
1.2744765 -2.6674156 -0.55935127
1.3379835 -2.8003325 -0.56054765
1.4069636 -2.9447043 -0.56147963
1.479315 -3.0961323 -0.56103164
1.5541843 -3.25283 -0.55870414
1.6478931 -3.4489577 -0.55990058
1.7496334 -3.6618953 -0.56005633
1.8599142 -3.8927071 -0.55885947
1.9896499 -4.1642375 -0.55888247
2.1406281 -4.4802275 -0.55946004
2.3099535 -4.8346171 -0.55865788
2.5069342 -5.2468877 -0.55748391
2.7491057 -5.7537403 -0.55789369
3.0389235 -6.3603144 -0.55771643
3.3923786 -7.1000786 -0.55681747
3.8351283 -8.0267315 -0.55522686
4.4247522 -9.2607851 -0.55499798
5.2121868 -10.908847 -0.55303371
6.3438492 -13.277358 -0.55059749
8.1072865 -16.968145 -0.5471828
11.213637 -23.469582 -0.54052442
18.190367 -38.071529 -0.52604336
0.9274289 -1.8812426 -0.5620029
0.95309317 -1.9333013 -0.5583967
0.9895789 -2.0073109 -0.55996674
1.0327121 -2.0948045 -0.56379062
1.0621245 -2.1544659 -0.55876267
1.1114006 -2.25442 -0.56270766
1.1466138 -2.3258481 -0.55794591
1.2065761 -2.4474785 -0.56343693
1.2501224 -2.5358102 -0.55931425
1.3138986 -2.6651769 -0.56222725
1.3712298 -2.7814703 -0.56010479
1.4332801 -2.9073365 -0.55767286
1.5131496 -3.0693476 -0.55950743
1.5961001 -3.2376084 -0.55941838
1.6893357 -3.4267321 -0.55962247
1.7948698 -3.6408029 -0.56016356
1.9134409 -3.8813183 -0.56055999
2.0432651 -4.14466 -0.55958474
2.1921055 -4.4465756 -0.55858159
2.3746955 -4.8169498 -0.55994827
2.5775688 -5.2284679 -0.55885214
2.8275065 -5.7354541 -0.55944955
3.1125648 -6.3136806 -0.55694121
3.4804521 -7.0599213 -0.5569824
3.9336469 -7.9792042 -0.55524313
4.5327911 -9.1945381 -0.55432624
5.3425279 -10.837049 -0.55268246
6.500699 -13.18634 -0.55009627
8.3006611 -16.837471 -0.54621905
11.489736 -23.306349 -0.53997809
18.628151 -37.786263 -0.52522707
0.9482199 -1.8652323 -0.56066078
0.98947787 -1.9463904 -0.56564867
1.0174537 -2.0014215 -0.56177145
1.0575105 -2.0802166 -0.56332165
1.0922288 -2.1485105 -0.56065893
1.1388447 -2.2402081 -0.56261319
1.1768608 -2.3149893 -0.55877024
1.2260742 -2.4117963 -0.55865097
1.2889065 -2.535393 -0.56267548
1.3448859 -2.6455097 -0.56152457
1.4099801 -2.7735555 -0.5619598
1.4794176 -2.9101453 -0.56165862
1.5582702 -3.0652552 -0.56221181
1.6348989 -3.2159905 -0.55911452
1.7336572 -3.4102571 -0.56037098
1.8411286 -3.6216626 -0.56065959
1.954987 -3.8456323 -0.55883563
2.0927298 -4.1165843 -0.55922616
2.2433643 -4.4128962 -0.55777389
2.4320023 -4.7839637 -0.55954778
2.636276 -5.1857877 -0.55771297
2.892082 -5.6889811 -0.55834305
3.1951339 -6.285111 -0.55784458
3.5612352 -7.0052648 -0.55608308
4.0302196 -7.9277987 -0.55507255
4.6460285 -9.1391487 -0.55438924
5.4792261 -10.778122 -0.55307156
6.6579556 -13.096786 -0.54973418
8.5069752 -16.733973 -0.54621363
11.762963 -23.138788 -0.53940636
19.053522 -37.479965 -0.52418649
0.97365719 -1.8583472 -0.5621475
1.0039972 -1.9162548 -0.56043625
1.0469601 -1.998255 -0.5644536
1.0698378 -2.0419199 -0.55647129
1.1202989 -2.1382313 -0.56152886
1.1557143 -2.2058258 -0.55750519
1.2126102 -2.314419 -0.56218916
1.2604703 -2.405766 -0.56080192
1.320672 -2.5206685 -0.56296915
1.3745158 -2.623436 -0.56038439
1.4427042 -2.7535822 -0.56146491
1.5091726 -2.8804455 -0.55946583
1.5869936 -3.0289767 -0.55909473
1.6747082 -3.1963911 -0.55924493
1.7724221 -3.3828902 -0.55941302
1.8839334 -3.5957236 -0.56018788
2.0019507 -3.8209743 -0.55878747
2.1414487 -4.087224 -0.55877256
2.3055472 -4.4004264 -0.55973881
2.4939208 -4.7599611 -0.56028485
2.7032373 -5.1594677 -0.55841506
2.9540615 -5.6381974 -0.55688184
3.2655759 -6.2327619 -0.5567202
3.6464272 -6.9596643 -0.55598056
4.1264653 -7.8758774 -0.55494797
4.7498479 -9.0656815 -0.55343378
5.6083431 -10.704227 -0.55277675
6.815475 -13.00819 -0.54949158
8.7018061 -16.60849 -0.54556912
12.040945 -22.981655 -0.53915411
19.474222 -37.169003 -0.52314699
0.99020457 -1.8346947 -0.55863369
1.0362951 -1.9200932 -0.56524295
1.0651133 -1.9734889 -0.56111497
1.1052018 -2.0477667 -0.56172585
1.1405236 -2.1132123 -0.55859941
1.1894929 -2.2039449 -0.56068414
1.2381868 -2.2941673 -0.56092578
1.2876425 -2.3858006 -0.55979645
1.3519897 -2.5050263 -0.563146
1.4075929 -2.6080503 -0.56075269
1.4764231 -2.7355819 -0.56145394
1.5467122 -2.8658164 -0.56027615
1.6263514 -3.0133755 -0.5598641
1.7183411 -3.1838181 -0.56069964
1.8129275 -3.359072 -0.55911851
1.9277909 -3.5718958 -0.56012642
2.0435359 -3.7863536 -0.55735713
2.1941524 -4.0654221 -0.55943823
2.3578744 -4.3687735 -0.55935824
2.5495532 -4.7239246 -0.55969095
2.7626595 -5.1187778 -0.55764562
3.0240269 -5.6030502 -0.55704105
3.3452468 -6.1982207 -0.55726701
3.7268748 -6.9053178 -0.55525804
4.2296 -7.8367891 -0.55581641
4.860456 -9.0056667 -0.55337679
5.7359118 -10.62775 -0.55242789
6.9730525 -12.91998 -0.54934585
8.896306 -16.483469 -0.54501456
12.302234 -22.794123 -0.53826272
19.896774 -36.86562 -0.52228105
1.0162821 -1.828848 -0.56061608
1.0515157 -1.8922526 -0.5608111
1.0872439 -1.9565474 -0.56005692
1.1315143 -2.0362139 -0.56233096
1.1753223 -2.1150486 -0.56286252
1.2136033 -2.1839371 -0.55934829
1.2695899 -2.2846878 -0.56238252
1.3164333 -2.3689845 -0.55960661
1.3796314 -2.4827125 -0.56190097
1.442129 -2.59518 -0.56175578
1.5060261 -2.710166 -0.55999601
1.5807474 -2.8446302 -0.559892
1.6629699 -2.9925938 -0.55975986
1.7479357 -3.1454935 -0.55769336
1.8537149 -3.3358486 -0.55900478
1.9714795 -3.5477717 -0.56010258
2.0981891 -3.7757914 -0.55955786
2.2443979 -4.0389009 -0.55954415
2.4131649 -4.3426056 -0.55976474
2.6014378 -4.6814117 -0.55840176
2.817102 -5.0695095 -0.55601001
3.0905964 -5.5616755 -0.55666375
3.4208012 -6.1558952 -0.55720139
3.8165913 -6.8681383 -0.55600011
4.3174362 -7.7694325 -0.55476254
4.967783 -8.9397621 -0.55303895
5.8565826 -10.5392 -0.55152673
7.1259108 -12.823416 -0.54892421
9.0966711 -16.369894 -0.54491657
12.569259 -22.61898 -0.53773606
20.318169 -36.563515 -0.52150112
1.0475205 -1.8316513 -0.56538117
1.0757571 -1.8810248 -0.56136149
1.1090202 -1.9391873 -0.55894899
1.1543404 -2.0184321 -0.56129777
1.1998644 -2.0980337 -0.56221831
1.2472168 -2.1808321 -0.56243849
1.299839 -2.2728453 -0.56335926
1.3550462 -2.3693781 -0.56359303
1.408015 -2.4619973 -0.56108868
1.467002 -2.5651398 -0.55911571
1.5385447 -2.6902361 -0.55974478
1.6139197 -2.8220339 -0.55930829
1.707818 -2.9862206 -0.56245327
1.7921454 -3.133672 -0.55946225
1.9008712 -3.3237853 -0.56085777
2.0097513 -3.5141687 -0.55865687
2.1369662 -3.7366116 -0.5576036
2.2827363 -3.9914989 -0.55682373
2.4623473 -4.3055596 -0.55885011
2.6553819 -4.6430917 -0.55768359
2.884762 -5.0441766 -0.55707997
3.1658845 -5.5357356 -0.55792171
3.4894791 -6.1015596 -0.55612504
3.8977053 -6.8153677 -0.55556607
4.4095464 -7.7103519 -0.55437374
5.0712113 -8.8673124 -0.55237287
5.9812627 -10.458591 -0.55111557
7.2811852 -12.731582 -0.54878426
9.2930927 -16.249521 -0.54467231
12.82973 -22.43354 -0.53703737
20.726862 -36.242142 -0.52051324
1.0590169 -1.8000288 -0.55959743
1.1000476 -1.8697692 -0.56199682
1.1387708 -1.9355879 -0.56190515
1.1713886 -1.9910289 -0.55764067
1.2233999 -2.0794332 -0.56122273
1.2787176 -2.1734579 -0.56454909
1.3215345 -2.2462342 -0.56074876
1.3755304 -2.338012 -0.56011301
1.4311975 -2.4326305 -0.55836451
1.4915878 -2.5352767 -0.55656224
1.5733449 -2.6742408 -0.56039971
1.6517872 -2.8075702 -0.56042486
1.7363635 -2.9513261 -0.55986011
1.8303336 -3.1110487 -0.55939913
1.9367454 -3.2919185 -0.55945683
2.0578885 -3.4978278 -0.56003946
2.1873336 -3.7178476 -0.55877495
2.3355482 -3.9697704 -0.55775678
2.5114787 -4.2688022 -0.55804539
2.7019777 -4.592597 -0.55556726
2.9547176 -5.0221829 -0.55862141
3.2322488 -5.493907 -0.55766958
3.5656476 -6.0605907 -0.55634511
3.9839258 -6.7715454 -0.55594516
4.5014277 -7.6511517 -0.55405515
5.1874223 -8.8171482 -0.55317962
6.1043229 -10.37562 -0.55065715
7.4362392 -12.639501 -0.54871505
9.4806652 -16.114447 -0.54401124
13.088712 -22.247103 -0.53638655
21.141052 -35.9338 -0.51977909
1.086494 -1.795838 -0.56240547
1.1210716 -1.8529905 -0.56105459
1.1569134 -1.9122325 -0.55921263
1.2006952 -1.9845982 -0.55993241
1.2606082 -2.083627 -0.56649536
1.2936002 -2.1381586 -0.5594697
1.3478452 -2.2278187 -0.56024665
1.4033159 -2.319505 -0.55977094
1.4633424 -2.418721 -0.55925977
1.5411253 -2.5472865 -0.56331629
1.6034749 -2.6503425 -0.5594812
1.6809496 -2.7783983 -0.55868548
1.7777058 -2.9383245 -0.56149793
1.8702792 -3.0913365 -0.55994755
1.9784805 -3.2701795 -0.55985457
2.0974853 -3.4668796 -0.55917162
2.2281945 -3.6829255 -0.55760205
2.3888104 -3.9484034 -0.5588395
2.5655332 -4.2405038 -0.55842781
2.7763207 -4.5889096 -0.55920869
3.0130346 -4.9801674 -0.55802685
3.2931731 -5.4432011 -0.55659091
3.6359112 -6.0097046 -0.55573601
4.0701814 -6.7274981 -0.55639583
4.597012 -7.5982838 -0.55427819
5.28755 -8.7396555 -0.55235523
6.2296085 -10.296761 -0.55049574
7.5793242 -12.527671 -0.54786485
9.6674852 -15.979138 -0.54341543
13.345183 -22.057911 -0.53574103
21.540413 -35.603596 -0.51879483
1.1126901 -1.7890923 -0.56453508
1.1428164 -1.8375324 -0.56058663
1.1831453 -1.902377 -0.56054264
1.2334186 -1.9832115 -0.56377769
1.2763274 -2.0522044 -0.56217664
1.325984 -2.1320472 -0.56209445
1.3724813 -2.2068102 -0.5591653
1.4325972 -2.3034704 -0.56011027
1.4924494 -2.3997066 -0.55906433
1.5640867 -2.5148921 -0.56036329
1.6366863 -2.6316249 -0.55973607
1.7142764 -2.7563818 -0.55845487
1.8142608 -2.9171464 -0.56167167
1.8978113 -3.0514872 -0.55691439
2.0176227 -3.2441316 -0.55960029
2.1429679 -3.4456739 -0.55995917
2.2768471 -3.6609383 -0.55846977
2.4314313 -3.9094939 -0.55752194
2.6053975 -4.1892138 -0.55585039
2.8240938 -4.5408549 -0.55754238
3.0727136 -4.9406104 -0.55778599
3.3627772 -5.4070034 -0.55707568
3.7062736 -5.9593101 -0.55524826
4.1469331 -6.6678462 -0.55563766
4.6853838 -7.5336199 -0.55372202
5.3938928 -8.6728296 -0.55228186
6.358119 -10.223207 -0.55070162
7.7344294 -12.436174 -0.54798126
9.8566132 -15.848429 -0.543051
13.610777 -21.884743 -0.53555959
21.947428 -35.289227 -0.51810735
1.1310418 -1.7697024 -0.56276274
1.1619502 -1.8180639 -0.55896389
1.2019906 -1.8807138 -0.55847234
1.2608093 -1.9727454 -0.56516695
1.2909658 -2.0199301 -0.55764192
1.351541 -2.1147101 -0.56186265
1.4039061 -2.1966441 -0.56092113
1.4677353 -2.2965152 -0.56276506
1.5225976 -2.3823564 -0.55934173
1.598435 -2.5010169 -0.56160873
1.670184 -2.6132798 -0.56016004
1.7536932 -2.7439439 -0.56026155
1.8501856 -2.8949223 -0.56173056
1.9403857 -3.0360553 -0.55841041
2.0482213 -3.204782 -0.55711496
2.1832237 -3.4160159 -0.55945987
2.3280771 -3.642663 -0.56000662
2.4831767 -3.8853419 -0.55838984
2.6702225 -4.1780062 -0.55867773
2.8808181 -4.5075178 -0.55775642
3.1255274 -4.8904061 -0.5564149
3.4251311 -5.3591857 -0.55644631
3.7837429 -5.9202933 -0.555906
4.2265244 -6.6130981 -0.55536425
4.7796035 -7.4784822 -0.55394733
5.4983592 -8.6030951 -0.55210489
6.4801865 -10.139326 -0.55043387
7.8761029 -12.323469 -0.54724121
10.045287 -15.717518 -0.5427568
13.864958 -21.694027 -0.53502423
22.336021 -34.948414 -0.51709694
1.1541115 -1.7577878 -0.5634442
1.1990526 -1.826236 -0.56596673
1.2297597 -1.8730049 -0.56063122
1.2739224 -1.9402677 -0.56030792
1.3267689 -2.0207562 -0.5623315
1.3774672 -2.0979731 -0.56187361
1.4322388 -2.1813941 -0.56148165
1.4850671 -2.2618549 -0.55870414
1.5628518 -2.3803263 -0.56333452
1.6278604 -2.4793386 -0.56119323
1.7013046 -2.5911989 -0.55986887
1.7866532 -2.7211905 -0.56005913
1.8794659 -2.8625503 -0.55989116
1.9806918 -3.0167241 -0.5592922
2.0957317 -3.1919372 -0.55931962
2.2264912 -3.3910928 -0.55981958
2.3659933 -3.6035635 -0.55842608
2.5298679 -3.8531554 -0.55819273
2.7196643 -4.1422276 -0.55832314
2.9338579 -4.4684587 -0.55734515
3.1944532 -4.8653626 -0.55799258
3.4951026 -5.3232713 -0.55713755
3.8621111 -5.8822494 -0.55675089
4.2990098 -6.5476751 -0.55426759
4.8670502 -7.412838 -0.5534761
5.5983543 -8.5266619 -0.5515759
6.5947433 -10.044229 -0.54963195
8.0214424 -12.217186 -0.54686022
10.232229 -15.584358 -0.54246235
14.108841 -21.488693 -0.53419846
22.7253 -34.612129 -0.51621681
1.1749939 -1.7425104 -0.56313586
1.2102782 -1.7948369 -0.56080562
1.2459836 -1.8477877 -0.55762696
1.3023118 -1.9313222 -0.56230658
1.3508762 -2.0033431 -0.56206578
1.3941867 -2.0675724 -0.55828089
1.4472901 -2.1463244 -0.55699354
1.5156552 -2.2477095 -0.5597713
1.5824333 -2.3467414 -0.55994892
1.6469768 -2.4424589 -0.55738741
1.7340996 -2.5716617 -0.56021243
1.8179215 -2.6959691 -0.55942672
1.9118581 -2.8352766 -0.55911261
2.0156524 -2.9892032 -0.55874282
2.1362152 -3.1679971 -0.55968523
2.2671676 -3.3621988 -0.55960959
2.4197817 -3.5885248 -0.56066418
2.5779414 -3.8230751 -0.55838507
2.7660317 -4.1020122 -0.55744487
2.9847624 -4.4263887 -0.55663353
3.2439406 -4.8107491 -0.55626178
3.5542614 -5.2709532 -0.55619401
3.9265633 -5.8230748 -0.55567801
4.3836818 -6.5009794 -0.5548358
4.9519114 -7.3436618 -0.55281568
5.7009611 -8.4544983 -0.55140084
6.7230411 -9.9702387 -0.5500654
8.1670542 -12.111703 -0.54659253
10.408748 -15.436125 -0.54171675
14.365739 -21.304323 -0.53396612
23.108091 -34.269192 -0.51530111
1.1975707 -1.7297233 -0.56371981
1.2349526 -1.7837161 -0.56203318
1.2727367 -1.8382901 -0.55944133
1.3203158 -1.9070115 -0.55991304
1.3688242 -1.9770751 -0.559376
1.4240716 -2.0568721 -0.56007755
1.4879262 -2.1491013 -0.56241971
1.5412803 -2.2261636 -0.55908316
1.6152723 -2.3330348 -0.56137526
1.6929061 -2.4451661 -0.56271327
1.7635658 -2.547224 -0.55957067
1.8444967 -2.6641176 -0.55748159
1.9477388 -2.813236 -0.55944687
2.0560656 -2.9696991 -0.55978054
2.1734383 -3.1392276 -0.55928183
2.3074613 -3.3328049 -0.55939746
2.4505739 -3.5395112 -0.5576722
2.6242559 -3.7903702 -0.55827928
2.8192291 -4.0719819 -0.55803275
3.0350811 -4.38375 -0.55592275
3.3121579 -4.7839484 -0.55783004
3.618315 -5.22615 -0.55611914
3.9946549 -5.7697201 -0.55523187
4.4471793 -6.4233279 -0.55283386
5.0485644 -7.2919445 -0.55355388
5.8076725 -8.3883705 -0.55170387
6.8307228 -9.866024 -0.54890829
8.309063 -12.001279 -0.54617888
10.593038 -15.30016 -0.54147553
14.597813 -21.084497 -0.53291517
23.494423 -33.934406 -0.5145722
1.2190144 -1.7152426 -0.56384301
1.2521944 -1.7619292 -0.55997759
1.2952547 -1.8225182 -0.55944633
1.3522927 -1.9027747 -0.56350875
1.3874027 -1.9521772 -0.55711633
1.4516789 -2.0426185 -0.56101459
1.511493 -2.1267812 -0.56140012
1.5752451 -2.2164853 -0.56147468
1.6360881 -2.3020959 -0.55872929
1.7167784 -2.415633 -0.56073248
1.7952647 -2.5260689 -0.55973047
1.8860756 -2.6538465 -0.56014305
1.9789561 -2.7845361 -0.55853647
2.0943816 -2.9469481 -0.56030416
2.2128253 -3.1136072 -0.55952275
2.3425598 -3.2961533 -0.55803829
2.498543 -3.5156329 -0.55870843
2.6680393 -3.7541268 -0.55773103
2.8714433 -4.0403309 -0.55849183
3.0911655 -4.3494964 -0.55635715
3.3568606 -4.7233486 -0.55553496
3.6841655 -5.1838908 -0.5564009
4.0645571 -5.7191296 -0.5551312
4.5487862 -6.400475 -0.55563903
5.1365423 -7.2274909 -0.55341393
5.9060659 -8.3102674 -0.55130184
6.9481988 -9.7766247 -0.54864645
8.4571552 -11.899837 -0.54625368
10.772748 -15.158045 -0.54109317
14.847495 -20.891512 -0.53261167
23.87326 -33.591423 -0.51378387
1.2291315 -1.6852065 -0.55889553
1.2765113 -1.7501669 -0.5611856
1.3209356 -1.811075 -0.5608772
1.364941 -1.8714088 -0.55914801
1.4227027 -1.9506031 -0.5616172
1.4652685 -2.0089633 -0.55667758
1.5252472 -2.0911975 -0.55691582
1.6016793 -2.1959901 -0.56122953
1.663805 -2.2811677 -0.55857325
1.7352127 -2.3790715 -0.55715638
1.8245592 -2.5015705 -0.55923116
1.9157474 -2.6265945 -0.55932087
2.0145752 -2.7620928 -0.55896139
2.1290507 -2.919045 -0.5599342
2.2545426 -3.0911014 -0.56041789
2.3787594 -3.2614093 -0.55706614
2.542901 -3.4864564 -0.5589987
2.7110505 -3.7169986 -0.55712557
2.9214594 -4.0054808 -0.55859792
3.147001 -4.3147106 -0.55681533
3.4232712 -4.6934919 -0.55693215
3.746455 -5.1365948 -0.55622709
4.1305032 -5.6631455 -0.55458516
4.6235094 -6.3390846 -0.55520314
5.2193046 -7.1559525 -0.55280864
6.0099688 -8.239996 -0.55150092
7.0698023 -9.6930857 -0.54879546
8.600482 -11.791731 -0.54610449
10.962058 -15.029581 -0.54127824
15.075648 -20.669538 -0.5316385
24.239668 -33.233913 -0.5128358
1.2518622 -1.6727766 -0.55983603
1.2928149 -1.7274988 -0.55897218
1.3475085 -1.8005821 -0.5627166
1.3860904 -1.8521364 -0.55843997
1.4433631 -1.9286658 -0.56036872
1.4972321 -2.0006473 -0.55943251
1.5683604 -2.0956912 -0.5632059
1.6254327 -2.1719527 -0.56015211
1.6971896 -2.2678366 -0.5603767
1.7696172 -2.3646166 -0.5588249
1.856927 -2.4812827 -0.55975795
1.9518031 -2.6080589 -0.56044215
2.0498641 -2.7390909 -0.55936515
2.1670723 -2.8957081 -0.56052679
2.2937486 -3.0649772 -0.56075275
2.4239614 -3.2389712 -0.55828243
2.5895736 -3.4602673 -0.55986279
2.7637112 -3.6929555 -0.55857331
2.9665353 -3.9639752 -0.55785459
3.1967809 -4.2716365 -0.55628735
3.4846222 -4.6562586 -0.55755633
3.8035073 -5.0823627 -0.55537707
4.202415 -5.6153951 -0.55492753
4.7030973 -6.2844224 -0.5554387
5.3036304 -7.0868731 -0.55246842
6.102354 -8.1541519 -0.55073601
7.1875849 -9.6042709 -0.54872948
8.7359352 -11.673224 -0.54554987
11.12853 -14.870281 -0.54042858
15.331252 -20.486088 -0.53172868
24.608274 -32.882328 -0.51204115
1.2813306 -1.6689744 -0.56379402
1.3217094 -1.7215692 -0.56226987
1.3631606 -1.7755606 -0.56009305
1.4116802 -1.8387591 -0.55959809
1.467171 -1.9110376 -0.56044626
1.5234816 -1.9843841 -0.56008089
1.5844078 -2.0637424 -0.55981332
1.6544228 -2.1549392 -0.56096846
1.7257179 -2.2478032 -0.56062764
1.801286 -2.3462331 -0.55967259
1.8885087 -2.4598436 -0.56011784
1.9803677 -2.5794928 -0.5594942
2.0831728 -2.7133999 -0.55930746
2.196455 -2.8609536 -0.55898517
2.3224957 -3.0251255 -0.55864435
2.4643445 -3.2098882 -0.55845046
2.6234686 -3.4171526 -0.55806428
2.8095136 -3.659482 -0.55869347
3.0064876 -3.9160471 -0.5562703
3.2497644 -4.232923 -0.55640775
3.5332665 -4.6021938 -0.55624282
3.8641672 -5.0332026 -0.55515534
4.2566595 -5.5444365 -0.55304593
4.7639747 -6.2052307 -0.55357516
5.3873067 -7.0171413 -0.55215484
6.2012758 -8.0773621 -0.55065817
7.3036995 -9.5133038 -0.54862189
8.8753023 -11.560368 -0.5453347
11.306155 -14.726632 -0.54021966
15.557644 -20.264334 -0.53089821
24.962635 -32.514637 -0.51105672
1.290689 -1.6390414 -0.55900145
1.3481206 -1.7119735 -0.56450737
1.3825259 -1.7556647 -0.55913728
1.4412909 -1.8302901 -0.56237185
1.4901994 -1.892399 -0.56031173
1.5516232 -1.9704009 -0.56147683
1.6118026 -2.0468223 -0.56055748
1.6724273 -2.1238096 -0.5581761
1.7568846 -2.2310615 -0.56179774
1.8327208 -2.3273656 -0.56050533
1.9205072 -2.4388452 -0.56067133
2.0132999 -2.5566823 -0.559874
2.1083922 -2.6774399 -0.55719703
2.2248187 -2.8252895 -0.55732006
2.3599272 -2.9968631 -0.55874181
2.4953065 -3.1687808 -0.55659485
2.663918 -3.3829 -0.55777782
2.8440094 -3.6115975 -0.5566799
3.0626183 -3.8892081 -0.55776519
3.3047967 -4.1967497 -0.55695242
3.5867789 -4.5548377 -0.55580783
3.9258668 -4.9854441 -0.5551703
4.3421082 -5.5140276 -0.55529654
4.8333797 -6.1378918 -0.55282807
5.4817095 -6.9612036 -0.55301541
6.3035097 -8.0048046 -0.55095422
7.4028931 -9.4009075 -0.54734826
9.0074139 -11.438483 -0.54476875
11.473207 -14.569785 -0.53960049
15.793336 -20.055901 -0.53048527
25.335209 -32.173092 -0.51054639
1.312176 -1.6248205 -0.55961198
1.3535554 -1.6760591 -0.55811089
1.4078476 -1.7432872 -0.56066632
1.4603798 -1.808336 -0.56110144
1.5226753 -1.8854743 -0.56376261
1.572853 -1.9476075 -0.56045055
1.636965 -2.0269952 -0.56059778
1.7064766 -2.1130688 -0.56082577
1.7813603 -2.2057946 -0.56090862
1.8576748 -2.3002923 -0.55944419
1.9541481 -2.4197516 -0.56176353
2.0317607 -2.5158563 -0.55636263
2.1573198 -2.6713319 -0.56140405
2.2687857 -2.809356 -0.5596379
2.3945053 -2.96503 -0.55825418
2.5396411 -3.1447468 -0.55781639
2.7019715 -3.3457546 -0.55708927
2.8891492 -3.5775301 -0.55686265
3.1055326 -3.8454697 -0.55692691
3.3574893 -4.1574588 -0.55717498
3.6468084 -4.5157123 -0.55646342
3.9837549 -4.932941 -0.55473667
4.4010897 -5.4497118 -0.55422765
4.9192672 -6.091352 -0.5540427
5.5539789 -6.8772931 -0.55173308
6.3980074 -7.9224238 -0.55065739
7.5272307 -9.3207006 -0.54802597
9.1371813 -11.314244 -0.54416162
11.643207 -14.417366 -0.53921723
16.021948 -19.839405 -0.52992988
25.685974 -31.806023 -0.50969505
1.3385949 -1.6164614 -0.56235957
1.3812523 -1.6679736 -0.56103182
1.4328212 -1.7302473 -0.56209636
1.4832067 -1.791092 -0.56136751
1.5366143 -1.8555859 -0.56043315
1.5885173 -1.918263 -0.55758506
1.6665645 -2.0125113 -0.56221712
1.7319801 -2.0915058 -0.56071287
1.8045623 -2.1791546 -0.5597347
1.894537 -2.2878063 -0.56203079
1.9720147 -2.381367 -0.55843955
2.075187 -2.5059559 -0.55977392
2.1705458 -2.6211092 -0.55641639
2.2976565 -2.774606 -0.55830145
2.4361382 -2.9418337 -0.55948454
2.581718 -3.1176329 -0.55859578
2.7515488 -3.3227174 -0.5588448
2.9412427 -3.5517881 -0.55844319
3.154613 -3.8094499 -0.55728608
3.4072242 -4.1144986 -0.55699033
3.7027879 -4.4714155 -0.55657345
4.0527167 -4.8939824 -0.55591768
4.4609709 -5.3869824 -0.55338496
4.98313 -6.0175319 -0.55285978
5.6442928 -6.8159394 -0.55233729
6.4961267 -7.8445973 -0.55075848
7.6437116 -9.2303991 -0.54820144
9.270257 -11.194584 -0.5438478
11.809767 -14.261248 -0.53876883
16.260939 -19.636396 -0.52980822
26.030138 -31.433493 -0.508816
1.3571936 -1.5984962 -0.56187296
1.4071699 -1.6573581 -0.56323862
1.4483528 -1.705863 -0.55991817
1.5025021 -1.7696397 -0.56039214
1.5520018 -1.8279403 -0.55780524
1.6220124 -1.9103984 -0.56105411
1.6919041 -1.9927166 -0.56245667
1.7612506 -2.0743926 -0.56188852
1.8317957 -2.1574802 -0.55991071
1.9145535 -2.254952 -0.55970085
2.0044158 -2.3607914 -0.5593521
2.1083829 -2.4832432 -0.56044924
2.2172072 -2.6114161 -0.56010401
2.3330359 -2.7478387 -0.55864573
2.459214 -2.8964505 -0.55656248
2.6249545 -3.0916586 -0.55968291
2.7839956 -3.2789767 -0.55720365
2.9735596 -3.5022442 -0.55636036
3.2093606 -3.7799697 -0.55870432
3.4465601 -4.0593419 -0.55521888
3.7572072 -4.425221 -0.55653208
4.1063328 -4.8364186 -0.55507261
4.532104 -5.3378906 -0.55402482
5.0574317 -5.9566188 -0.55293518
5.7215991 -6.7388725 -0.55175167
6.5873895 -7.7585959 -0.55036581
7.7486067 -9.1262722 -0.54763466
9.4055796 -11.077847 -0.54375416
11.9803 -14.110339 -0.5385924
16.482492 -19.413 -0.5292092
26.375786 -31.065273 -0.50806719
1.378777 -1.5840219 -0.56270206
1.4235005 -1.635403 -0.56168354
1.4647244 -1.6827635 -0.55820572
1.5292645 -1.7569109 -0.56227362
1.578127 -1.8130472 -0.55913985
1.654757 -1.9010844 -0.56425184
1.7181212 -1.9738809 -0.56306082
1.7861383 -2.0520229 -0.56173599
1.8662183 -2.1440239 -0.56233144
1.9401731 -2.2289877 -0.55913556
2.0365009 -2.3396547 -0.56023502
2.1304162 -2.4475501 -0.55826378
2.2510269 -2.5861151 -0.56057179
2.3752463 -2.7288258 -0.56067586
2.4914055 -2.8622766 -0.55584049
2.6556311 -3.0509486 -0.55818248
2.8340664 -3.2559459 -0.55916965
3.0154192 -3.4642949 -0.55618
3.237164 -3.7190485 -0.55554134
3.5080369 -4.0302439 -0.55709684
3.8056562 -4.3721666 -0.5557031
4.1663704 -4.7865767 -0.55519015
4.5929766 -5.2766876 -0.55349255
5.1403284 -5.9055185 -0.55401719
5.8052287 -6.6693959 -0.55186611
6.6669331 -7.6593738 -0.54910117
7.8507433 -9.0194063 -0.54697347
9.5407 -10.96093 -0.5437327
12.149116 -13.957634 -0.53842521
16.68659 -19.170557 -0.5281536
26.715719 -30.692625 -0.50730693
1.3980682 -1.5668585 -0.56266952
1.4451677 -1.6196444 -0.56233203
1.4959139 -1.6765172 -0.56219304
1.5484766 -1.7354259 -0.56144899
1.6014736 -1.7948214 -0.55954987
1.6671036 -1.8683751 -0.5605855
1.7286845 -1.9373907 -0.55867314
1.8060623 -2.0241103 -0.56013209
1.8852568 -2.1128659 -0.56019723
1.9677896 -2.2053633 -0.55923688
2.0626986 -2.3117306 -0.55957967
2.1610115 -2.4219129 -0.55843496
2.269573 -2.5435812 -0.55735928
2.3942647 -2.6833272 -0.55733448
2.5412419 -2.8480492 -0.55910361
2.6786113 -3.0020032 -0.55521178
2.865442 -3.2113903 -0.55752677
3.059088 -3.4284153 -0.55641675
3.2900648 -3.6872783 -0.55679673
3.5492427 -3.977747 -0.55583102
3.8553007 -4.3207555 -0.55515212
4.2121248 -4.7206597 -0.55351019
4.6482553 -5.2094445 -0.55239278
5.1922512 -5.819118 -0.55185962
5.8868618 -6.59759 -0.55187249
6.7592859 -7.5753422 -0.548994
7.9581695 -8.9189682 -0.54677564
9.6660357 -10.833027 -0.54324299
12.303595 -13.789022 -0.53771633
16.914715 -18.956848 -0.52795613
27.0613 -30.328444 -0.50674921
1.4099306 -1.5415715 -0.55977231
1.45781 -1.5939213 -0.55958253
1.5160245 -1.6575711 -0.56204849
1.565852 -1.7120509 -0.56007355
1.6258366 -1.7776361 -0.56038254
1.6858935 -1.8433003 -0.5592398
1.7634453 -1.9280928 -0.56220239
1.8278733 -1.9985363 -0.55923259
1.9129986 -2.0916095 -0.56075579
1.9901744 -2.1759911 -0.55795217
2.0868027 -2.281641 -0.5584653
2.1931415 -2.3979084 -0.55907601
2.3052962 -2.5205345 -0.55847847
2.4346585 -2.6619751 -0.55907547
2.5664399 -2.8060606 -0.55701393
2.7302432 -2.9851577 -0.55826318
2.9082723 -3.1798089 -0.55821025
3.1036944 -3.393477 -0.55689824
3.3390255 -3.6507802 -0.5574432
3.5965509 -3.9323502 -0.5556252
3.9051511 -4.269763 -0.55472821
4.2804527 -4.6801057 -0.55488467
4.7241149 -5.1651912 -0.55381811
5.2747593 -5.7672477 -0.5530498
5.9590497 -6.5154281 -0.55108756
6.8548174 -7.4948306 -0.54922628
8.0604115 -8.8129873 -0.54631341
9.8019495 -10.717128 -0.54343408
12.463968 -13.627691 -0.53736109
17.136547 -18.736534 -0.52764904
27.383219 -29.939907 -0.50584519
1.423299 -1.5182741 -0.55762553
1.4816377 -1.5805056 -0.56122643
1.5317521 -1.6339641 -0.56038809
1.5731721 -1.6781479 -0.55526894
1.6375797 -1.7468534 -0.55698431
1.7221689 -1.8370872 -0.56373698
1.7729086 -1.8912126 -0.55776322
1.852926 -1.9765695 -0.5594191
1.930038 -2.0588272 -0.55828738
2.0252869 -2.1604319 -0.56030589
2.1102874 -2.2511044 -0.55730027
2.2278504 -2.3765123 -0.56043214
2.3422446 -2.4985397 -0.55994427
2.4604645 -2.6246483 -0.55754811
2.6094038 -2.7835262 -0.55886775
2.7618003 -2.9460919 -0.55726624
2.9392831 -3.1354179 -0.55672026
3.1424623 -3.352155 -0.55641627
3.3790398 -3.6045191 -0.55668181
3.6441822 -3.8873541 -0.55555701
3.9637983 -4.2282977 -0.55563146
4.3335996 -4.6227756 -0.55436355
4.789876 -5.1094985 -0.55412
5.3448906 -5.7015491 -0.55301034
6.0388665 -6.4418325 -0.5511018
6.9466734 -7.4102168 -0.54924381
8.1781769 -8.723897 -0.54698318
9.9225578 -10.584679 -0.54286385
12.629058 -13.47178 -0.53729612
17.337856 -18.494791 -0.52680528
27.720331 -29.570074 -0.50531751
1.4510912 -1.5102673 -0.56119585
1.4975833 -1.5586553 -0.55996418
1.5476328 -1.6107459 -0.5589096
1.6070169 -1.6725518 -0.55991334
1.6693771 -1.7374549 -0.56049043
1.7345475 -1.8052831 -0.56048012
1.8009082 -1.87435 -0.55927879
1.8882385 -1.9652417 -0.56274194
1.9595826 -2.0394952 -0.55953687
2.0488153 -2.1323669 -0.55951881
2.1496351 -2.237298 -0.56038386
2.2482355 -2.3399196 -0.55827999
2.3713212 -2.4680247 -0.55959803
2.50103 -2.6030228 -0.5594449
2.6461902 -2.7541027 -0.55945098
2.7984526 -2.9125745 -0.55739319
2.9760559 -3.0974207 -0.55642921
3.1859372 -3.315861 -0.55685246
3.4208529 -3.5603566 -0.55631572
3.6975441 -3.8483317 -0.55643594
4.0075731 -4.1710038 -0.55453628
4.3922195 -4.5713358 -0.55462968
4.8571453 -5.0552216 -0.55466896
5.4103618 -5.6309986 -0.55257845
6.1117282 -6.3609672 -0.55057144
7.02806 -7.3146672 -0.54852569
8.2680254 -8.6051989 -0.54587418
10.039601 -10.44902 -0.54219681
12.781983 -13.303238 -0.53680211
17.566185 -18.282541 -0.52687228
28.035778 -29.179089 -0.50448912
1.4742309 -1.4970635 -0.56298304
1.5164926 -1.5399798 -0.55991179
1.5674958 -1.5917729 -0.558972
1.6324538 -1.6577369 -0.56163132
1.6911451 -1.7173373 -0.56066656
1.7554724 -1.7826608 -0.56011611
1.8230383 -1.8512732 -0.55903965
1.8953059 -1.92466 -0.55775279
1.9872561 -2.0180342 -0.56031084
2.0776358 -2.1098137 -0.5602622
2.1712503 -2.2048781 -0.55890858
2.2815809 -2.3169177 -0.55944341
2.393677 -2.4307499 -0.557778
2.5260875 -2.5652111 -0.55795205
2.6657131 -2.7069991 -0.55649906
2.8413537 -2.8853598 -0.55882913
3.0260222 -3.0728886 -0.55866432
3.229382 -3.2793982 -0.55735564
3.4718158 -3.5255866 -0.55751127
3.7392082 -3.7971206 -0.55563742
4.0670476 -4.1300373 -0.55569667
4.4445977 -4.5134344 -0.55419368
4.9052916 -4.9812641 -0.55313057
5.4876742 -5.5726666 -0.55343419
6.1929049 -6.2888198 -0.55087632
7.1212683 -7.2315612 -0.54881871
8.3783588 -8.5081205 -0.54621005
10.181588 -10.339278 -0.54295772
12.930289 -13.13055 -0.53620917
17.761618 -18.036707 -0.52604204
28.352259 -28.791372 -0.50377524
1.481557 -1.4679549 -0.55884522
1.5387393 -1.5246123 -0.5611614
1.5917879 -1.5771738 -0.5606764
1.6564528 -1.641245 -0.56290215
1.7117105 -1.6959953 -0.56052822
1.7885376 -1.7721171 -0.56367075
1.8410454 -1.8241428 -0.55764103
1.9211005 -1.9034629 -0.55841357
2.0077846 -1.9893512 -0.55915952
2.1062036 -2.0868666 -0.56100363
2.1971369 -2.1769652 -0.55863923
2.3087981 -2.2876012 -0.55917746
2.4256375 -2.4033678 -0.5582968
2.5559046 -2.532439 -0.55761766
2.706599 -2.6817498 -0.55810815
2.863239 -2.8369517 -0.55623043
3.0601003 -3.0320058 -0.55803049
3.2692471 -3.2392323 -0.55731934
3.5112045 -3.4789681 -0.5569247
3.782433 -3.7477067 -0.5551706
4.1105933 -4.072854 -0.55476171
4.5097179 -4.4683146 -0.55542058
4.965066 -4.9194822 -0.55300778
5.5344791 -5.4836674 -0.55131245
6.2697878 -6.2122254 -0.55087864
7.2109351 -7.144732 -0.54891682
8.4671183 -8.3893824 -0.54523009
10.279283 -10.18491 -0.54144794
13.086039 -12.965897 -0.53601581
17.972483 -17.807478 -0.52576226
28.660057 -28.396931 -0.50300193
1.5093414 -1.4591471 -0.56251514
1.5590137 -1.5071675 -0.56175405
1.6154464 -1.5617235 -0.56220305
1.6677312 -1.6122694 -0.55995536
1.7247884 -1.6674292 -0.55805445
1.79845 -1.7386411 -0.56001461
1.8638172 -1.8018345 -0.55778527
1.9495709 -1.8847363 -0.5599103
2.0264254 -1.959035 -0.55760002
2.1230488 -2.0524449 -0.55872589
2.2283175 -2.154213 -0.55978972
2.3256886 -2.2483459 -0.55653024
2.4630656 -2.3811545 -0.56012994
2.5856285 -2.4996414 -0.55735457
2.7370517 -2.6460288 -0.5576362
2.9106858 -2.8138885 -0.55868369
3.0964839 -2.9935079 -0.55791062
3.2943537 -3.1847973 -0.55488139
3.5574903 -3.439183 -0.5575164
3.8342264 -3.7067161 -0.55604064
4.1554303 -4.0172381 -0.55410427
4.558774 -4.4071684 -0.55474597
5.0270653 -4.8598862 -0.55321544
5.611536 -5.4249201 -0.5523017
6.3375745 -6.1268134 -0.55017352
7.2874045 -7.0450559 -0.54810202
8.5879641 -8.3023643 -0.54639649
10.397007 -10.051246 -0.54109782
13.233336 -12.793251 -0.53556514
18.181931 -17.577274 -0.52552682
28.970373 -28.006941 -0.50236601
1.5081866 -1.4225743 -0.55552346
1.5755783 -1.4861406 -0.5610956
1.644719 -1.5513564 -0.56570876
1.693635 -1.5974958 -0.56201482
1.7497407 -1.6504166 -0.55951923
1.8106025 -1.7078236 -0.55721742
1.8934957 -1.7860113 -0.56005239
1.9709437 -1.8590629 -0.55944091
2.0490704 -1.9327549 -0.55724943
2.1553607 -2.0330117 -0.56060815
2.2445126 -2.1171026 -0.55727619
2.3595374 -2.2255981 -0.55803919
2.4893141 -2.3480079 -0.55949092
2.6164393 -2.4679172 -0.55741251
2.7592523 -2.6026232 -0.55559713
2.9406073 -2.7736835 -0.55783826
3.1166198 -2.9397049 -0.55498368
3.3518474 -3.1615796 -0.55797499
3.585181 -3.3816681 -0.55529732
3.8736064 -3.6537209 -0.55519408
4.2163777 -3.9770348 -0.55566823
4.6005836 -4.3394313 -0.55329865
5.0765452 -4.7883749 -0.55213922
5.6715083 -5.349565 -0.55168831
6.3983116 -6.0351114 -0.54896241
7.374598 -6.9559784 -0.54818535
8.6832027 -8.1903009 -0.54600704
10.526148 -9.9286308 -0.54142398
13.395507 -12.63511 -0.53579992
18.374557 -17.331524 -0.52489489
29.269648 -27.608156 -0.50163084
1.5377858 -1.4151702 -0.55997396
1.5865153 -1.4600142 -0.55855483
1.6473951 -1.5160398 -0.56017488
1.7034764 -1.5676495 -0.55884165
1.7695111 -1.6284188 -0.55939591
1.8378967 -1.6913518 -0.55917448
1.9142455 -1.7616129 -0.55974036
1.9965122 -1.83732 -0.56024325
2.0821538 -1.9161329 -0.55979651
2.1737564 -2.0004315 -0.55895257
2.265635 -2.0849843 -0.556113
2.3862796 -2.1960092 -0.55793524
2.51232 -2.3119998 -0.55822974
2.6471744 -2.4361014 -0.55753642
2.7998474 -2.5766013 -0.5573495
2.9727869 -2.7357512 -0.55751908
3.175668 -2.9224555 -0.55905706
3.3844612 -3.1146007 -0.55698657
3.6354351 -3.3455632 -0.55666715
3.9256818 -3.6126671 -0.55624884
4.2496519 -3.910805 -0.55367392
4.6550169 -4.2838488 -0.55346811
5.1416206 -4.7316527 -0.55284715
5.7310863 -5.274117 -0.55113351
6.4746127 -5.9583583 -0.54918122
7.4546642 -6.8602653 -0.54782498
8.7838926 -8.0835075 -0.54604691
10.643661 -9.7949877 -0.54123235
13.530115 -12.451289 -0.53501958
18.561989 -17.081945 -0.5242092
29.584238 -27.225334 -0.50124699
1.5559585 -1.3969531 -0.56029397
1.6135907 -1.4486959 -0.561773
1.6699193 -1.4992681 -0.56152266
1.7282394 -1.5516285 -0.56066376
1.7912166 -1.6081699 -0.55996394
1.8612081 -1.6710089 -0.55997306
1.9411821 -1.7428102 -0.56130797
2.0180602 -1.8118322 -0.55999577
2.1012051 -1.8864803 -0.55863971
2.2042971 -1.9790373 -0.56050593
2.3008282 -2.0657036 -0.55847436
2.4243579 -2.1766098 -0.56053811
2.5503595 -2.2897351 -0.56038356
2.6752939 -2.4019022 -0.5571962
2.8316586 -2.5422881 -0.55741686
2.9981766 -2.6917892 -0.55603111
3.19837 -2.8715246 -0.55679548
3.422539 -3.0727856 -0.55699277
3.6776471 -3.3018239 -0.55687177
3.9722414 -3.5663133 -0.55659026
4.298811 -3.8595099 -0.55385363
4.7180152 -4.2358751 -0.55472356
5.2041659 -4.6723461 -0.55335277
5.8010163 -5.2082033 -0.55165797
6.5600615 -5.8896804 -0.55024451
7.5288091 -6.7594309 -0.54712427
8.8586016 -7.95333 -0.54457045
10.758378 -9.6589661 -0.54098529
13.683196 -12.284893 -0.53505903
18.773687 -16.855181 -0.52429497
29.861519 -26.809933 -0.50032157
1.5685139 -1.373772 -0.55868995
1.6216927 -1.4203483 -0.55847096
1.6818912 -1.4730728 -0.55941522
1.7481633 -1.5311167 -0.5609771
1.8122249 -1.5872246 -0.56038767
1.8887219 -1.654224 -0.56208855
1.9547958 -1.7120944 -0.55911469
2.0419776 -1.7884519 -0.56048775
2.1252418 -1.8613783 -0.55890274
2.2259245 -1.9495605 -0.5598672
2.3249204 -2.0362656 -0.55820245
2.4440773 -2.1406281 -0.5589692
2.5756147 -2.2558343 -0.55979556
2.6971393 -2.3622708 -0.55565417
2.8686452 -2.5124829 -0.55857378
3.0249538 -2.649385 -0.5549134
3.2386205 -2.8365233 -0.55768842
3.4545758 -3.0256662 -0.55610961
3.7182994 -3.2566466 -0.55692154
4.017242 -3.5184736 -0.55679137
4.3415122 -3.8024836 -0.55328929
4.7589288 -4.1680751 -0.55346614
5.2528949 -4.6007118 -0.552477
5.8689857 -5.1403108 -0.55206907
6.6132021 -5.7921276 -0.54868639
7.6253738 -6.6786308 -0.5481323
8.9737244 -7.8595743 -0.54566509
10.85862 -9.5104465 -0.54010451
13.818636 -12.102957 -0.53449529
18.953579 -16.600361 -0.52357852
30.170216 -26.424376 -0.50001186
1.5846547 -1.3538426 -0.55846721
1.6493572 -1.4091209 -0.56198835
1.7009807 -1.4532251 -0.55977863
1.7670729 -1.5096908 -0.56104559
1.8342105 -1.5670495 -0.56118524
1.8975649 -1.621176 -0.55874538
1.9703826 -1.6833875 -0.55761009
2.0631039 -1.7626035 -0.5602951
2.1434171 -1.8312187 -0.55771863
2.2547603 -1.9263442 -0.56111974
2.3504593 -2.0081043 -0.55836338
2.4654751 -2.1063676 -0.55789721
2.6008248 -2.222003 -0.5592941
2.7346301 -2.336319 -0.55741721
2.8926964 -2.4713621 -0.55729759
3.0700467 -2.6228805 -0.55722678
3.276453 -2.7992229 -0.55823374
3.49932 -2.9896283 -0.55735248
3.7454219 -3.1998842 -0.55504858
4.0469322 -3.4574783 -0.55497193
4.3959417 -3.7556529 -0.55429852
4.826086 -4.1231446 -0.55533808
5.305841 -4.5330215 -0.55214137
5.9181018 -5.0561037 -0.55079931
6.697134 -5.7216663 -0.54977113
7.6953154 -6.5744581 -0.54730731
9.0515823 -7.7331786 -0.54457605
10.986596 -9.3863487 -0.54068828
13.947312 -11.915824 -0.53376466
19.137842 -16.350328 -0.52307528
30.431999 -25.999441 -0.49901426
1.5972335 -1.3309666 -0.5570904
1.6543151 -1.3785323 -0.55785972
1.7246023 -1.4371024 -0.56169444
1.7846688 -1.4871554 -0.56078386
1.8378514 -1.5314722 -0.55649549
1.9226803 -1.6021596 -0.56029731
1.9943974 -1.6619211 -0.55858076
2.0830276 -1.7357763 -0.55986708
2.1672723 -1.805977 -0.55810529
2.2770841 -1.8974826 -0.56082642
2.3729501 -1.9773672 -0.55788791
2.4861226 -2.0716734 -0.55676287
2.6161671 -2.1800387 -0.55678654
2.765753 -2.304688 -0.55794239
2.9259501 -2.4381793 -0.55788594
3.1087444 -2.5905008 -0.55842674
3.3004861 -2.7502782 -0.5565244
3.5327351 -2.9438102 -0.55686706
3.7836673 -3.1529107 -0.55492896
4.0890656 -3.4073973 -0.5549621
4.4301219 -3.6915979 -0.5528428
4.8578038 -4.0479832 -0.55321836
5.3609481 -4.4672503 -0.55211794
5.9801993 -4.9832697 -0.55083406
6.7734556 -5.6442862 -0.55029738
7.7789955 -6.4821973 -0.54754841
9.1465588 -7.6217804 -0.54461038
11.095613 -9.2459173 -0.54041731
14.089931 -11.741068 -0.53365713
19.323301 -16.102009 -0.52269304
30.713505 -25.593407 -0.49843213
1.6243737 -1.3200819 -0.56085247
1.6861126 -1.3702555 -0.56285799
1.7346216 -1.4096773 -0.55926973
1.8034847 -1.4656403 -0.56099081
1.8708302 -1.52037 -0.56077808
1.9357734 -1.5731475 -0.55843347
2.010591 -1.6339496 -0.55744684
2.1030009 -1.7090486 -0.55954474
2.200686 -1.7884344 -0.56100428
2.3094003 -1.8767835 -0.56305915
2.3891158 -1.9415659 -0.55603355
2.5113566 -2.0409074 -0.55675173
2.6586928 -2.1606436 -0.56014037
2.7942595 -2.2708147 -0.55801791
2.9578063 -2.4037244 -0.55828202
3.1363995 -2.548862 -0.55772233
3.3430097 -2.716768 -0.55801952
3.5711713 -2.9021885 -0.55725831
3.8336232 -3.1154757 -0.55659503
4.1408734 -3.365169 -0.55633533
4.4903302 -3.6491628 -0.55471474
4.9121194 -3.9919384 -0.55377191
5.4109893 -4.397356 -0.55166113
6.0452523 -4.9128032 -0.55122006
6.8282876 -5.5491533 -0.54916692
7.848947 -6.3786144 -0.54690999
9.2369633 -7.5066152 -0.54445606
11.209066 -9.1092863 -0.54044664
14.22965 -11.56403 -0.53352296
19.495699 -15.843596 -0.5220471
30.999731 -25.192593 -0.49801221
1.6358466 -1.2963362 -0.5592677
1.69963 -1.3468817 -0.56179917
1.7526355 -1.3888863 -0.55952907
1.8178254 -1.4405464 -0.55989933
1.8883493 -1.4964335 -0.56047142
1.9590074 -1.5524269 -0.55958682
2.0377913 -1.6148596 -0.55944043
2.1246262 -1.6836724 -0.55974776
2.2104123 -1.7516541 -0.55795074
2.32059 -1.8389651 -0.56023169
2.4275351 -1.9237144 -0.55942744
2.5418019 -2.014266 -0.55796808
2.6867507 -2.1291313 -0.56049347
2.8206213 -2.2352178 -0.55775136
2.9813013 -2.3625498 -0.55719125
3.1647575 -2.5079305 -0.55723906
3.3728731 -2.672853 -0.55747604
3.6072612 -2.8585954 -0.55736274
3.8680654 -3.0652711 -0.55608112
4.1678391 -3.3028283 -0.55445987
4.5293126 -3.5892801 -0.55403626
4.965724 -3.9351172 -0.55431813
5.4658451 -4.3314409 -0.55178195
6.1085067 -4.8407216 -0.5515185
6.8898244 -5.4598818 -0.54867506
7.9224777 -6.278214 -0.54661298
9.3191729 -7.3850327 -0.54390806
11.321208 -8.9715576 -0.54049373
14.368643 -11.386516 -0.53344434
19.688683 -15.602411 -0.5220378
31.253223 -24.7668 -0.4971545
1.6624249 -1.2844403 -0.56291205
1.70556 -1.3177677 -0.55836099
1.7635298 -1.3625571 -0.557616
1.8388175 -1.4207265 -0.56094176
1.9083023 -1.4744127 -0.56097007
1.9709966 -1.5228522 -0.55762041
2.0555246 -1.588161 -0.55890524
2.1460414 -1.6580971 -0.55997586
2.2474549 -1.7364522 -0.56186879
2.3428633 -1.8101678 -0.56019288
2.439712 -1.8849961 -0.55684996
2.5622547 -1.9796762 -0.55707198
2.6981776 -2.0846944 -0.55748749
2.8505976 -2.2024589 -0.55828136
3.0164611 -2.33061 -0.55836409
3.2006149 -2.472893 -0.55815643
3.4012434 -2.6279047 -0.55678219
3.6393313 -2.8118587 -0.55693346
3.8974464 -3.0112863 -0.55493981
4.2086134 -3.2517033 -0.55452305
4.5675077 -3.5289958 -0.55335844
5.014173 -3.8741033 -0.55436677
5.5270834 -4.2703934 -0.55262119
6.159842 -4.7592821 -0.55082798
6.959342 -5.3770003 -0.54890424
7.9967294 -6.1785173 -0.54645282
9.4047222 -7.2663755 -0.54364508
11.408682 -8.8146963 -0.53945434
14.48912 -11.194736 -0.53276628
19.862329 -15.346242 -0.52159911
31.52021 -24.353477 -0.49660036
1.6711934 -1.2587067 -0.5605979
1.7204012 -1.295769 -0.55796123
1.7965094 -1.3530921 -0.56274045
1.8546742 -1.3969007 -0.56049669
1.9281036 -1.452206 -0.56149918
1.9893867 -1.4983631 -0.55756849
2.077677 -1.5648615 -0.5596543
2.1658664 -1.6312839 -0.55987245
2.2529721 -1.6968899 -0.55798942
2.3488777 -1.769124 -0.55638742
2.4741025 -1.8634405 -0.55942714
2.5939238 -1.9536873 -0.55869198
2.7234235 -2.0512238 -0.55745006
2.8785932 -2.1680942 -0.55850077
3.0421453 -2.2912781 -0.55786091
3.2315152 -2.4339075 -0.55828369
3.4384117 -2.5897377 -0.55761153
3.6633801 -2.7591789 -0.55537963
3.9325171 -2.9618869 -0.55470562
4.2491722 -3.2003849 -0.55463994
4.6103325 -3.472403 -0.55333197
5.0465617 -3.8009613 -0.55273849
5.5648761 -4.1913447 -0.55120516
6.2133732 -4.6797786 -0.55042744
7.0179176 -5.2857442 -0.54835641
8.0769882 -6.0834131 -0.54678422
9.4921007 -7.1492453 -0.5435732
11.500527 -8.6619492 -0.53872013
14.622577 -11.01341 -0.53265363
20.028366 -15.084933 -0.52104884
31.789705 -23.943321 -0.49617019
1.6944472 -1.2438654 -0.56322503
1.7470624 -1.2824894 -0.56145108
1.7953492 -1.3179358 -0.55725855
1.8632964 -1.3678148 -0.55797726
1.9447323 -1.4275954 -0.56118715
2.0047219 -1.4716328 -0.55675262
2.0951302 -1.5380001 -0.55921906
2.1975865 -1.6132114 -0.56290168
2.2888505 -1.680207 -0.56171596
2.3824627 -1.7489262 -0.55920643
2.4840598 -1.8235067 -0.55656654
2.6089659 -1.9151982 -0.55681741
2.764245 -2.029186 -0.56065601
2.8890054 -2.1207705 -0.55541933
3.075578 -2.2577305 -0.55885857
3.2455411 -2.3824973 -0.5556035
3.465699 -2.5441117 -0.5569213
3.7033832 -2.7185917 -0.5563342
3.9807699 -2.9222167 -0.55640137
4.2914267 -3.1502645 -0.55505705
4.6587052 -3.4198778 -0.55404866
5.089973 -3.7364643 -0.55241919
5.6222124 -4.127172 -0.55181587
6.2714863 -4.6037931 -0.55051893
7.0854774 -5.2013302 -0.54859632
8.1490479 -5.98208 -0.54664147
