# .PCD v0.7 - Point Cloud Data file format
VERSION 0.7
FIELDS x y z
SIZE 4 4 4
TYPE F F F
COUNT 1 1 1
WIDTH 1464
HEIGHT 1
VIEWPOINT 0 0 0 1 0 0 0
POINTS 1464
DATA ascii
1.2793033 -2.0569892 -0.56348747
1.3246042 -2.1298285 -0.56150943
1.3826177 -2.2231083 -0.56329495
1.4397811 -2.3150213 -0.56291896
1.4973241 -2.4075446 -0.56089032
1.5600884 -2.5084631 -0.55893081
1.6349525 -2.6288371 -0.55914313
1.7125493 -2.7536047 -0.5578922
1.8055291 -2.9031067 -0.55896842
1.8984306 -3.0524831 -0.55709618
2.0217354 -3.2507446 -0.56074095
2.1408205 -3.4422214 -0.55939806
2.2831488 -3.6710706 -0.56001544
2.4353037 -3.9157202 -0.55840981
2.6202281 -4.2130599 -0.55901444
2.8283265 -4.5476608 -0.55837798
3.0629778 -4.9249558 -0.55601859
3.3492749 -5.385293 -0.5548389
3.7085793 -5.9630179 -0.55559373
4.1506381 -6.6738033 -0.55613405
4.6923809 -7.5448709 -0.55454898
5.4006152 -8.6836395 -0.55297023
6.3517895 -10.213031 -0.55015343
7.7337217 -12.435037 -0.54793119
9.8690386 -15.868407 -0.54373562
13.626129 -21.909428 -0.53616369
21.999662 -35.373215 -0.51934046
1.1254765 -1.7609947 -0.55999368
1.1677146 -1.8270832 -0.56173688
1.2047702 -1.8850628 -0.55976379
1.2494261 -1.9549344 -0.56006432
1.2953722 -2.0268247 -0.55954534
1.3478411 -2.1089211 -0.56032455
1.4032701 -2.1956489 -0.56066698
1.4581094 -2.2814541 -0.55907428
1.5238744 -2.3843541 -0.55981082
1.5929123 -2.4923756 -0.55966824
1.671664 -2.6155956 -0.56065643
1.7568253 -2.7488449 -0.56126219
1.8428612 -2.8834622 -0.55950683
1.9469718 -3.0463603 -0.56030571
2.0533378 -3.2127876 -0.55850667
2.1777828 -3.4075022 -0.55806553
2.3268256 -3.6407046 -0.5597055
2.4844491 -3.8873329 -0.558676
2.6723564 -4.181345 -0.55912417
2.8777378 -4.5026979 -0.55716002
3.133918 -4.9035349 -0.55790865
3.4266593 -5.361577 -0.55669457
3.7930741 -5.9348936 -0.5572769
4.2223949 -6.6066375 -0.55482173
4.7850995 -7.4870825 -0.55458432
5.5108519 -8.6226425 -0.55335933
6.4762855 -10.133223 -0.55010253
7.8930826 -12.350037 -0.54842097
10.061774 -15.743315 -0.54364759
13.884971 -21.72534 -0.53579646
22.398787 -35.046616 -0.51854998
1.1472856 -1.7473913 -0.5601117
1.1939851 -1.8185179 -0.56357485
1.2336794 -1.8789749 -0.5624181
1.2672057 -1.9300377 -0.55735368
1.3200999 -2.0105991 -0.55950493
1.3689339 -2.0849764 -0.55839282
1.4195929 -2.1621335 -0.5565241
1.4908625 -2.2706819 -0.56088448
1.5569214 -2.3712935 -0.5611968
1.6297928 -2.4822817 -0.56185937
1.7020911 -2.592397 -0.56012774
1.7911572 -2.7280505 -0.56147099
1.8817555 -2.8660374 -0.56057322
1.980152 -3.0159018 -0.55913973
2.0956697 -3.191843 -0.5593031
2.2231698 -3.3860338 -0.55898446
2.3694589 -3.6088421 -0.5592441
2.5267909 -3.8484688 -0.55751377
2.7136807 -4.1331143 -0.55709481
2.9446473 -4.4848919 -0.55939484
3.1841803 -4.8497162 -0.55619812
3.4972947 -5.3266101 -0.55748695
3.8587327 -5.8771038 -0.55626386
4.3046718 -6.5562983 -0.5549975
4.8678699 -7.4140859 -0.55356926
5.6041799 -8.5355349 -0.55214983
6.6076832 -10.063936 -0.55071044
8.0346899 -12.237362 -0.54776335
10.242196 -15.599539 -0.54299074
14.132834 -21.525238 -0.53510696
22.796421 -34.720448 -0.5178324
1.1754733 -1.7432214 -0.56336564
1.2189244 -1.8076593 -0.564812
1.250791 -1.8549172 -0.55977845
1.2961478 -1.9221811 -0.55964512
1.343645 -1.9926192 -0.559057
1.4104949 -2.0917573 -0.56481123
1.4589275 -2.1635826 -0.56147224
1.5148717 -2.2465477 -0.55948198
1.5792203 -2.3419762 -0.55881196
1.6537083 -2.4524417 -0.55966562
1.7346535 -2.5724831 -0.56039137
1.814638 -2.6910999 -0.55841631
1.9181138 -2.8445537 -0.56094205
2.0173638 -2.9917409 -0.55921715
2.1289411 -3.1572096 -0.55777937
2.2663777 -3.3610275 -0.55941463
2.4080157 -3.5710762 -0.55793804
2.5801537 -3.8263559 -0.5588643
2.771178 -4.1096439 -0.55848205
2.9898629 -4.4339528 -0.55758476
3.2509253 -4.8211069 -0.55745947
3.5526299 -5.2685337 -0.55593866
3.9257598 -5.8218832 -0.55556428
4.3849516 -6.5028629 -0.55499655
4.9629326 -7.3600059 -0.55404603
5.7144122 -8.4744463 -0.55270183
6.7311249 -9.9822264 -0.55072677
8.17484 -12.123249 -0.54711366
10.427777 -15.464345 -0.54270715
14.388688 -21.338358 -0.53481913
23.185024 -34.383282 -0.51701665
1.1883841 -1.7164545 -0.55939543
1.2296104 -1.7760003 -0.55960196
1.2769142 -1.844324 -0.56127763
1.3187783 -1.9047906 -0.55926102
1.3687606 -1.9769832 -0.55935001
1.4327396 -2.069392 -0.5634867
1.4863325 -2.1467993 -0.56181735
1.5458492 -2.2327631 -0.56074053
1.6152394 -2.3329873 -0.56136382
1.6826698 -2.4303811 -0.55931073
1.7745365 -2.5630696 -0.56305158
1.8477917 -2.6688766 -0.55847746
1.9511508 -2.8181643 -0.56042695
2.0581651 -2.9727316 -0.56035215
2.1696069 -3.1336937 -0.55829591
2.3057859 -3.3303852 -0.55899131
2.4470215 -3.53438 -0.55686378
2.6292961 -3.7976501 -0.5593515
2.8174627 -4.0694308 -0.55768311
3.0440435 -4.3966947 -0.55756438
3.2995059 -4.7656746 -0.55569923
3.6229131 -5.2327909 -0.55682588
4.0006981 -5.7784486 -0.55607188
4.4603691 -6.442379 -0.55447352
5.0438418 -7.2851238 -0.55303609
5.8033547 -8.3821335 -0.55129367
6.8420997 -9.8824558 -0.54982251
8.3126116 -12.006404 -0.54641211
10.61103 -15.326147 -0.54239523
14.638267 -21.142927 -0.534392
23.562449 -34.032661 -0.51606208
1.2122191 -1.7056811 -0.56069988
1.2564672 -1.7679415 -0.5618884
1.2972792 -1.825367 -0.56032079
1.3484062 -1.8973063 -0.56188929
1.3868476 -1.9513961 -0.55689341
1.4544938 -2.0465791 -0.56210244
1.5150621 -2.1318033 -0.56272572
1.5729091 -2.2131982 -0.56064206
1.638159 -2.3050096 -0.5594365
1.7184348 -2.4179635 -0.56127352
1.7979118 -2.5297935 -0.56055582
1.8891988 -2.658241 -0.56107062
1.9776629 -2.7827165 -0.55817151
2.0950921 -2.9479477 -0.56049424
2.2112992 -3.11146 -0.55913687
2.3502331 -3.3069501 -0.55986619
2.4974062 -3.5140336 -0.55845428
2.6690001 -3.7554789 -0.55793184
2.8670206 -4.0341077 -0.55763155
3.1039896 -4.3675408 -0.55866522
3.3649559 -4.7347393 -0.55687469
3.6809926 -5.1794262 -0.55592173
4.0679626 -5.7239213 -0.55559629
4.5400128 -6.3881307 -0.5545674
5.1456518 -7.2403088 -0.55439538
5.9215021 -8.3319874 -0.55274272
6.9599013 -9.7930908 -0.5495705
8.4631338 -11.908249 -0.54663986
10.782434 -15.171674 -0.54157966
14.871773 -20.925673 -0.53348255
23.94911 -33.698151 -0.51541626
1.2361214 -1.69479 -0.56207383
1.271611 -1.7434483 -0.55903125
1.3211541 -1.8113747 -0.56097001
1.3687751 -1.8766657 -0.56071866
1.4284236 -1.958447 -0.56387562
1.4828727 -2.0330997 -0.5633657
1.5418844 -2.1140079 -0.56299055
1.6011721 -2.1952946 -0.56105179
1.673455 -2.2943983 -0.56181294
1.7440778 -2.3912263 -0.56000286
1.8250449 -2.5022364 -0.55937999
1.9169294 -2.6282151 -0.55966592
2.0192165 -2.7684565 -0.56024915
2.1300018 -2.9203489 -0.5601843
2.2526526 -3.08851 -0.55994803
2.3789339 -3.2616484 -0.55710697
2.5401227 -3.4826474 -0.55838799
2.7165103 -3.7244844 -0.55824757
2.921634 -4.0057201 -0.5586313
3.1516998 -4.3211527 -0.55764669
3.424264 -4.6948533 -0.55709374
3.7475471 -5.138092 -0.55638927
4.1260886 -5.6570935 -0.55399245
4.6170712 -6.3302569 -0.55442995
5.2250066 -7.1637697 -0.55341256
6.0146313 -8.2463884 -0.55192882
7.0720935 -9.6962271 -0.54897332
8.6037874 -11.796264 -0.54631442
10.973106 -15.044729 -0.5418238
15.121768 -20.732771 -0.53326494
24.315556 -33.337959 -0.51444137
1.2574264 -1.6802114 -0.56232429
1.2959083 -1.7316324 -0.56030971
1.3382215 -1.7881725 -0.55883837
1.3907741 -1.858395 -0.56032699
1.4417048 -1.92645 -0.55972493
1.502408 -2.0075636 -0.56136644
1.5557534 -2.0788453 -0.55867863
1.6223803 -2.1678741 -0.55910021
1.7002532 -2.2719305 -0.56138825
1.7696595 -2.3646731 -0.55883825
1.855603 -2.4795134 -0.55935884
1.9522766 -2.6086917 -0.56057811
2.0390365 -2.724623 -0.55641055
2.1504259 -2.8734651 -0.55622119
2.287374 -3.0564592 -0.55919433
2.4321449 -3.2499063 -0.56016725
2.5893083 -3.4599128 -0.55980545
2.7640433 -3.693399 -0.55864042
2.9690716 -3.9673643 -0.55833155
3.2112501 -4.2909703 -0.55880523
3.474412 -4.6426153 -0.55592263
3.8177257 -5.1013618 -0.55745316
4.2101483 -5.6257291 -0.55594873
4.6975698 -6.2770362 -0.55478591
5.3100557 -7.095459 -0.55313772
6.1179671 -8.1750145 -0.55214506
7.1987233 -9.619154 -0.5495798
8.7434139 -11.683217 -0.54601687
11.150853 -14.900111 -0.54151267
15.368505 -20.535868 -0.53302073
24.70274 -33.008556 -0.51400679
1.2713655 -1.6559945 -0.55940932
1.3366007 -1.7409655 -0.56860477
1.3598516 -1.7712507 -0.55873346
1.4091308 -1.8354384 -0.55858749
1.4643488 -1.9073616 -0.55936825
1.5180712 -1.9773368 -0.55809182
1.5846931 -2.0641139 -0.55991417
1.6565478 -2.157707 -0.56168896
1.7232054 -2.2445307 -0.55981141
1.8014132 -2.3463988 -0.55971211
1.8803953 -2.4492755 -0.55771142
1.9811755 -2.5805452 -0.55972242
2.0974238 -2.7319622 -0.56313366
2.2051034 -2.8722184 -0.56118613
2.3149297 -3.0152707 -0.55682445
2.4563756 -3.1995084 -0.55664462
2.6317334 -3.4279177 -0.55982232
2.8032501 -3.6513236 -0.55744791
3.0105729 -3.9213684 -0.55702621
3.2605453 -4.2469654 -0.55825359
3.5276554 -4.5948849 -0.55535942
3.872977 -5.0446777 -0.55642104
4.2749743 -5.5682921 -0.55542552
4.7805071 -6.2267647 -0.55549622
5.4009137 -7.0348644 -0.55354941
6.2046781 -8.0817938 -0.5509603
7.3144188 -9.5272665 -0.54942709
8.8810148 -11.567809 -0.54568571
11.325056 -14.751251 -0.54112279
15.598173 -20.317123 -0.53228122
25.06077 -32.642464 -0.51306581
1.2979892 -1.648312 -0.56216323
1.3421354 -1.704373 -0.56200111
1.3815531 -1.7544292 -0.55874383
1.4386435 -1.8269281 -0.56133884
1.4965441 -1.9004561 -0.56269735
1.5497742 -1.9680527 -0.5608077
1.6130785 -2.0484426 -0.56100124
1.6851535 -2.1399703 -0.56242347
1.7507671 -2.2232928 -0.55984151
1.8304125 -2.3244345 -0.55979937
1.9124067 -2.4285586 -0.55830652
2.0109153 -2.553654 -0.55921084
2.1170535 -2.6884389 -0.55948597
2.2268829 -2.8279107 -0.55783713
2.3615873 -2.9989712 -0.55913484
2.4978416 -3.1720002 -0.55716032
2.6801887 -3.4035623 -0.56118464
2.8469458 -3.6153262 -0.55725461
3.0553939 -3.880034 -0.55644947
3.3129201 -4.2070656 -0.55832142
3.5874054 -4.5556335 -0.55590492
3.9268572 -4.986702 -0.55531037
4.3367648 -5.5072422 -0.55461317
4.8517165 -6.1611776 -0.55492544
5.4826121 -6.9623494 -0.55310643
6.3029127 -8.0040464 -0.55090201
7.4183111 -9.4204874 -0.54848826
9.0065765 -11.43742 -0.54471809
11.482726 -14.581873 -0.54004818
15.832727 -20.105925 -0.53180844
25.428415 -32.291454 -0.51242465
1.3149251 -1.6282246 -0.5607844
1.3499647 -1.671613 -0.55663037
1.4002934 -1.7339331 -0.55765784
1.4575592 -1.8048434 -0.56001776
1.5112245 -1.8712951 -0.55952299
1.5714635 -1.9458869 -0.55995542
1.6410055 -2.0319984 -0.56198144
1.7111132 -2.1188102 -0.56234956
1.7656207 -2.1863048 -0.55595261
1.8540987 -2.2958641 -0.55836719
1.9417008 -2.4043386 -0.55818528
2.0381701 -2.523793 -0.55811775
2.1555033 -2.6690824 -0.56093127
2.2698252 -2.8106434 -0.55989432
2.3892412 -2.9585118 -0.55702692
2.5533934 -3.1617756 -0.56083697
2.7126682 -3.3589997 -0.55929464
2.8875604 -3.5755627 -0.55655646
3.1080766 -3.8486199 -0.55738318
3.3641951 -4.1657624 -0.5582878
3.6450117 -4.5134873 -0.5561893
3.9902678 -4.9410057 -0.55564362
4.4110436 -5.4620371 -0.55548114
4.9138789 -6.0846801 -0.5534358
5.5624785 -6.8878179 -0.5525775
6.4008021 -7.9258842 -0.5508979
7.5370121 -9.3328123 -0.54873812
9.1616268 -11.344514 -0.54561746
11.66633 -14.445998 -0.54028809
16.060831 -19.887552 -0.53121597
25.786526 -31.930531 -0.51169026
1.34247 -1.621141 -0.56398755
1.380344 -1.6668769 -0.56066287
1.4315721 -1.7287389 -0.56160641
1.4684016 -1.7732134 -0.55576396
1.5357902 -1.8545907 -0.56013256
1.59728 -1.9288446 -0.56066084
1.6620314 -2.0070372 -0.56068784
1.7326248 -2.0922844 -0.56092155
1.8023299 -2.1764588 -0.55904222
1.8794742 -2.2696168 -0.55756229
1.9799498 -2.3909492 -0.56068665
2.0799239 -2.5116761 -0.56105167
2.177937 -2.6300349 -0.55831116
2.3089876 -2.7882891 -0.56105477
2.4435432 -2.9507756 -0.56118512
2.5803018 -3.1159227 -0.55828941
2.7576382 -3.3300707 -0.56008154
2.9295881 -3.5377142 -0.55623031
3.1552908 -3.8102684 -0.55740583
3.413434 -4.1219974 -0.55800551
3.7036548 -4.4724622 -0.55670375
4.049675 -4.8903098 -0.55550051
4.4634767 -5.3900084 -0.55369574
4.9899149 -6.0257249 -0.55361253
5.6528187 -6.8262348 -0.55317158
6.5016928 -7.8513193 -0.55123037
7.6435585 -9.2302141 -0.54819047
9.2898426 -11.218235 -0.5449968
11.834606 -14.291243 -0.53990197
16.282356 -19.66226 -0.53050601
26.14188 -31.56843 -0.51100028
1.3561548 -1.5972726 -0.56144285
1.399793 -1.6486696 -0.56028593
1.4514968 -1.709566 -0.56113362
1.5083691 -1.7765498 -0.56258035
1.5521502 -1.8281152 -0.55785859
1.6201541 -1.9082098 -0.56041133
1.6907911 -1.9914056 -0.5620867
1.7620342 -2.0753155 -0.5621385
1.8299105 -2.1552598 -0.55933452
1.9165233 -2.257272 -0.56027669
2.0108986 -2.3684268 -0.56116122
2.1031704 -2.4771042 -0.55906373
2.2134011 -2.6069331 -0.55914247
2.3291147 -2.7432203 -0.55770677
2.4693077 -2.9083388 -0.55884677
2.6225452 -3.0888212 -0.55916923
2.8022077 -3.3004267 -0.56084871
2.9828515 -3.5131881 -0.55809891
3.1957901 -3.7639863 -0.55634189
3.4576464 -4.0723996 -0.55700481
3.7464499 -4.4125509 -0.55493873
4.1104188 -4.8412313 -0.55562496
4.5374413 -5.3441768 -0.55467725
5.0592923 -5.9588108 -0.55313861
5.7302222 -6.7490287 -0.55258322
6.5908213 -7.7626376 -0.5506525
7.7484651 -9.1261053 -0.54762465
9.4164228 -11.090618 -0.54438108
12.002174 -14.136104 -0.53957582
16.517427 -19.454147 -0.5303309
26.481033 -31.189236 -0.51009452
1.3749313 -1.5796037 -0.56113261
1.4213617 -1.6329458 -0.56083959
1.4658997 -1.6841136 -0.55865365
1.5253419 -1.7524045 -0.56083143
1.5781573 -1.8130821 -0.55915064
1.6419475 -1.886368 -0.55988395
1.7079401 -1.9621843 -0.55972427
1.7789235 -2.0437343 -0.55946702
1.8520681 -2.1277671 -0.55806768
1.9433541 -2.2326422 -0.56005228
2.031956 -2.3344331 -0.5589847
2.1369891 -2.4551015 -0.55998617
2.2495751 -2.5844471 -0.56021023
2.3790278 -2.7331703 -0.5615685
2.5075397 -2.8808124 -0.55944008
2.6607068 -3.0567799 -0.55924934
2.832083 -3.2536674 -0.55877835
3.0248363 -3.4751136 -0.55791694
3.2446089 -3.7276018 -0.55681902
3.5107877 -4.0334039 -0.55753368
3.8074398 -4.3742156 -0.55596352
4.1653614 -4.785418 -0.55505568
4.5999393 -5.284687 -0.5543316
5.1331301 -5.8972483 -0.55324137
5.7970099 -6.6599536 -0.55108482
6.6832051 -7.6780682 -0.55044138
7.8538351 -9.0229578 -0.54718888
9.5527077 -10.974725 -0.54441702
12.173431 -13.98557 -0.53950286
16.745581 -19.238329 -0.53002077
26.828114 -30.821749 -0.5094412
1.3925518 -1.5606761 -0.56044936
1.4447501 -1.6191765 -0.56216955
1.4969698 -1.6777008 -0.56258994
1.5561213 -1.7439936 -0.56422085
1.6138647 -1.8087084 -0.56387931
1.6706687 -1.8723705 -0.56178433
1.732733 -1.9419278 -0.55998147
1.8083384 -2.0266612 -0.56083798
1.8805963 -2.1076429 -0.55881238
1.9697586 -2.2075698 -0.55979645
2.0686324 -2.3183808 -0.56118941
2.1620522 -2.4230793 -0.5587039
2.2863858 -2.5624239 -0.56148815
2.3948548 -2.6839883 -0.55747181
2.5392182 -2.8457808 -0.55865836
2.6992335 -3.025115 -0.55948627
2.865701 -3.2116804 -0.55757713
3.0628967 -3.4326839 -0.55710953
3.2947264 -3.6925025 -0.55758566
3.5529213 -3.9818695 -0.55640703
3.858566 -4.3244152 -0.55562234
4.2307448 -4.7415276 -0.55595702
4.6666541 -5.2300644 -0.55457926
5.1961517 -5.8234892 -0.55227417
5.8910842 -6.6023216 -0.55226833
6.7756362 -7.593667 -0.550322
7.9674706 -8.9293928 -0.54741472
9.6894808 -10.859303 -0.54456061
12.329677 -13.818253 -0.53885621
16.955271 -19.0023 -0.52922207
27.154404 -30.432787 -0.50849271
1.4122713 -1.5441307 -0.56070161
1.470132 -1.6073937 -0.56431234
1.5190474 -1.6608763 -0.56316918
1.5641426 -1.7101818 -0.55946207
1.6210445 -1.7723966 -0.55873084
1.6966245 -1.8550332 -0.56279945
1.7627989 -1.927386 -0.56199628
1.8309008 -2.0018463 -0.56015885
1.9102359 -2.0885887 -0.55994594
1.9928905 -2.1789606 -0.55871361
2.0872498 -2.28213 -0.55858493
2.1946104 -2.3995144 -0.55945045
2.3017018 -2.5166047 -0.55760771
2.434201 -2.6614749 -0.55897045
2.5752721 -2.8157175 -0.55893081
2.731333 -2.9863493 -0.55848604
2.9045112 -3.1756968 -0.55748838
3.1121917 -3.4027674 -0.55842286
3.3426349 -3.6547267 -0.5580458
3.609369 -3.9463649 -0.55760545
3.9088554 -4.2738132 -0.55525446
4.2884455 -4.6888442 -0.55592078
4.7224216 -5.1633401 -0.55361962
5.2776804 -5.7704415 -0.55335605
5.9550195 -6.5110216 -0.55071485
6.8696518 -7.5110502 -0.55041492
8.0735397 -8.827342 -0.54720324
9.8004627 -10.715503 -0.54335165
12.492342 -13.658714 -0.53858441
17.179369 -18.783354 -0.52896756
27.514145 -30.083055 -0.50826371
1.4327297 -1.528334 -0.56132036
1.4834102 -1.5823964 -0.56189781
1.5349401 -1.6373647 -0.56155437
1.5984499 -1.7051126 -0.56419104
1.645496 -1.7552979 -0.55967689
1.704703 -1.8184558 -0.55801964
1.781355 -1.9002227 -0.56042051
1.8543636 -1.978103 -0.55985314
1.9391177 -2.0685127 -0.5609138
2.0293474 -2.1647632 -0.56142926
2.1170683 -2.2583377 -0.55909097
2.2304468 -2.3792818 -0.56108528
2.3391623 -2.4952519 -0.55920744
2.4563897 -2.6203015 -0.55662471
2.6074839 -2.7814779 -0.55845654
2.7725086 -2.9575148 -0.55942696
2.9552505 -3.152451 -0.5597446
3.1586008 -3.3693705 -0.55927378
3.3834865 -3.6092625 -0.55741435
3.6477623 -3.8911731 -0.55610281
3.9634693 -4.2279468 -0.55558532
4.3384724 -4.6279736 -0.55498689
4.7847543 -5.1040349 -0.55352747
5.3490357 -5.7059703 -0.5534392
6.0437822 -6.4470768 -0.55155045
6.9518189 -7.4157057 -0.54965067
8.1715813 -8.7168608 -0.54654205
9.9433022 -10.606807 -0.54399872
12.644565 -13.488321 -0.53795582
17.387648 -18.547903 -0.52831811
27.834667 -29.692041 -0.50740176
1.4567999 -1.5162088 -0.56340367
1.4961469 -1.5571605 -0.5594272
1.5544726 -1.6178646 -0.56137973
1.6113325 -1.6770433 -0.56141698
1.6637901 -1.7316401 -0.55861461
1.7341424 -1.8048614 -0.56034923
1.8015077 -1.8749739 -0.55946493
1.8802295 -1.956906 -0.56035501
1.9508618 -2.0304189 -0.55704677
2.0516775 -2.1353457 -0.56030047
2.1424792 -2.2298503 -0.55851841
2.2462487 -2.3378518 -0.55778664
2.3707125 -2.4673913 -0.55945444
2.5063999 -2.6086118 -0.56064612
2.6456988 -2.7535915 -0.55934715
2.8031068 -2.9174187 -0.55832022
2.9785104 -3.0999753 -0.5568881
3.1929107 -3.3231189 -0.55807132
3.4202142 -3.5596919 -0.55621183
3.699928 -3.8508127 -0.55679464
4.030282 -4.1946387 -0.55767858
4.3872652 -4.5661793 -0.55400407
4.8509884 -5.0488138 -0.55396587
5.4043322 -5.624723 -0.55196261
6.1232247 -6.3729324 -0.55160707
7.043498 -7.3307352 -0.5497306
8.2873802 -8.6253424 -0.54715198
10.05945 -10.469679 -0.54326874
12.79824 -13.320157 -0.53748482
17.613712 -18.332006 -0.52829784
28.157581 -29.305861 -0.50668091
1.4594651 -1.482069 -0.5573442
1.5344125 -1.5581772 -0.56652814
1.5694997 -1.5938078 -0.5596866
1.6316216 -1.6568918 -0.56134504
1.6878595 -1.7140007 -0.55957729
1.764817 -1.7921501 -0.56309766
1.8227942 -1.8510253 -0.55896479
1.9108062 -1.9404004 -0.56231427
1.987469 -2.0182505 -0.56037086
2.0725019 -2.1046004 -0.55887783
2.1715708 -2.2052035 -0.55899107
2.2778206 -2.3130989 -0.55852133
2.4024508 -2.4396594 -0.55982244
2.5309174 -2.5701158 -0.55901885
2.6714315 -2.7128062 -0.55769283
2.8356645 -2.8795826 -0.55771017
3.0164905 -3.0632093 -0.55690461
3.2326791 -3.2827463 -0.55792469
3.456831 -3.5103698 -0.55510497
3.7499549 -3.8080335 -0.55723435
4.0631862 -4.1261158 -0.55516905
4.4388571 -4.5076051 -0.55347788
4.9103541 -4.9864049 -0.5537014
5.4815459 -5.566443 -0.55281615
6.1899781 -6.2858472 -0.55061597
7.1189919 -7.2292495 -0.54864323
8.3976612 -8.5277224 -0.54746842
10.185575 -10.343327 -0.54317027
12.95848 -13.159178 -0.53737819
17.817596 -18.093552 -0.52769995
28.477968 -28.919029 -0.50600892
1.4796304 -1.466046 -0.55811846
1.5354878 -1.5213906 -0.55997562
1.5946585 -1.580018 -0.56168747
1.6499065 -1.6347588 -0.56067753
1.7112107 -1.6955003 -0.5603646
1.7817234 -1.7653655 -0.5615232
1.8463485 -1.8293973 -0.55924731
1.9326737 -1.9149299 -0.56177759
2.0130882 -1.9946063 -0.56063658
2.0999806 -2.0807006 -0.55934608
2.1942029 -2.174058 -0.55789322
2.3139036 -2.2926598 -0.56041396
2.421464 -2.3992326 -0.55733615
2.5564067 -2.5329366 -0.55772722
2.6986704 -2.6738939 -0.55647326
2.8684056 -2.8420708 -0.55723411
3.0534031 -3.0253701 -0.55680925
3.2714403 -3.2414052 -0.55769324
3.5094385 -3.4772186 -0.55664462
3.7883444 -3.7535639 -0.55603826
4.1199903 -4.0821648 -0.55602986
4.5075769 -4.4661932 -0.55515689
4.975616 -4.9299355 -0.55418283
5.557981 -5.5069537 -0.5536536
6.271524 -6.2139454 -0.55103117
7.2144322 -7.1481972 -0.54918307
8.4817162 -8.4038458 -0.54617006
10.309038 -10.214392 -0.5430153
13.11757 -12.997138 -0.53730738
18.03105 -17.865507 -0.5274756
28.804449 -28.539997 -0.50553614
1.4986972 -1.4488567 -0.55854815
1.5517576 -1.5001527 -0.55913949
1.6047564 -1.5513889 -0.55848271
1.661018 -1.6057794 -0.55770135
1.7284726 -1.6709908 -0.55924648
1.804469 -1.7444599 -0.56188881
1.8753334 -1.8129677 -0.56123173
1.9539469 -1.8889668 -0.56116706
2.0450912 -1.97708 -0.56273615
2.1315598 -2.060673 -0.56096584
2.2342236 -2.1599226 -0.56127346
2.3275526 -2.2501481 -0.55697632
2.4604528 -2.3786285 -0.55953574
2.5963564 -2.5100124 -0.55966705
2.7421198 -2.6509283 -0.55866879
2.9076786 -2.8109813 -0.55810654
3.0855103 -2.9828992 -0.55593342
3.3099551 -3.1998799 -0.55750918
3.5499308 -3.431875 -0.55633175
3.8407266 -3.7130001 -0.55698329
4.1761909 -4.0373082 -0.55687255
4.557055 -4.4055066 -0.55453682
5.0312138 -4.8638968 -0.55367196
5.6168437 -5.4300513 -0.55282408
6.361218 -6.1496706 -0.55222607
7.3016458 -7.0588236 -0.54917312
8.5869923 -8.301425 -0.54633474
10.424736 -10.078053 -0.54254097
13.271279 -12.829932 -0.53710073
18.22608 -17.619957 -0.52680296
29.106091 -28.138144 -0.50471944
1.5240651 -1.4375515 -0.56137216
1.5741773 -1.4848191 -0.56059664
1.629748 -1.5372353 -0.56055939
1.6787452 -1.583451 -0.55707377
1.7531977 -1.6536773 -0.56062466
1.826251 -1.7225839 -0.5620333
1.892362 -1.784942 -0.55971706
1.9695202 -1.8577203 -0.55903685
2.0639603 -1.9467994 -0.56129873
2.1449914 -2.023231 -0.5579111
2.2425461 -2.115248 -0.55678797
2.365205 -2.2309439 -0.55937958
2.4812524 -2.340404 -0.557679
2.6225545 -2.4736853 -0.55871528
2.7771962 -2.6195486 -0.55921024
2.9333415 -2.7668304 -0.55645996
3.1392736 -2.9610727 -0.55901772
3.3539844 -3.1635954 -0.55833077
3.5916793 -3.3877974 -0.55630386
3.8839772 -3.6635029 -0.5566805
4.2124472 -3.9733276 -0.55515027
4.6062012 -4.3447299 -0.55397427
5.0807724 -4.7923622 -0.55259895
5.6648421 -5.343277 -0.55103981
6.4166832 -6.0524402 -0.55053866
7.3821597 -6.9631114 -0.54874748
8.6872387 -8.1941071 -0.54626083
10.538804 -9.9405689 -0.54207498
13.402852 -12.642039 -0.53609377
18.430426 -17.384222 -0.52649087
29.410387 -27.740906 -0.50404286
1.5385225 -1.4158481 -0.56024224
1.5937591 -1.4666804 -0.56110507
1.650862 -1.5192302 -0.56135374
1.707 -1.5708921 -0.55999756
1.7700893 -1.628951 -0.55957872
1.8341162 -1.6878726 -0.55802429
1.9120449 -1.7595876 -0.55909687
2.007071 -1.847037 -0.5632062
2.0803664 -1.914488 -0.55931598
2.1794436 -2.0056653 -0.56041503
2.2857409 -2.103487 -0.56104809
2.394618 -2.2036829 -0.55988485
2.5159633 -2.3153524 -0.55903929
2.658392 -2.4464245 -0.55989897
2.8027294 -2.5792532 -0.5579232
2.9750662 -2.7378488 -0.55794656
3.1643243 -2.9120164 -0.55706006
3.3839567 -3.1141365 -0.55690354
3.6257074 -3.336611 -0.55517757
3.9235878 -3.6107397 -0.55595213
4.2586904 -3.9191232 -0.55485153
4.6659508 -4.2939105 -0.55476815
5.1441231 -4.7339554 -0.55311614
5.7441506 -5.28614 -0.55238986
6.4780288 -5.9615021 -0.54947096
7.4616842 -6.8667254 -0.54834086
8.7750454 -8.075366 -0.54549694
10.669427 -9.8186979 -0.54254252
13.558556 -12.477463 -0.53614426
18.625961 -17.140818 -0.52601588
29.709789 -27.340876 -0.50337422
1.5567129 -1.3976305 -0.56056559
1.6133672 -1.4484953 -0.56169522
1.6729063 -1.5019499 -0.56252706
1.7208289 -1.5449753 -0.55825967
1.7890452 -1.6062205 -0.5592851
1.861848 -1.6715834 -0.56016552
1.9415721 -1.7431605 -0.5614208
2.0212505 -1.8146964 -0.56088108
2.10252 -1.8876609 -0.55898929
2.1935577 -1.9693954 -0.55777514
2.3154402 -2.0788224 -0.56202108
2.4154801 -2.1686392 -0.55848545
2.5429275 -2.2830625 -0.55875051
2.6831515 -2.408957 -0.55883271
2.8269026 -2.538018 -0.55648059
2.9980636 -2.6916878 -0.55601019
3.205076 -2.8775454 -0.55796289
3.4175615 -3.0683167 -0.55618268
3.68694 -3.3101668 -0.55827886
3.9693966 -3.5637591 -0.55619162
4.3089709 -3.8686321 -0.55516267
4.7121081 -4.2305717 -0.55402905
5.2034173 -4.6716733 -0.55327314
5.8023124 -5.2093673 -0.55178124
6.5556879 -5.8857541 -0.5498777
7.5442743 -6.7733154 -0.54824817
8.8814964 -7.9738855 -0.54597789
10.764651 -9.6645985 -0.54130071
13.713347 -12.311963 -0.53623801
18.809589 -16.887413 -0.52529758
30.011105 -26.944233 -0.50282782
1.5706334 -1.3756284 -0.5594449
1.6287956 -1.4265693 -0.56091702
1.6808954 -1.4722006 -0.559084
1.7382939 -1.5224727 -0.55781007
1.804247 -1.5802373 -0.55792069
1.8742864 -1.6415808 -0.55779254
1.9660732 -1.7219716 -0.56234026
2.0441475 -1.7903525 -0.56108338
2.1287732 -1.8644713 -0.5598315
2.2230182 -1.9470152 -0.55913621
2.3369567 -2.0468073 -0.56109226
2.434588 -2.1323171 -0.55679899
2.5757911 -2.2559888 -0.55983382
2.7038872 -2.368181 -0.55704433
2.866431 -2.5105438 -0.55814266
3.0378075 -2.6606426 -0.5572713
3.2328076 -2.8314321 -0.55668741
3.4529355 -3.0242298 -0.55584556
3.7148194 -3.2535989 -0.55640036
4.0112929 -3.5132632 -0.55596685
4.3461394 -3.8065362 -0.55387896
4.7624264 -4.1711383 -0.55387288
5.2636147 -4.6101003 -0.55360448
5.87046 -5.141602 -0.55220777
6.630455 -5.8072381 -0.55011779
7.6283393 -6.6812282 -0.54834545
8.9690781 -7.855505 -0.54538256
10.89291 -9.5404797 -0.54181015
13.853546 -12.133533 -0.53584558
19.020384 -16.658871 -0.525424
30.302965 -26.540644 -0.50221193
1.5975418 -1.3648527 -0.5630089
1.6495622 -1.409296 -0.56205827
1.6963022 -1.4492282 -0.55823898
1.7632053 -1.5063865 -0.55981761
1.8313277 -1.5645865 -0.56030321
1.8912929 -1.6158177 -0.55689859
1.9787064 -1.6904989 -0.55996573
2.0592184 -1.759284 -0.55923992
2.1453991 -1.8329121 -0.55823439
2.2593424 -1.9302591 -0.56226009
2.3486056 -2.0065207 -0.55792308
2.4637282 -2.1048751 -0.55750191
2.5953169 -2.2172973 -0.55810964
2.7388408 -2.3399165 -0.55827552
2.8993881 -2.4770792 -0.55858678
3.0812027 -2.6324117 -0.55925167
3.2703719 -2.7940276 -0.55719763
3.4838731 -2.9764314 -0.55489218
3.7623377 -3.2143362 -0.55755538
4.0617599 -3.4701462 -0.55700529
4.3908606 -3.751312 -0.55365789
4.8187685 -4.1168933 -0.55449605
5.3220997 -4.5469122 -0.55383337
5.9314599 -5.0675163 -0.55204254
6.7079358 -5.7308946 -0.55065787
7.7058396 -6.5834494 -0.54805583
9.0648813 -7.7445402 -0.54537612
11.005597 -9.4025822 -0.54162335
13.990026 -11.952316 -0.53539932
19.198544 -16.402189 -0.52473438
30.593578 -26.137486 -0.5016638
1.6109556 -1.342401 -0.56187642
1.6685637 -1.3904057 -0.56266457
1.7220539 -1.4349787 -0.56086439
1.7826695 -1.4854894 -0.56015563
1.8494694 -1.5411534 -0.56001335
1.9189391 -1.5990422 -0.55920714
1.9908789 -1.6589893 -0.55759531
2.0813262 -1.7343587 -0.55940986
2.1800253 -1.816604 -0.56138939
2.2625704 -1.8853884 -0.55725181
2.3775141 -1.9811704 -0.55896097
2.5002482 -2.0834439 -0.55992627
2.6192088 -2.1825733 -0.55743396
2.765919 -2.3048263 -0.55797583
2.9205556 -2.4336841 -0.55685741
3.1039908 -2.5865397 -0.5575729
3.295094 -2.7457852 -0.55561525
3.5448577 -2.953912 -0.55877793
3.800627 -3.1670432 -0.55741632
4.0971122 -3.4141026 -0.55605417
4.4528761 -3.7105589 -0.5556823
4.8602571 -4.0500274 -0.55349773
5.3692403 -4.4741602 -0.5529719
5.9886885 -4.9903436 -0.55161601
6.7720432 -5.6431093 -0.55018258
7.7940345 -6.494729 -0.54860699
9.1565523 -7.6301084 -0.54520547
11.101211 -9.2505827 -0.54068995
14.120299 -11.766374 -0.53480732
19.384987 -16.15341 -0.52436161
30.880159 -25.732279 -0.50113666
1.6266049 -1.3218951 -0.56162286
1.6788504 -1.3643537 -0.56043369
1.7277007 -1.4040529 -0.55703831
1.8004407 -1.4631665 -0.56004393
1.8724334 -1.521673 -0.56125867
1.9452106 -1.5808169 -0.56115592
2.0229712 -1.6440107 -0.56087923
2.1018796 -1.7081374 -0.55924642
2.1907711 -1.7803769 -0.55847675
2.2950871 -1.8651515 -0.55956942
2.4031711 -1.9529883 -0.55930471
2.525059 -2.052043 -0.55978942
2.6589627 -2.1608629 -0.56019729
2.7975945 -2.273525 -0.55868393
2.9596298 -2.4052062 -0.55862617
3.1224468 -2.5375228 -0.55524117
3.3311534 -2.7071328 -0.55604047
3.5636106 -2.896044 -0.55607849
3.8307357 -3.1131291 -0.55617577
4.1282964 -3.354948 -0.5546456
4.489378 -3.6483886 -0.55459708
4.912344 -3.9921212 -0.55379725
5.4188876 -4.4037747 -0.55246639
6.0439863 -4.9117742 -0.55110461
6.8323588 -5.5524621 -0.54949433
7.872292 -6.3975859 -0.54853666
9.2518005 -7.5186729 -0.54533064
11.219048 -9.1173983 -0.54092789
14.262519 -11.59074 -0.53475535
19.565304 -15.900162 -0.52391094
31.155628 -25.319286 -0.50051671
1.6373123 -1.2974977 -0.5597688
1.7088671 -1.3542017 -0.56485242
1.756806 -1.3921912 -0.56086046
1.821278 -1.4432824 -0.56096274
1.8899848 -1.4977295 -0.5609569
1.9540243 -1.548478 -0.5581634
2.0382948 -1.6152586 -0.55957866
2.1328185 -1.6901644 -0.5619061
2.2094057 -1.7508564 -0.55769664
2.3178928 -1.8368278 -0.55958056
2.4191146 -1.9170415 -0.55748695
2.5389557 -2.0120103 -0.5573433
2.6634686 -2.1106813 -0.55563647
2.8232386 -2.2372921 -0.5582689
2.9834666 -2.3642657 -0.55759591
3.1669877 -2.5096979 -0.55763173
3.367974 -2.6689708 -0.55666631
3.6047921 -2.8566384 -0.55698121
3.8637023 -3.0618136 -0.5554539
4.1712012 -3.3054929 -0.55490714
4.5266643 -3.5871813 -0.55371231
4.9612083 -3.9315383 -0.55381405
5.4771547 -4.3404036 -0.55292368
6.1016665 -4.8353014 -0.55090094
6.900713 -5.4685102 -0.54954213
7.9374766 -6.2900996 -0.54764783
9.3343945 -7.3970957 -0.54479647
11.324992 -8.9745569 -0.54067439
14.392962 -11.405787 -0.53434724
19.75876 -15.657945 -0.52389592
31.429293 -24.906326 -0.49995527
1.6571351 -1.2803532 -0.56112087
1.7077025 -1.3194231 -0.55906242
1.7755979 -1.3718811 -0.56143183
1.8305287 -1.4143225 -0.55841327
1.9108568 -1.4763864 -0.56172103
1.9741699 -1.525304 -0.55851817
2.0687001 -1.5983407 -0.56248772
2.1418946 -1.6548933 -0.5588938
2.2440126 -1.7337927 -0.56100821
2.3371487 -1.8057524 -0.55882651
2.4506664 -1.8934598 -0.55935025
2.5740609 -1.988798 -0.5596388
2.7011826 -2.0870161 -0.55810833
2.8475819 -2.2001288 -0.55769074
3.0169058 -2.3309536 -0.55844641
3.1916692 -2.4659812 -0.55659634
3.3990879 -2.6262391 -0.55642933
3.616787 -2.7944403 -0.55348349
3.9002097 -3.0134211 -0.55533326
4.2251177 -3.2644548 -0.55669761
4.5716367 -3.532186 -0.5538587
5.0064254 -3.8681173 -0.55351019
5.5262976 -4.2697864 -0.55254263
6.1590462 -4.758667 -0.55075675
6.9653249 -5.3816228 -0.54937613
8.011138 -6.1896496 -0.54743743
9.4233923 -7.2808008 -0.54472435
11.431607 -8.8324089 -0.54053837
14.522106 -11.220222 -0.53397918
19.925112 -15.39475 -0.52324784
31.695349 -24.488794 -0.49935967
1.674257 -1.2610142 -0.5616256
1.7280413 -1.3015234 -0.56043911
1.7812327 -1.341586 -0.55795515
1.8465251 -1.3907628 -0.55803388
1.9179223 -1.4445376 -0.5585342
1.9975258 -1.5044934 -0.55984962
2.0797226 -1.5664023 -0.56020528
2.1665666 -1.6318111 -0.56005347
2.2513487 -1.6956673 -0.55758739
2.3579266 -1.7759395 -0.55853087
2.466886 -1.8580053 -0.55779546
2.5954154 -1.9548107 -0.55901325
2.729804 -2.0560296 -0.55875611
2.8704844 -2.1619868 -0.5569275
3.040077 -2.2897203 -0.55748165
3.2228019 -2.4273448 -0.55677837
3.4370494 -2.5887115 -0.55739057
3.6774161 -2.7697504 -0.55750751
3.9343135 -2.9632401 -0.55495906
4.2573171 -3.2065194 -0.55570304
4.61972 -3.4794736 -0.55445868
5.0507812 -3.8041396 -0.55320066
5.5757842 -4.1995602 -0.55228561
6.2145123 -4.6806364 -0.55052835
7.0323534 -5.296617 -0.54948437
8.0825119 -6.0875731 -0.54715812
9.512948 -7.164947 -0.54476708
11.532885 -8.6863194 -0.54023588
14.648945 -11.033269 -0.5336141
20.101498 -15.140014 -0.52295136
31.971296 -24.08009 -0.49900445
1.6884418 -1.2394569 -0.56122887
1.7389501 -1.2765342 -0.55884403
1.8059654 -1.325729 -0.56055373
1.8684039 -1.371564 -0.55950671
1.9276272 -1.4150389 -0.55625123
2.0226035 -1.4847593 -0.56171876
2.0936251 -1.536895 -0.55881727
2.1749582 -1.5966005 -0.5571056
2.2789056 -1.6729065 -0.55927533
2.3826694 -1.7490777 -0.55925494
2.4909523 -1.8285664 -0.55811083
2.6139517 -1.9188582 -0.55788147
2.7552943 -2.0226154 -0.55884063
2.8954289 -2.1254859 -0.55665421
3.0705924 -2.2540705 -0.55795264
3.2571769 -2.3910389 -0.55759543
3.4641933 -2.5430064 -0.55667931
3.7111397 -2.7242856 -0.55749941
3.9837816 -2.9244275 -0.5568223
4.2855172 -3.1459265 -0.55429274
4.6676579 -3.4264495 -0.55511332
5.0923877 -3.7382367 -0.55268127
5.6328878 -4.1350088 -0.55286366
6.2744441 -4.6059642 -0.55077857
7.0819736 -5.1987586 -0.54832506
8.1664553 -5.9948578 -0.54780912
9.5939713 -7.0427737 -0.54440647
11.632583 -8.5392847 -0.53994656
14.783482 -10.852306 -0.53361356
20.264139 -14.875566 -0.52238441
32.224598 -23.655539 -0.49838027
1.7026483 -1.217955 -0.56093049
1.7475042 -1.2500418 -0.55661112
1.816408 -1.2993308 -0.5587936
1.8868364 -1.3497103 -0.56001413
1.9685384 -1.4081541 -0.56301767
2.0318086 -1.4534132 -0.55926955
2.114404 -1.5124961 -0.55935705
2.199909 -1.5736605 -0.55849785
2.292347 -1.639784 -0.55758345
2.4007795 -1.7173492 -0.55850691
2.5193136 -1.8021401 -0.55945802
2.6475434 -1.8938668 -0.56003827
2.7832406 -1.990935 -0.55950105
2.9298382 -2.0958006 -0.55827278
3.0878086 -2.2088015 -0.55610365
3.2821355 -2.3478093 -0.55688381
3.5028446 -2.5056891 -0.55789703
3.7474782 -2.6806829 -0.55796432
4.0057969 -2.8654656 -0.55493259
4.3265982 -3.0949445 -0.5546419
4.695787 -3.3590362 -0.55350465
5.1505637 -3.6843517 -0.55403632
5.6874952 -4.0684347 -0.55327135
6.325675 -4.5249438 -0.55034989
7.1544671 -5.1178036 -0.54902393
8.2276402 -5.8854761 -0.54701746
9.6868687 -6.9293056 -0.54480171
11.731438 -8.3918467 -0.53970456
14.923482 -10.675211 -0.5338884
20.433128 -14.616426 -0.52206808
32.477215 -23.231918 -0.4978314
1.7246257 -1.2018974 -0.56325942
1.7608961 -1.2271744 -0.55602825
1.8339819 -1.278108 -0.55932277
1.9139224 -1.3338189 -0.56314278
1.9731094 -1.3750665 -0.55944675
2.051229 -1.4295083 -0.55973434
2.1353021 -1.4880992 -0.56000245
2.2217619 -1.5483533 -0.55916989
2.3074126 -1.6080436 -0.55639637
2.4295557 -1.6931654 -0.56031537
2.5377812 -1.7685882 -0.55868739
2.6635311 -1.8562237 -0.55854976
2.8083858 -1.9571735 -0.55967563
2.9617367 -2.0640442 -0.5594725
3.1268096 -2.1790841 -0.55825967
3.3230135 -2.3158193 -0.55894572
3.5263259 -2.4575083 -0.55678189
3.7653549 -2.6240883 -0.5557797
4.0413027 -2.8163974 -0.55501175
4.3690915 -3.0448346 -0.55524772
4.7310801 -3.2971053 -0.55284399
5.1909666 -3.6176019 -0.55355549
5.7216806 -3.9874582 -0.55178541
6.3752708 -4.4429474 -0.54987007
7.2251892 -5.0352588 -0.54965818
8.3057404 -5.7882981 -0.54743642
9.7501364 -6.7949028 -0.54361981
11.847114 -8.2562923 -0.54031479
15.029114 -10.473839 -0.53301954
20.606546 -14.360771 -0.52194768
32.734486 -22.812773 -0.49743748
1.7461754 -1.1852864 -0.5654946
1.7817631 -1.209443 -0.55787915
1.8556581 -1.2596021 -0.56116736
1.9157053 -1.3003616 -0.55892038
2.0020764 -1.3589895 -0.56287932
2.0810442 -1.4125919 -0.56308782
2.1506686 -1.4598523 -0.55928236
2.2408986 -1.5210997 -0.55923653
2.3421903 -1.5898553 -0.56002599
2.4417546 -1.6574385 -0.55838627
2.5585206 -1.7366982 -0.55850959
2.6894643 -1.8255816 -0.55923831
2.8257041 -1.9180597 -0.55838448
2.9758022 -2.0199449 -0.5573954
3.1476662 -2.1366043 -0.55725056
3.3376162 -2.2655404 -0.556674
3.5587237 -2.415626 -0.55716515
3.7946377 -2.575762 -0.55538493
4.0657935 -2.7598202 -0.55367273
4.3962932 -2.9841597 -0.55399936
4.7817168 -3.2457814 -0.55405539
5.2230611 -3.5453615 -0.55228728
5.7726898 -3.9184442 -0.55201626
6.4352803 -4.3682041 -0.55037153
7.2814412 -4.9425693 -0.54927248
8.3667793 -5.679286 -0.54681534
9.8319454 -6.6738262 -0.54356444
11.927529 -8.0962877 -0.53940111
15.158028 -10.289118 -0.53306419
20.775602 -14.102271 -0.52179796
32.970772 -22.38023 -0.49680862
1.7358861 -1.14738 -0.55755121
1.805393 -1.1933224 -0.56064099
1.8686651 -1.2351438 -0.56046551
1.9388394 -1.2815274 -0.56102991
2.0101373 -1.3286537 -0.56050992
2.0859687 -1.3787764 -0.55979055
2.179451 -1.4405661 -0.56211823
2.2766335 -1.5048014 -0.56349409
2.3553684 -1.5568433 -0.55855739
2.4683015 -1.6314894 -0.55982703
2.5773356 -1.7035583 -0.55800182
2.7122886 -1.7927592 -0.55935812
2.8508968 -1.8843759 -0.55874169
2.9970324 -1.9809681 -0.55676723
3.1761436 -2.0993564 -0.55767977
3.3701265 -2.2275746 -0.55748564
3.5843754 -2.3691881 -0.5565781
3.8238976 -2.5275066 -0.55507672
4.1236491 -2.7256353 -0.55694515
4.4330935 -2.9301708 -0.55405444
4.8238673 -3.1884632 -0.55435461
5.283905 -3.4925373 -0.55413795
5.8141608 -3.8430238 -0.55142134
6.4894929 -4.2894025 -0.55045545
7.3359971 -4.8489223 -0.54884863
8.4397402 -5.5784698 -0.54705924
9.9165287 -6.5545926 -0.54374361
12.023219 -7.9470658 -0.53926849
15.268291 -10.091982 -0.53253746
20.922197 -13.829082 -0.52116948
33.205647 -21.948153 -0.49624354
1.7508538 -1.1265874 -0.55786705
1.8179258 -1.169745 -0.5600239
1.8849469 -1.2128698 -0.56083339
1.9450847 -1.2515653 -0.55834156
2.0169635 -1.2978158 -0.55792117
2.1063168 -1.3553102 -0.56073642
2.1890323 -1.4085335 -0.56007993
2.2662981 -1.4582502 -0.55645561
2.3801723 -1.5315226 -0.55993116
2.4814343 -1.5966798 -0.55831045
2.6003587 -1.6732016 -0.55848974
2.7337642 -1.7590414 -0.55928397
2.872021 -1.8480028 -0.55838597
3.0309489 -1.9502649 -0.55857068
3.1997962 -2.0589099 -0.55734539
3.3889554 -2.1806242 -0.55612272
3.6090584 -2.3222499 -0.55593473
3.8503339 -2.4774985 -0.55445004
4.1496201 -2.6700745 -0.55597639
4.4570808 -2.8679099 -0.55260313
4.8557501 -3.124434 -0.55356157
5.323585 -3.4254627 -0.5538401
5.8576579 -3.7691119 -0.55110943
6.5439014 -4.2106757 -0.55063713
7.3839293 -4.7511916 -0.54802233
8.4991465 -5.4687786 -0.5465098
9.9957047 -6.4317393 -0.54370737
12.111568 -7.7931929 -0.53889227
15.377297 -9.8945265 -0.53205562
21.076651 -13.561777 -0.52082348
33.439812 -21.516855 -0.4957515
1.7597606 -1.1019608 -0.55634546
1.8280648 -1.1447328 -0.55876875
1.9003216 -1.1899799 -0.56101173
1.9705698 -1.2339693 -0.56125915
2.0364189 -1.2752039 -0.55892313
2.1169746 -1.325648 -0.55919194
2.2096 -1.3836499 -0.56094676
2.3055503 -1.4437339 -0.56169206
2.3904974 -1.4969277 -0.55798775
2.4987962 -1.5647442 -0.55784547
2.6194601 -1.640304 -0.55821806
2.7582402 -1.7272079 -0.55990398
2.8904328 -1.8099869 -0.55759633
3.0518072 -1.9110394 -0.55804187
3.2239625 -2.0188429 -0.55718863
3.4280994 -2.1466732 -0.5581724
3.6388845 -2.2786667 -0.556171
3.8808682 -2.4301968 -0.55450195
4.1739912 -2.61375 -0.55489355
4.5102925 -2.8243418 -0.55485272
4.9028387 -3.070154 -0.55458403
5.3581285 -3.3552561 -0.55309975
5.9116516 -3.7018719 -0.55186498
6.5915055 -4.1275959 -0.5503304
7.4459443 -4.6626449 -0.54832828
8.5478792 -5.3526754 -0.54536986
10.061893 -6.3007498 -0.54305226
12.20283 -7.6414032 -0.5387314
15.507152 -9.7105665 -0.53237689
21.237925 -13.299172 -0.52072835
33.680725 -21.090845 -0.49544084
1.7878721 -1.0891929 -0.56095624
1.8452332 -1.1241379 -0.55974901
1.9052818 -1.1607202 -0.55822033
1.980576 -1.2065904 -0.55984098
2.0535886 -1.2510705 -0.55937105
2.1278319 -1.2963003 -0.55780715
2.2086794 -1.3455536 -0.55647057
2.3165252 -1.4112546 -0.56009573
2.4023497 -1.46354 -0.55651158
2.5172224 -1.5335218 -0.55770719
2.6405005 -1.6086241 -0.55844438
2.7653053 -1.6846566 -0.55709094
2.9100871 -1.7728595 -0.55714029
3.0707488 -1.8707365 -0.557257
3.242857 -1.9755869 -0.55621356
3.4390879 -2.0951331 -0.5557248
3.6669073 -2.2339232 -0.5562135
3.926409 -2.3920147 -0.55676413
4.1937499 -2.5548818 -0.55330199
4.5399113 -2.7657676 -0.55427068
4.9288259 -3.0026989 -0.55330521
5.4080911 -3.294673 -0.55403334
5.9562602 -3.6286242 -0.5518223
6.642035 -4.0464063 -0.55035329
7.4978371 -4.567771 -0.54797208
8.6220016 -5.2526255 -0.54593682
10.138774 -6.176661 -0.54306144
12.293418 -7.4892955 -0.53862423
15.615451 -9.5131168 -0.53203875
21.380774 -13.025419 -0.52026439
33.901031 -20.65291 -0.49490842
1.7928543 -1.062225 -0.55837905
1.8597126 -1.1018369 -0.55998898
1.9311839 -1.1441821 -0.56164467
1.9970423 -1.1832017 -0.56034052
2.0626574 -1.2220771 -0.55770588
2.1501329 -1.2739043 -0.55950463
2.228936 -1.3205934 -0.55744076
2.3265259 -1.3784131 -0.55837333
2.4349742 -1.4426663 -0.55991733
2.5338848 -1.5012685 -0.55726671
2.6677983 -1.5806092 -0.56006473
2.7920222 -1.654209 -0.55833322
2.9294698 -1.7356435 -0.55672306
3.0870643 -1.8290147 -0.55609441
3.2707477 -1.9378428 -0.5568682
3.4639912 -2.052335 -0.5556289
3.6903572 -2.1864517 -0.55565035
3.9510982 -2.3409348 -0.55614126
4.2278433 -2.5049 -0.55369449
4.5790491 -2.7129812 -0.55493414
4.9811139 -2.9511955 -0.55505925
5.4307084 -3.2175698 -0.55225539
5.9979515 -3.5536485 -0.55159467
6.6919703 -3.9648387 -0.55040962
7.5506988 -4.4736156 -0.54777366
8.6853352 -5.1458616 -0.54589921
10.214528 -6.0518732 -0.54309201
12.381496 -7.335752 -0.53849041
15.721121 -9.3144026 -0.53169656
21.526461 -12.753934 -0.51995403
34.111553 -20.210312 -0.49431643
1.8002361 -1.0369077 -0.55666494
1.8745064 -1.0796863 -0.56040359
1.9406339 -1.1177746 -0.56035328
2.0156224 -1.1609668 -0.56150573
2.0657239 -1.1898246 -0.55453724
2.1611249 -1.244774 -0.55833972
2.254976 -1.2988307 -0.55991668
2.3421094 -1.3490182 -0.55809009
2.4540699 -1.4135057 -0.56026924
2.5743301 -1.4827738 -0.56210935
2.6782441 -1.5426265 -0.55823326
2.806813 -1.6166801 -0.55727351
2.9686275 -1.7098829 -0.5601266
3.1326578 -1.8043617 -0.56026834
3.2931209 -1.8967859 -0.55666429
3.4912114 -2.0108829 -0.55598688
3.7074187 -2.1354148 -0.55422372
3.9715166 -2.2875311 -0.55501407
4.2731576 -2.4612715 -0.55562341
4.610323 -2.6554735 -0.55472511
5.000494 -2.8802059 -0.55323046
5.464427 -3.1474242 -0.55170691
6.0404835 -3.4792235 -0.55153
6.7374783 -3.8806815 -0.55018616
7.6219792 -4.3901401 -0.54898703
8.7507143 -5.0402741 -0.54607177
10.288054 -5.9257579 -0.54308605
12.471514 -7.1833959 -0.53852308
15.850563 -9.1296749 -0.53223729
21.668465 -12.480695 -0.51963776
34.325825 -19.771135 -0.49386108
1.8203732 -1.0189056 -0.55897528
1.880666 -1.052653 -0.5583331
1.9607602 -1.0974836 -0.56222552
2.0279689 -1.1351019 -0.56101453
2.1042593 -1.1778035 -0.56095165
2.1889877 -1.225228 -0.56160343
2.2656376 -1.2681307 -0.55864978
2.3524921 -1.3167453 -0.55666387
2.4635744 -1.3789207 -0.55852586
2.5686967 -1.43776 -0.5569768
2.696238 -1.5091479 -0.55807364
2.8302004 -1.5841298 -0.55800724
2.9686797 -1.6616398 -0.55623913
3.1434293 -1.7594513 -0.55828321
3.3170378 -1.8566241 -0.55680591
3.5160379 -1.9680091 -0.55604464
3.7467601 -2.0971498 -0.5562079
3.9955397 -2.2363975 -0.55448627
4.2945576 -2.403765 -0.55452073
4.6280255 -2.590415 -0.55298066
5.0331383 -2.8171661 -0.55296773
5.5148706 -3.086803 -0.55292583
6.0946302 -3.4113081 -0.55260211
6.7817607 -3.7959111 -0.54994911
7.6656623 -4.2906518 -0.5482918
8.7979097 -4.924397 -0.54519695
10.360612 -5.799078 -0.54311091
12.547395 -7.0230722 -0.53802997
15.941879 -8.9230452 -0.53157908
21.811235 -12.208262 -0.51942229
34.530838 -19.327723 -0.49335405
1.8425759 -1.0017811 -0.56196797
1.906088 -1.0363116 -0.56205475
1.9728519 -1.0726101 -0.56186831
2.0352466 -1.1065332 -0.55922145
2.1047528 -1.1443226 -0.55728996
2.2082317 -1.2005826 -0.56271052
2.2859266 -1.2428242 -0.55984199
2.3779857 -1.2928753 -0.55889225
2.4784849 -1.3475152 -0.5581075
2.5943918 -1.4105321 -0.55874521
2.7342136 -1.4865512 -0.56210792
2.8448584 -1.546707 -0.5571053
2.9972198 -1.6295437 -0.55779004
3.1488369 -1.7119756 -0.55546284
3.3331797 -1.8122001 -0.55573297
3.541012 -1.9251953 -0.55620837
3.7769628 -2.0534782 -0.55690092
4.0339427 -2.1931944 -0.55603105
4.3105621 -2.3435884 -0.5528245
4.6668491 -2.5372963 -0.5538497
5.0731606 -2.7582018 -0.55359674
5.538054 -3.0109572 -0.55149639
6.1291289 -3.3323159 -0.5519731
6.8315315 -3.7142017 -0.55023992
7.7136574 -4.1938004 -0.54799473
8.8616076 -4.817924 -0.54543179
10.410318 -5.659935 -0.54202729
12.634657 -6.8692746 -0.53810912
16.038763 -8.7200365 -0.53119409
21.945623 -11.931508 -0.51908946
34.748947 -18.892485 -0.49311388
1.8448087 -0.97380006 -0.5589546
1.9168148 -1.0118092 -0.56150669
1.9734643 -1.0417122 -0.55835235
2.0496173 -1.0819103 -0.55947238
2.1252041 -1.1218095 -0.55901033
2.2208183 -1.1722803 -0.56220216
2.2958925 -1.2119091 -0.55859083
2.4044414 -1.2692076 -0.56139958
2.506032 -1.3228332 -0.56060535
2.6006379 -1.3727719 -0.55641294
2.7271895 -1.4395733 -0.55698264
2.8666859 -1.5132078 -0.55769378
3.019908 -1.5940876 -0.55832231
3.1826499 -1.6799924 -0.55774128
3.3592198 -1.7731966 -0.55639714
3.5639362 -1.8812581 -0.55613357
3.7929881 -2.0021653 -0.5555917
4.0582881 -2.1422064 -0.55571395
4.3585801 -2.3007185 -0.55531245
4.6926832 -2.4770782 -0.55325902
5.102746 -2.6935339 -0.55316913
5.5899372 -2.9507022 -0.55300808
6.1614499 -3.2523806 -0.5512405
6.8711581 -3.627007 -0.54979783
7.7578721 -4.095068 -0.54751718
8.9235945 -4.7104058 -0.54564077
10.490235 -5.5373721 -0.54260206
12.709917 -6.7090521 -0.5377602
16.135389 -8.5172215 -0.53088552
22.086082 -11.658352 -0.5189817
34.931702 -18.439035 -0.49245253
1.8693991 -0.95757782 -0.56279498
1.9201643 -0.98358178 -0.55890268
1.9776582 -1.0130323 -0.55597252
2.0582449 -1.054312 -0.55824637
2.1242182 -1.088106 -0.55518967
2.2120955 -1.1331202 -0.55642468
2.314703 -1.1856796 -0.55957782
2.4167631 -1.2379588 -0.56067991
2.5219421 -1.2918354 -0.56056857
2.6271546 -1.3457294 -0.55850363
2.7379098 -1.4024624 -0.55560797
2.9046953 -1.4878963 -0.56148648
3.0490603 -1.5618457 -0.56011897
3.1946728 -1.6364338 -0.55627984
3.381777 -1.7322758 -0.55656314
3.6032743 -1.8457352 -0.55868822
3.8279288 -1.9608119 -0.55713594
4.0771985 -2.0884974 -0.5547449
4.381609 -2.2444282 -0.55468833
4.7202873 -2.4179122 -0.55296636
5.133101 -2.6293712 -0.55291295
5.60601 -2.8716133 -0.55106324
6.1936946 -3.1726477 -0.55059344
6.9217973 -3.54561 -0.55031961
7.8179231 -4.0046401 -0.54823846
8.9697218 -4.5946355 -0.54496545
10.545238 -5.4016757 -0.54197043
12.783688 -6.548295 -0.53743398
16.238903 -8.3181887 -0.53088582
22.215052 -11.379401 -0.51868504
35.142921 -18.001553 -0.49227244
1.8619505 -0.92504042 -0.55708605
1.9342691 -0.96096921 -0.55952638
2.0114701 -0.99932361 -0.5619809
2.078795 -1.0327716 -0.56033331
2.1600626 -1.0731462 -0.56106669
2.2314258 -1.1086004 -0.55781579
2.322484 -1.1538392 -0.55798674
2.4383214 -1.2113887 -0.56218308
2.5207198 -1.2523253 -0.5568319
2.6427581 -1.3129555 -0.55834639
2.7856023 -1.3839223 -0.56179047
2.8916502 -1.4366082 -0.55550808
3.0470648 -1.5138201 -0.55629075
3.2188091 -1.5991448 -0.55701649
3.3998296 -1.6890781 -0.5560739
3.6120422 -1.794508 -0.55658424
3.8502667 -1.9128609 -0.55692154
4.1148691 -2.0443187 -0.55640799
4.3922725 -2.1821361 -0.55259961
4.748343 -2.3590364 -0.55281299
5.1763711 -2.5716863 -0.55412567
5.672452 -2.8181455 -0.55414617
6.2492118 -3.104687 -0.55209321
6.9537678 -3.4547193 -0.54944241
7.8506665 -3.90031 -0.54713005
9.0236969 -4.4830861 -0.54485434
10.607256 -5.2698183 -0.54178649
12.876006 -6.3969617 -0.5379675
16.329884 -8.1128922 -0.53055871
22.334957 -11.096288 -0.51825964
35.337666 -17.556198 -0.49193919
1.8745615 -0.90274036 -0.55749583
1.9642575 -0.94593561 -0.56479377
2.0232604 -0.97434992 -0.56188518
2.087672 -1.0053688 -0.5593515
2.1735291 -1.0467154 -0.56117898
2.244138 -1.0807189 -0.55762947
2.341825 -1.1277623 -0.55925947
2.4386144 -1.1743736 -0.55887896
2.550375 -1.2281947 -0.56000435
2.6700997 -1.285851 -0.56073999
2.7878103 -1.3425374 -0.55886418
2.9143996 -1.4034995 -0.55652094
3.0707893 -1.4788128 -0.55726016
3.2464025 -1.5633835 -0.55842257
3.4208796 -1.6474072 -0.55616152
3.6294477 -1.7478482 -0.55591249
3.8643215 -1.8609573 -0.55560255
4.1280689 -1.9879713 -0.55484551
4.4330368 -2.134836 -0.5543837
4.7863398 -2.3049777 -0.55389506
5.2076297 -2.5078599 -0.55412889
5.6818624 -2.736238 -0.55173683
6.2742829 -3.0215323 -0.55098403
6.9862943 -3.3644187 -0.54870218
7.894712 -3.8018892 -0.54690021
9.0797796 -4.3725872 -0.54495293
10.677577 -5.142045 -0.5421077
12.945011 -6.2339826 -0.53760719
16.420698 -7.907784 -0.53030992
22.477579 -10.824621 -0.51844132
35.518368 -17.104729 -0.49148959
1.8975934 -0.88525605 -0.56106573
1.9523596 -0.91080528 -0.55811018
2.0264623 -0.94537532 -0.55950373
2.1035578 -0.98134154 -0.5603323
2.1836247 -1.018694 -0.56050903
2.2600954 -1.0543687 -0.55833083
2.3571203 -1.0996323 -0.55964077
2.4524524 -1.1441063 -0.55878389
2.559279 -1.1939424 -0.55869353
2.6614609 -1.2416117 -0.55567747
2.7916434 -1.3023438 -0.55638015
