# .PCD v0.7 - Point Cloud Data file format
VERSION 0.7
FIELDS x y z
SIZE 4 4 4
TYPE F F F
COUNT 1 1 1
WIDTH 1400
HEIGHT 1
VIEWPOINT 0 0 0 1 0 0 0
POINTS 1400
DATA ascii
-10.516502 -17.143692 -0.58520615
-14.96252 -24.391459 -0.59464014
-25.898857 -42.219555 -0.61750627
-1.0891832 -1.825541 -0.56959885
-1.1151112 -1.8689982 -0.5638141
-1.1589566 -1.9424859 -0.56596458
-1.19889 -2.0094166 -0.56484348
-1.2478731 -2.0915155 -0.56654263
-1.2975615 -2.1747966 -0.56695735
-1.347476 -2.2584565 -0.5658564
-1.4089994 -2.3615737 -0.56782132
-1.4646139 -2.454787 -0.56550539
-1.5369785 -2.5760748 -0.5675813
-1.6115321 -2.7010314 -0.5680784
-1.6928848 -2.8373837 -0.56844187
-1.7779884 -2.9800231 -0.56736583
-1.8787303 -3.1488729 -0.56826556
-1.9777833 -3.3148921 -0.56541604
-2.1085658 -3.5340917 -0.56790972
-2.2480047 -3.7678003 -0.56834817
-2.4066746 -4.0337415 -0.56881201
-2.5859339 -4.3341913 -0.56866014
-2.7967339 -4.6875057 -0.56911671
-3.04948 -5.1111245 -0.57058811
-3.3467598 -5.6093845 -0.57146823
-3.7015958 -6.2041125 -0.57159734
-4.1523118 -6.9595413 -0.5734638
-4.7118778 -7.8974104 -0.57397389
-5.4474444 -9.1302671 -0.57491386
-6.4640512 -10.834166 -0.57709056
-7.9501996 -13.325046 -0.58058649
-10.303661 -17.269598 -0.58513486
-14.645038 -24.546026 -0.59397322
-25.316631 -42.432301 -0.61601818
-1.0592782 -1.8260788 -0.56565976
-1.0934405 -1.8849707 -0.56453377
-1.1350099 -1.9566317 -0.56597692
-1.1779422 -2.0306423 -0.56669557
-1.2239345 -2.1099281 -0.56741053
-1.2692972 -2.1881282 -0.56632113
-1.3284534 -2.290107 -0.56965065
-1.3773803 -2.3744514 -0.5668025
-1.4439088 -2.4891396 -0.56928587
-1.5099021 -2.6029046 -0.56935894
-1.5773004 -2.7190917 -0.56775469
-1.6574707 -2.8572965 -0.56830508
-1.7491114 -3.015275 -0.56993949
-1.8402537 -3.1723943 -0.56838369
-1.9501041 -3.3617642 -0.56927782
-2.0683596 -3.5656235 -0.5688467
-2.2032213 -3.7981102 -0.56879056
-2.354454 -4.0588188 -0.56822276
-2.5289271 -4.359591 -0.56786972
-2.74031 -4.7239914 -0.56941241
-2.9860916 -5.1476922 -0.57052815
-3.2700684 -5.6372371 -0.57016611
-3.630182 -6.2580333 -0.57240927
-4.0565891 -6.9931121 -0.57207656
-4.6159906 -7.9574585 -0.5741694
-5.3294091 -9.1873131 -0.57433599
-6.3338752 -10.918901 -0.57741183
-7.7723074 -13.3986 -0.57958335
-10.080338 -17.377388 -0.58454305
-14.323071 -24.691393 -0.59318411
-24.751612 -42.669044 -0.61499006
-1.0406296 -1.8458545 -0.56777889
-1.0720195 -1.9015335 -0.56550348
-1.1094896 -1.9679974 -0.56527555
-1.1532048 -2.0455389 -0.56685263
-1.1926383 -2.1154857 -0.56491858
-1.2475857 -2.2129505 -0.56873202
-1.2835886 -2.2768121 -0.56237495
-1.3559602 -2.4051838 -0.57011533
-1.4082062 -2.4978571 -0.56727648
-1.476961 -2.6198134 -0.56904191
-1.5400321 -2.731688 -0.56638795
-1.6155559 -2.8656509 -0.56597281
-1.7037076 -3.0220132 -0.56721038
-1.8016247 -3.1956973 -0.56854665
-1.9053762 -3.3797302 -0.56830966
-2.0188444 -3.5809984 -0.56729621
-2.1533892 -3.8196521 -0.5680083
-2.3028018 -4.0846786 -0.56783593
-2.4693973 -4.3801832 -0.56655389
-2.6785553 -4.7511845 -0.56867707
-2.9199347 -5.1793404 -0.57001328
-3.2052729 -5.6854696 -0.57101494
-3.5447528 -6.2876344 -0.57108676
-3.970192 -7.0422721 -0.57206118
-4.5111494 -8.0018148 -0.57332408
-5.2155027 -9.2511873 -0.57427651
-6.1847205 -10.970372 -0.57606846
-7.6155367 -13.508335 -0.58023554
-9.8577566 -17.485554 -0.58405989
-14.00225 -24.837 -0.59250098
-24.184959 -42.898949 -0.61397099
-1.0139731 -1.8514218 -0.56561339
-1.0491844 -1.9157145 -0.56584132
-1.086169 -1.9832449 -0.56577605
-1.1210198 -2.0468793 -0.56336153
-1.167788 -2.1322739 -0.56552434
-1.2195448 -2.2267768 -0.56838846
-1.2686251 -2.3163931 -0.56825542
-1.3177965 -2.4061754 -0.56646657
-1.369266 -2.5001543 -0.5639317
-1.4348187 -2.6198473 -0.56517434
-1.5038767 -2.7459409 -0.56546617
-1.5825435 -2.8895793 -0.56681252
-1.6648289 -3.0398247 -0.56666827
-1.7602668 -3.2140858 -0.56792438
-1.8558735 -3.3886547 -0.56593025
-1.9768333 -3.6095164 -0.56792015
-2.1057537 -3.844913 -0.56787127
-2.253617 -4.1148982 -0.56814164
-2.4250653 -4.4279466 -0.56883186
-2.620384 -4.7845807 -0.5687747
-2.8513575 -5.2063169 -0.56908047
-3.1324706 -5.719604 -0.57053155
-3.4626985 -6.3225694 -0.57034934
-3.8734047 -7.0724816 -0.57060295
-4.4028802 -8.0392551 -0.57208431
-5.1011553 -9.3142414 -0.57425338
-6.0519819 -11.050364 -0.57631761
-7.4353561 -13.576279 -0.57918298
-9.631917 -17.586998 -0.58344811
-13.685248 -24.988008 -0.59204417
-23.605816 -43.102055 -0.61267716
-0.99068439 -1.8629072 -0.56535786
-1.025093 -1.9276098 -0.56558895
-1.0646998 -2.0020876 -0.56737369
-1.1002054 -2.0688531 -0.56564313
-1.1386324 -2.1411123 -0.56411242
-1.1891906 -2.2361832 -0.56701404
-1.2313517 -2.3154638 -0.56427038
-1.2849524 -2.416256 -0.56507725
-1.3401082 -2.5199721 -0.56464225
-1.4087124 -2.6489773 -0.56767869
-1.4735602 -2.7709186 -0.56683564
-1.5456456 -2.9064698 -0.56635475
-1.6273674 -3.0601413 -0.56668246
-1.7190539 -3.2325509 -0.5674091
-1.8203428 -3.423017 -0.56788778
-1.9318208 -3.632643 -0.56777847
-2.0568838 -3.8678148 -0.56747532
-2.2073693 -4.1507912 -0.56930673
-2.3634415 -4.4442735 -0.56715292
-2.5628092 -4.819169 -0.56909716
-2.7888789 -5.244276 -0.5694381
-3.0593185 -5.7528172 -0.57004899
-3.3819208 -6.3594465 -0.5698815
-3.7905691 -7.1278791 -0.57126868
-4.3018947 -8.0893879 -0.57184428
-4.9864507 -9.3766432 -0.57427698
-5.9101834 -11.113653 -0.57578462
-7.263412 -13.658298 -0.57882798
-9.4156075 -17.705339 -0.583489
-13.363853 -25.129717 -0.59146357
-23.040401 -43.325733 -0.61178321
-0.97001195 -1.879419 -0.56670618
-1.003195 -1.9437119 -0.56665123
-1.0357699 -2.0068264 -0.56506455
-1.0698578 -2.0728726 -0.56310266
-1.1167563 -2.1637394 -0.5664131
-1.1575899 -2.2428553 -0.56505388
-1.204975 -2.3346648 -0.56529599
-1.2579858 -2.4373746 -0.56635576
-1.3154749 -2.5487607 -0.56742549
-1.3745611 -2.6632416 -0.56707048
-1.4446381 -2.7990174 -0.56890672
-1.514634 -2.9346359 -0.56817102
-1.5928758 -3.0862312 -0.56784374
-1.6776375 -3.2504585 -0.56688857
-1.7798066 -3.4484136 -0.56842732
-1.8896979 -3.6613302 -0.56858736
-2.0127006 -3.8996503 -0.56847203
-2.1519799 -4.1695075 -0.56820142
-2.3178325 -4.49085 -0.56941658
-2.5091536 -4.8615389 -0.57041401
-2.7229788 -5.2758298 -0.56918555
-2.9894533 -5.79213 -0.5702588
-3.3101385 -6.4134645 -0.57103151
-3.6987 -7.1663103 -0.57066059
-4.2080655 -8.1532173 -0.57265526
-4.8633862 -9.4229145 -0.57340491
-5.7752843 -11.189737 -0.57600367
-7.0872221 -13.731645 -0.57819945
-9.1844463 -17.795063 -0.58267999
-13.041486 -25.268158 -0.59090286
-22.45503 -43.507103 -0.61039919
-0.9433623 -1.884277 -0.56463057
-0.97704393 -1.9515529 -0.56539184
-1.0085772 -2.0145376 -0.56370115
-1.0460165 -2.089319 -0.56403369
-1.090959 -2.1790874 -0.56687629
-1.1328943 -2.2628493 -0.56653863
-1.1748338 -2.3466194 -0.56465
-1.2272236 -2.4512632 -0.56603372
-1.2825125 -2.5616975 -0.56675184
-1.3386195 -2.6737659 -0.56576383
-1.4053915 -2.8071365 -0.56700164
-1.470403 -2.936991 -0.56508368
-1.5494467 -3.0948732 -0.56588548
-1.644636 -3.2850049 -0.56934351
-1.7381883 -3.4718668 -0.56872714
-1.8432163 -3.6816504 -0.56818026
-1.9641827 -3.9232693 -0.56835127
-2.1025958 -4.1997361 -0.56875455
-2.2608671 -4.5158682 -0.56902075
-2.4471304 -4.8879118 -0.56993461
-2.6583765 -5.3098555 -0.56928676
-2.9138741 -5.820188 -0.56945056
-3.2279265 -6.4474783 -0.57048279
-3.6083827 -7.2074032 -0.57035643
-4.1045141 -8.1983795 -0.5722391
-4.7483983 -9.484477 -0.57355464
-5.6329269 -11.251239 -0.57556051
-6.9110193 -13.804107 -0.57762861
-8.9597635 -17.89628 -0.58234274
-12.71693 -25.400866 -0.59030485
-21.869335 -43.681931 -0.60903311
-0.92129654 -1.898152 -0.56535083
-0.94786042 -1.9528817 -0.5623576
-0.984285 -2.0279274 -0.56401855
-1.0259272 -2.113723 -0.56717336
-1.0619353 -2.1879108 -0.56573194
-1.0988131 -2.26389 -0.5633738
-1.1517466 -2.3729496 -0.56753492
-1.1920295 -2.4559445 -0.56368738
-1.25405 -2.5837257 -0.56817079
-1.3115462 -2.7021854 -0.56832182
-1.370415 -2.823473 -0.56685477
-1.4441063 -2.9752998 -0.56899482
-1.5154008 -3.1221881 -0.56742984
-1.5953171 -3.28684 -0.56621885
-1.6893179 -3.4805105 -0.56669742
-1.7951872 -3.6986337 -0.5673517
-1.9196923 -3.9551518 -0.5695073
-2.0427783 -4.2087464 -0.56653017
-2.2067847 -4.5466499 -0.56943715
-2.3859656 -4.9158168 -0.56972438
-2.5902107 -5.3366246 -0.568699
-2.8467762 -5.8652282 -0.57038921
-3.1437924 -6.4771719 -0.5696466
-3.524164 -7.2608533 -0.57111377
-4.005127 -8.2517834 -0.57248586
-4.6281438 -9.535388 -0.57314855
-5.4954281 -11.322259 -0.57569325
-6.7464371 -13.899718 -0.57811439
-8.7321196 -17.990831 -0.58188146
-12.385125 -25.517138 -0.58942318
-21.301096 -43.886757 -0.60819095
-0.90169209 -1.9174255 -0.56774604
-0.92910427 -1.9757167 -0.56560057
-0.9613682 -2.0443251 -0.56524855
-0.99967808 -2.1257901 -0.56706995
-1.0305495 -2.1914375 -0.56332457
-1.076528 -2.2892096 -0.56633765
-1.1219939 -2.3858917 -0.56728768
-1.1646283 -2.4765525 -0.56508768
-1.2195798 -2.5934057 -0.56695879
-1.2736164 -2.7083132 -0.56627405
-1.3316755 -2.8317742 -0.56519121
-1.4030463 -2.9835424 -0.56722885
-1.476357 -3.1394358 -0.5672223
-1.5580626 -3.3131807 -0.56741321
-1.6514815 -3.5118337 -0.56844807
-1.7515785 -3.7246873 -0.56800139
-1.8614615 -3.9583509 -0.56662923
-1.9942889 -4.2408051 -0.56750166
-2.1454613 -4.5622697 -0.56804633
-2.3195624 -4.9324908 -0.56830823
-2.5255055 -5.3704238 -0.56894845
-2.765305 -5.8803511 -0.56851017
-3.0626621 -6.5126734 -0.56941378
-3.4325664 -7.2992659 -0.57077199
-3.8982189 -8.289464 -0.57173133
-4.5121136 -9.5948954 -0.57334709
-5.3502884 -11.377254 -0.5751009
-6.5639434 -13.958059 -0.57714027
-8.5045204 -18.084648 -0.58148956
-12.056869 -25.638626 -0.58876032
-20.718502 -44.057369 -0.60697889
-0.87714791 -1.9263902 -0.56716394
-0.90695047 -1.9918425 -0.56698149
-0.93651187 -2.0567653 -0.5654614
-0.9672811 -2.1243405 -0.5634678
-1.0025101 -2.2017102 -0.56275392
-1.0479304 -2.3014624 -0.56613821
-1.0898409 -2.3935061 -0.56586897
-1.1392039 -2.5019169 -0.56763601
-1.1864657 -2.6057134 -0.56641716
-1.2456574 -2.7357101 -0.5687567
-1.3035885 -2.8629379 -0.56816882
-1.3651252 -2.9980848 -0.56675941
-1.4373227 -3.1566448 -0.5670954
-1.5151167 -3.3274958 -0.56663132
-1.6111957 -3.5385044 -0.56951523
-1.7029064 -3.7399192 -0.56708807
-1.8109608 -3.9772279 -0.56610096
-1.9477807 -4.2777114 -0.56919235
-2.083287 -4.5753102 -0.5664376
-2.2608988 -4.9653807 -0.56885153
-2.4583457 -5.399013 -0.56873178
-2.7014658 -5.9329534 -0.57034105
-2.9907701 -6.5683222 -0.57102066
-3.3436692 -7.3433585 -0.57096165
-3.7999256 -8.3453884 -0.57232243
-4.3836389 -9.6273375 -0.57202148
-5.2095737 -11.441254 -0.57505441
-6.3871813 -14.027514 -0.57672095
-8.273963 -18.171259 -0.58095908
-11.733712 -25.76955 -0.58840907
-20.13385 -44.217915 -0.60573411
-0.8465153 -1.9214128 -0.56259131
-0.87588608 -1.9880782 -0.56280166
-0.90884054 -2.0628781 -0.56402683
-0.93852323 -2.1302516 -0.56193215
-0.98352587 -2.232398 -0.56746358
-1.0261232 -2.3290851 -0.56978619
-1.0609171 -2.4080601 -0.56618285
-1.1053571 -2.5089295 -0.56610042
-1.1587899 -2.6302109 -0.56860191
-1.2054449 -2.7361078 -0.56571501
-1.2673279 -2.8765693 -0.56773847
-1.3293884 -3.0174336 -0.56728405
-1.3951035 -3.1665933 -0.56575799
-1.4816008 -3.3629239 -0.56951886
-1.5568738 -3.5337782 -0.56563056
-1.6561502 -3.7591147 -0.56686795
-1.7670503 -4.0108347 -0.56774873
-1.8873987 -4.2840004 -0.56689817
-2.0346808 -4.6183004 -0.56861943
-2.194303 -4.9806094 -0.56746209
-2.3983939 -5.4438529 -0.57030541
-2.627707 -5.9643455 -0.57020956
-2.9077406 -6.5999637 -0.57061988
-3.24824 -7.3728256 -0.57010412
-3.6842725 -8.3625288 -0.57034791
-4.2691307 -9.6900349 -0.57258433
-5.0587792 -11.482371 -0.57395113
-6.2109752 -14.097615 -0.57641959
-8.0420923 -18.253868 -0.58039474
-11.396233 -25.867067 -0.58739156
-19.545986 -44.365303 -0.604415
-0.8280499 -1.9439384 -0.56616271
-0.85922396 -2.017123 -0.56799001
-0.88726717 -2.0829575 -0.56649107
-0.91520208 -2.1485379 -0.5637446
-0.95535421 -2.2427993 -0.56707853
-0.99036407 -2.3249888 -0.56576216
-1.0371615 -2.4348509 -0.56944025
-1.0738871 -2.5210683 -0.56581712
-1.1235447 -2.6376452 -0.5671795
-1.1702257 -2.7472341 -0.56499749
-1.2321203 -2.8925381 -0.56785697
-1.2951338 -3.0404694 -0.56857777
-1.3622315 -3.1979885 -0.56833148
-1.4303771 -3.3579679 -0.56565809
-1.5148064 -3.556175 -0.5661912
-1.6098597 -3.7793231 -0.56688732
-1.7133975 -4.0223894 -0.56635916
-1.8395617 -4.318574 -0.56843698
-1.9719216 -4.6293035 -0.56694585
-2.1392431 -5.022109 -0.56915027
-2.3234706 -5.4546032 -0.56839556
-2.5474486 -5.9804168 -0.5687083
-2.8178043 -6.6151066 -0.56889045
-3.1629336 -7.4253354 -0.57111388
-3.5840368 -8.4139214 -0.57080418
-4.1508079 -9.7444792 -0.57274216
-4.9201446 -11.550582 -0.57429308
-6.0371046 -14.172769 -0.57641351
-7.8118181 -18.339104 -0.58000684
-11.063758 -25.973391 -0.58667231
-18.959564 -44.509666 -0.60315996
-0.80464447 -1.9553311 -0.56655627
-0.83317649 -2.0246656 -0.56718612
-0.8606295 -2.0913777 -0.56586021
-0.8923229 -2.1683946 -0.56603289
-0.93045634 -2.261061 -0.56875998
-0.96513575 -2.3453338 -0.56778204
-1.0029998 -2.4373455 -0.56709635
-1.0460409 -2.5419378 -0.56757122
-1.0897521 -2.6481583 -0.56651592
-1.1369799 -2.7629249 -0.56530648
-1.1974975 -2.909986 -0.56834859
-1.2557155 -3.0514588 -0.56770247
-1.3183211 -3.203594 -0.56640393
-1.3861525 -3.3684282 -0.56450623
-1.4733055 -3.5802147 -0.56709141
-1.5618402 -3.7953589 -0.56636912
-1.6637362 -4.0429721 -0.56633389
-1.780892 -4.3276672 -0.56670856
-1.9197023 -4.6649837 -0.56838173
-2.0765085 -5.046032 -0.56892467
-2.2573471 -5.4854794 -0.5686776
-2.4742444 -6.0125523 -0.56882799
-2.7388642 -6.6555929 -0.56943285
-3.0693755 -7.4587541 -0.5707382
-3.4835606 -8.4652462 -0.57133687
-4.0255852 -9.7823973 -0.57201815
-4.7760167 -11.605988 -0.57408446
-5.8574147 -14.233846 -0.57592475
-7.5811324 -18.422575 -0.57965463
-10.731018 -26.076973 -0.58598715
-18.373856 -44.649494 -0.60194767
-0.77575982 -1.9530377 -0.56308526
-0.80008531 -2.0142791 -0.56147796
-0.83602369 -2.1047568 -0.56665581
-0.86407816 -2.1753862 -0.56504178
-0.89624888 -2.2563787 -0.56476724
-0.93519622 -2.3544316 -0.56715775
-0.97026187 -2.4427123 -0.56552637
-1.0079442 -2.5375805 -0.56378829
-1.0596982 -2.6678755 -0.56790346
-1.1069014 -2.7867134 -0.56734592
-1.1588514 -2.9175017 -0.56699049
-1.2092053 -3.0442715 -0.56355643
-1.2776588 -3.216609 -0.56588453
-1.3539394 -3.4086516 -0.56841409
-1.4324104 -3.6062083 -0.56837583
-1.5165436 -3.8180208 -0.56692523
-1.6126826 -4.0600581 -0.56590676
-1.7312272 -4.3585038 -0.56791604
-1.8590163 -4.680223 -0.56741035
-2.0073655 -5.0537043 -0.56696385
-2.1863515 -5.5043159 -0.56780028
-2.3979342 -6.0369925 -0.5683077
-2.6559765 -6.686635 -0.56925148
-2.9709682 -7.4796519 -0.56949878
-3.3771739 -8.5023069 -0.57099229
-3.8994484 -9.8171749 -0.57120478
-4.626483 -11.647543 -0.57328266
-5.6795087 -14.29862 -0.57567632
-7.3487329 -18.501026 -0.57923603
-10.399693 -26.182062 -0.58543074
-17.786381 -44.778648 -0.60069484
-0.75321794 -1.966424 -0.56423169
-0.78056484 -2.0378184 -0.56532133
-0.80364478 -2.0980732 -0.5621534
-0.83532667 -2.1807849 -0.56373346
-0.86926162 -2.2693789 -0.56530309
-0.91019076 -2.3762324 -0.5696702
-0.94099402 -2.4566505 -0.56603163
-0.98107153 -2.5612807 -0.56633079
-1.0191327 -2.6606472 -0.56365454
-1.0635598 -2.7766325 -0.56258851
-1.1216551 -2.9283018 -0.56636614
-1.1783228 -3.0762441 -0.56675011
-1.2414126 -3.2409525 -0.56743878
-1.3023783 -3.4001155 -0.56427747
-1.3826126 -3.6095827 -0.5661853
-1.4689825 -3.8350685 -0.56673157
-1.5679382 -4.0934119 -0.56782544
-1.680125 -4.3862977 -0.56880265
-1.7986546 -4.6957426 -0.56656766
-1.9480325 -5.0857229 -0.56782573
-2.1194355 -5.5332046 -0.56804901
-2.32798 -6.077651 -0.56939733
-2.5768449 -6.7273617 -0.56997806
-2.8774769 -7.5122213 -0.56924152
-3.2727132 -8.5440636 -0.5710507
-3.7772634 -9.8612909 -0.57102603
-4.4819722 -11.701072 -0.57316142
-5.4958997 -14.34813 -0.5749054
-7.111908 -18.567039 -0.57852107
-10.060285 -26.264357 -0.58446062
-17.212656 -44.937031 -0.59993488
-0.72624075 -1.9681058 -0.56210941
-0.75652081 -2.0501645 -0.56612283
-0.78236908 -2.120213 -0.56546509
-0.8109718 -2.197726 -0.56549215
-0.83956611 -2.2752166 -0.56414294
-0.87749833 -2.3780124 -0.56746721
-0.90758663 -2.4595516 -0.56408602
-0.94746107 -2.5676107 -0.5651117
-0.98454988 -2.6681211 -0.56263059
-1.0337647 -2.8014929 -0.56500733
-1.07682 -2.9181724 -0.56180352
-1.1365093 -3.0799296 -0.56481177
-1.1991658 -3.2497282 -0.56635076
-1.268375 -3.4372847 -0.56781471
-1.3378224 -3.6254866 -0.56605673
-1.4219525 -3.8534782 -0.56682539
-1.5162243 -4.108954 -0.56735224
-1.6185638 -4.3862929 -0.56617832
-1.7473059 -4.7351828 -0.56869102
-1.882686 -5.1020617 -0.56702232
-2.0518918 -5.5606079 -0.56822908
-2.2489371 -6.0945988 -0.56835133
-2.4871829 -6.7402425 -0.56843519
-2.7860224 -7.5500951 -0.56947249
-3.1620965 -8.569252 -0.57009238
-3.662153 -9.9244013 -0.57202959
-4.3314614 -11.738221 -0.57232893
-5.3211327 -14.42022 -0.57512867
-6.8768387 -18.636169 -0.57799661
-9.7256823 -26.35651 -0.58380592
-16.617001 -45.031918 -0.59842849
-0.7071774 -1.9915036 -0.56626564
-0.73239559 -2.0625215 -0.56700528
-0.75183672 -2.11727 -0.56217206
-0.78057247 -2.1981938 -0.56310022
-0.81842029 -2.3047779 -0.56893444
-0.84398323 -2.3767667 -0.56465071
-0.88120824 -2.4815972 -0.56661415
-0.92034024 -2.5917978 -0.56790137
-0.95813346 -2.6982286 -0.56645221
-1.0028638 -2.8241949 -0.56705594
-1.0487926 -2.9535365 -0.56608623
-1.1019481 -3.1032293 -0.56655681
-1.1599556 -3.2665861 -0.56676006
-1.2234926 -3.4455144 -0.56664604
-1.295776 -3.6490738 -0.56720883
-1.3723494 -3.8647146 -0.5659532
-1.464764 -4.1249661 -0.56703329
-1.569998 -4.4213185 -0.56816453
-1.6851248 -4.7455306 -0.5674023
-1.8182087 -5.1203122 -0.56652308
-1.9840597 -5.5873699 -0.5684278
-2.1791227 -6.136693 -0.56973493
-2.4081984 -6.7817998 -0.56939954
-2.6973231 -7.5960126 -0.570391
-3.0614247 -8.6213703 -0.57101208
-3.5348382 -9.9545641 -0.57121968
-4.1859555 -11.788196 -0.57221258
-5.1320829 -14.452613 -0.57386035
-6.6456823 -18.715105 -0.57786661
-9.3955793 -26.459173 -0.58347672
-16.030405 -45.143703 -0.59724939
-0.67826706 -1.9872439 -0.56264037
-0.71121573 -2.0837796 -0.57040203
-0.72892261 -2.1356587 -0.564632
-0.75784838 -2.2204077 -0.56636071
-0.78308523 -2.294349 -0.56394041
-0.81651449 -2.3922927 -0.56591123
-0.85168636 -2.4953423 -0.56731844
-0.88483 -2.5924492 -0.56561732
-0.9240737 -2.7074287 -0.56595534
-0.96815157 -2.8365717 -0.56710786
-1.0116993 -2.9641616 -0.56569552
-1.0655377 -3.1219018 -0.56753087
-1.1194397 -3.2798285 -0.56662655
-1.1795679 -3.4559972 -0.56594187
-1.2486912 -3.6585202 -0.5662477
-1.3255335 -3.8836596 -0.56629777
-1.4163592 -4.1497679 -0.56800562
-1.5123341 -4.430963 -0.5669713
-1.622629 -4.7541151 -0.56600022
-1.760012 -5.156631 -0.56810397
-1.9117051 -5.6010742 -0.56738758
-2.095794 -6.1404328 -0.56764668
-2.3204861 -6.7987552 -0.56838441
-2.5945733 -7.6017985 -0.56838679
-2.9504058 -8.6443472 -0.57008791
-3.4096844 -9.9899797 -0.57080287
-4.0440402 -11.848568 -0.57268602
-4.9582739 -14.527167 -0.57435632
-6.4069085 -18.771498 -0.57713169
-9.0584621 -26.540243 -0.58276415
-15.439592 -45.236214 -0.59591651
-0.65616298 -2.0027015 -0.56468982
-0.67596447 -2.0631387 -0.56243414
-0.70057702 -2.1382594 -0.56299949
-0.73017275 -2.2285898 -0.56611478
-0.75693882 -2.3102837 -0.56552655
-0.78723758 -2.4027598 -0.56605452
-0.82220709 -2.5094917 -0.56819379
-0.85205746 -2.6005993 -0.56506681
-0.88870972 -2.712467 -0.56468153
-0.92837286 -2.8335245 -0.56417364
-0.97383469 -2.9722803 -0.56491691
-1.0258139 -3.1309285 -0.56683588
-1.0743525 -3.2790751 -0.56417143
-1.1388719 -3.4759972 -0.56688088
-1.203544 -3.6733856 -0.56621516
-1.2750959 -3.8917718 -0.56515169
-1.3624951 -4.1585264 -0.56686836
-1.4525821 -4.433485 -0.56496572
-1.5697452 -4.7910829 -0.56806046
-1.6969025 -5.1791849 -0.56824702
-1.8455411 -5.6328511 -0.56826472
-2.0250387 -6.1807027 -0.56902444
-2.2381222 -6.8310633 -0.56874168
-2.5048161 -7.6450505 -0.56927478
-2.8401494 -8.6685352 -0.56933689
-3.2866147 -10.03121 -0.57080632
-3.8914652 -11.877299 -0.57171863
-4.7773018 -14.580997 -0.57411861
-6.171833 -18.837301 -0.57677788
-8.7148952 -26.599085 -0.58165914
-14.852698 -45.332523 -0.59473431
-0.62959164 -2.0045769 -0.56299311
-0.65619981 -2.0892954 -0.56732219
-0.67862916 -2.1607089 -0.56667036
-0.70675772 -2.2502685 -0.56937093
-0.72771126 -2.316983 -0.56493336
-0.76146221 -2.4244437 -0.56891412
-0.789886 -2.5149431 -0.56718606
-0.82336289 -2.6215312 -0.5673722
-0.85611016 -2.7257965 -0.56522214
-0.8992731 -2.8632243 -0.56784242
-0.93987042 -2.9924834 -0.56651735
-0.98749757 -3.144125 -0.56698376
-1.0356287 -3.2973711 -0.56508559
-1.0949243 -3.4861646 -0.56630051
-1.1570603 -3.684001 -0.56561553
-1.2305405 -3.9179573 -0.56671411
-1.3100857 -4.1712236 -0.56636041
-1.4015459 -4.4624267 -0.56641483
-1.5111846 -4.8115087 -0.56823611
-1.6314009 -5.1942692 -0.56765813
-1.7756041 -5.6534023 -0.56809241
-1.9470577 -6.1992989 -0.56848931
-2.153007 -6.8550277 -0.56848967
-2.4087749 -7.6693745 -0.56883746
-2.7341115 -8.705224 -0.56949538
-3.1590378 -10.058161 -0.57008642
-3.7422419 -11.915043 -0.57127726
-4.5906248 -14.616237 -0.57324022
-5.9343653 -18.894615 -0.5762549
-8.3826399 -26.689753 -0.58134383
-14.266118 -45.422348 -0.59356642
-0.60528368 -2.0134537 -0.56335324
-0.6263358 -2.0834827 -0.5636099
-0.65412974 -2.1759384 -0.56851196
-0.67686141 -2.2515545 -0.5675475
-0.70407653 -2.3420846 -0.56889975
-0.72739756 -2.419661 -0.56565017
-0.75781548 -2.5208452 -0.56637275
-0.78861058 -2.6232841 -0.56561011
-0.82354349 -2.7394869 -0.56591839
-0.86218083 -2.8680127 -0.5666467
-0.90158647 -2.999094 -0.56562734
-0.94555205 -3.145344 -0.56506419
-0.99676645 -3.3157067 -0.56608456
-1.0513126 -3.4971523 -0.56594265
-1.111226 -3.6964521 -0.56538659
-1.183683 -3.9374781 -0.56738949
-1.2595712 -4.1899171 -0.56675279
-1.3480908 -4.484374 -0.56705368
-1.4487622 -4.8192539 -0.56700402
-1.5700577 -5.2227387 -0.56861657
-1.7076561 -5.6804552 -0.56865788
-1.86432 -6.2015915 -0.56655449
-2.0658538 -6.8719864 -0.56774652
-2.3139625 -7.6973104 -0.5687561
-2.6270838 -8.7388973 -0.56954193
-3.0347455 -10.094968 -0.57001448
-3.595603 -11.96064 -0.57130045
-4.4171705 -14.693555 -0.57409894
-5.6949425 -18.944016 -0.57558227
-8.0455265 -26.763145 -0.58074367
-13.687422 -45.530704 -0.59273821
-0.58583081 -2.039366 -0.56854486
-0.60282332 -2.0985193 -0.56562954
-0.62650502 -2.180959 -0.56776798
-0.6459645 -2.2487004 -0.56478322
-0.67102563 -2.335942 -0.56536067
-0.69955987 -2.4352739 -0.5672462
-0.72642177 -2.5287843 -0.5661068
-0.75498384 -2.6282134 -0.56462854
-0.78929162 -2.7476439 -0.56555575
-0.82728863 -2.8799171 -0.56694597
-0.86286527 -3.0037649 -0.56446445
-0.90608162 -3.1542075 -0.56461227
-0.95696199 -3.3313298 -0.56670004
-1.0090879 -3.5127883 -0.56642216
-1.0661279 -3.7113531 -0.5656178
-1.1293805 -3.9315445 -0.56449062
-1.2099879 -4.2121515 -0.56770486
-1.2896602 -4.4895029 -0.56565416
-1.3884128 -4.8332758 -0.56660229
-1.5027095 -5.2311597 -0.56747872
-1.6355768 -5.6936913 -0.56792659
-1.7911975 -6.2354302 -0.56759077
-1.9774898 -6.8839421 -0.56668246
-2.2204285 -7.7296481 -0.569085
-2.5187488 -8.7681465 -0.5693866
-2.9090381 -10.126802 -0.56974912
-3.4436381 -11.987827 -0.57053328
-4.2254848 -14.709554 -0.57265067
-5.4582953 -19.001154 -0.57523555
-7.7054329 -26.82378 -0.57995957
-13.094878 -45.585255 -0.59130746
-0.55718166 -2.0335324 -0.56496572
-0.57393008 -2.0946589 -0.56264424
-0.59696668 -2.1787348 -0.56523526
-0.61828911 -2.2565548 -0.56480372
-0.63792616 -2.3282237 -0.56155169
-0.66885996 -2.4411221 -0.56664979
-0.69319814 -2.5299485 -0.56441653
-0.72493947 -2.6457939 -0.56644756
-0.75344974 -2.7498472 -0.56405962
-0.78630346 -2.8697526 -0.56299901
-0.82630235 -3.0157356 -0.56476194
-0.87041807 -3.1767437 -0.56668758
-0.91756213 -3.3488042 -0.5677104
-0.96588641 -3.5251722 -0.56646109
-1.0199577 -3.7225149 -0.56536472
-1.0848343 -3.9592936 -0.5665167
-1.1533756 -4.2094469 -0.56538612
-1.234723 -4.5063381 -0.56581962
-1.3287461 -4.8494925 -0.56654513
-1.4408332 -5.258574 -0.56848764
-1.5623168 -5.7019496 -0.5667913
-1.7149693 -6.2590818 -0.56778121
-1.8968389 -6.9228468 -0.56792212
-2.1228621 -7.7477584 -0.56845355
-2.4118061 -8.80231 -0.56963623
-2.7850606 -10.164569 -0.56990403
-3.2993391 -12.041518 -0.57111454
-4.0409274 -14.748075 -0.57217258
-5.2209768 -19.054873 -0.57487482
-7.3656235 -26.882137 -0.57921922
-12.507361 -45.647812 -0.59007937
-0.53279793 -2.0427668 -0.56566834
-0.55017281 -2.1093829 -0.56473935
-0.57040685 -2.1869607 -0.56550699
-0.58839333 -2.2559216 -0.56279176
-0.61228693 -2.3475304 -0.56434971
-0.63997716 -2.453696 -0.56769896
-0.6606074 -2.532793 -0.5631963
-0.68990111 -2.6451061 -0.56444138
-0.72278702 -2.7711921 -0.56657201
-0.7520923 -2.8835495 -0.56384873
-0.78856599 -3.023391 -0.56433702
-0.83261615 -3.1922808 -0.56758988
-0.87533575 -3.3560693 -0.56707442
-0.92164457 -3.5336192 -0.56595451
-0.97361332 -3.7328691 -0.56507635
-1.0344237 -3.9660184 -0.56561613
-1.1029675 -4.2288179 -0.56612343
-1.1800853 -4.5244899 -0.56623399
-1.2732434 -4.8816619 -0.56843132
-1.3731163 -5.2645783 -0.56726855
-1.4908683 -5.7160435 -0.56632715
-1.6378803 -6.2796931 -0.56778103
-1.809909 -6.9392571 -0.56739968
-2.0234425 -7.7579522 -0.56733304
-2.2974889 -8.8086567 -0.56817573
-2.6569712 -10.186925 -0.56928271
-3.147445 -12.067419 -0.57046431
-3.8559952 -14.784026 -0.57168466
-4.9811473 -19.0979 -0.57428163
-7.0271792 -26.942461 -0.57861346
-11.920956 -45.705379 -0.58888412
-0.50740993 -2.0482318 -0.56541115
-0.52345622 -2.1130049 -0.56394321
-0.54209554 -2.1882451 -0.56407279
-0.56530195 -2.2819209 -0.56750089
-0.58443075 -2.3591371 -0.56536961
-0.60917115 -2.4590054 -0.56715137
-0.63036567 -2.54456 -0.56404662
-0.65997392 -2.6640778 -0.56671524
-0.6856547 -2.7677419 -0.56410027
-0.71969813 -2.9051628 -0.56630176
-0.755647 -3.0502758 -0.56757796
-0.78817546 -3.1815815 -0.56392175
-0.83052427 -3.3525283 -0.56470782
-0.87642211 -3.5378015 -0.56485564
-0.92786175 -3.7454448 -0.5652101
-0.98494768 -3.9758804 -0.5652526
-1.0500253 -4.2385755 -0.56565845
-1.1233237 -4.5344543 -0.56570959
-1.2098351 -4.8836699 -0.56688994
-1.3086401 -5.2825103 -0.56742394
-1.4226534 -5.7427416 -0.56719619
-1.555333 -6.2783213 -0.56588501
-1.7220389 -6.9512529 -0.56660628
-1.9283031 -7.7838674 -0.5674513
-2.1862085 -8.8249388 -0.56744909
-2.5311947 -10.217525 -0.56921029
-2.9953022 -12.09096 -0.56979287
-3.6707838 -14.817636 -0.57119572
-4.7437391 -19.148771 -0.57401389
-6.687747 -26.996033 -0.57795417
-11.336803 -45.762608 -0.58778089
-0.48420662 -2.0629182 -0.56777883
-0.49880794 -2.1251259 -0.56549841
-0.51821709 -2.2078168 -0.56743234
-0.53709626 -2.28825 -0.56738943
-0.55735248 -2.3745496 -0.56737792
-0.57716656 -2.4589655 -0.56546259
-0.59948832 -2.5540655 -0.56447697
-0.62355369 -2.6565938 -0.56344956
-0.65281403 -2.7812548 -0.56517553
-0.68532282 -2.9197555 -0.56746072
-0.71510243 -3.046629 -0.56522042
-0.74950117 -3.1931815 -0.56430161
-0.79174942 -3.3731763 -0.56650305
-0.83309162 -3.5493112 -0.56501496
-0.88279587 -3.7610717 -0.56588739
-0.93952018 -4.0027404 -0.56738591
-0.99538904 -4.2407646 -0.56427449
-1.0654657 -4.53932 -0.56463939
-1.1464863 -4.8845005 -0.5653072
-1.2406425 -5.285645 -0.5660792
-1.3489796 -5.7472048 -0.56595588
-1.479768 -6.3044171 -0.56655425
-1.6369801 -6.9742045 -0.5667935
-1.832342 -7.8065267 -0.56741774
-2.0834622 -8.8764009 -0.56906778
-2.4047225 -10.245101 -0.56905627
-2.8453116 -12.12219 -0.56957281
-3.4892132 -14.865475 -0.57134271
-4.4991841 -19.168364 -0.57289946
-6.347888 -27.0446 -0.57727915
-10.747622 -45.789268 -0.58638155
-0.45699671 -2.0605612 -0.56554067
-0.47531119 -2.1431396 -0.56869358
-0.48875335 -2.2037492 -0.56479961
-0.50870842 -2.2937248 -0.5671531
-0.52763718 -2.3790731 -0.56686568
-0.54583347 -2.4611187 -0.56437159
-0.56970733 -2.568764 -0.56613445
-0.59130496 -2.666146 -0.56389076
-0.6197359 -2.7943387 -0.56624293
-0.64591444 -2.9123757 -0.56444013
-0.68070972 -3.0692649 -0.56782413
-0.71163696 -3.2087133 -0.56545722
-0.7519182 -3.3903379 -0.56778955
-0.78968561 -3.5606282 -0.56522804
-0.83673579 -3.7727735 -0.56605721
-0.88645333 -3.9969461 -0.56497681
-0.94712424 -4.2705064 -0.56663942
-1.0133221 -4.5689869 -0.56673682
-1.0889021 -4.9097714 -0.56663942
-1.1779038 -5.3110723 -0.56720835
-1.2789869 -5.7668481 -0.56629878
-1.400456 -6.3145423 -0.5658738
-1.5526148 -7.0006137 -0.56734532
-1.7359419 -7.8272209 -0.5673275
-1.9696739 -8.8810997 -0.56777328
-2.2778075 -10.27045 -0.56886542
-2.6949544 -12.15133 -0.5693419
-3.3021634 -14.889187 -0.57065028
-4.2649121 -19.230143 -0.5731352
-6.0073276 -27.086552 -0.5765543
-10.164027 -45.828773 -0.58524269
-0.42923093 -2.0545578 -0.56240189
-0.4456234 -2.1330221 -0.56451219
-0.46223211 -2.2125216 -0.56554842
-0.47943673 -2.294873 -0.56593651
-0.49461833 -2.3675413 -0.56262624
-0.51613951 -2.4705548 -0.56503731
-0.54063946 -2.5878263 -0.56882745
-0.5601095 -2.6810215 -0.56553745
-0.58644468 -2.8070776 -0.56732023
-0.61339855 -2.9360952 -0.56753242
-0.63708538 -3.0494745 -0.56267101
-0.67447865 -3.2284613 -0.56743282
-0.7067852 -3.3831 -0.56507915
-0.74402905 -3.5613713 -0.563851
-0.79179198 -3.7899935 -0.56713718
-0.8348403 -3.9960487 -0.56335628
-0.89179224 -4.2686548 -0.56489605
-0.95287621 -4.5610399 -0.56425506
-1.0282127 -4.9216452 -0.56650782
-1.1127098 -5.3260994 -0.56730908
-1.2073616 -5.7791605 -0.56600714
-1.3233523 -6.3343616 -0.56614882
-1.4650331 -7.0125313 -0.56680834
-1.6411886 -7.8557177 -0.56788731
-1.8598094 -8.9021683 -0.56761533
-2.1494935 -10.288772 -0.56837332
-2.5450528 -12.182156 -0.56927687
-3.1171794 -14.920699 -0.57034588
-4.023828 -19.260466 -0.57252097
-5.6665587 -27.123564 -0.57581544
-9.5839281 -45.874454 -0.58427691
-0.4066188 -2.0733569 -0.56613636
-0.41849521 -2.1339149 -0.56334394
-0.43293452 -2.2075412 -0.56287205
-0.44909975 -2.289968 -0.56332242
-0.46924403 -2.392684 -0.56718713
-0.48618883 -2.4790859 -0.5655784
-0.50671893 -2.5837693 -0.56652325
-0.52696705 -2.6870148 -0.56539208
-0.54767227 -2.7925913 -0.56298882
-0.57560515 -2.9350214 -0.56591398
-0.60346359 -3.0770719 -0.56635112
-0.63011092 -3.2129474 -0.56330174
-0.66677588 -3.3999028 -0.56647342
-0.70116419 -3.5752492 -0.56464052
-0.74162978 -3.781584 -0.56447148
-0.79042667 -4.0304003 -0.56678605
-0.84227759 -4.2947893 -0.56694108
-0.89863217 -4.5821424 -0.56545591
-0.96656418 -4.9285288 -0.5658893
-1.0446215 -5.3265443 -0.56594545
-1.1353432 -5.7891359 -0.56557405
-1.2462676 -6.3547416 -0.56655782
-1.3793516 -7.0333395 -0.56707644
-1.542261 -7.864018 -0.56707352
-1.7498331 -8.9224319 -0.56749249
-2.0226102 -10.313327 -0.56831294
-2.3939767 -12.206931 -0.56901598
-2.9317739 -14.949169 -0.57001305
-3.7822032 -19.285524 -0.57184017
-5.3253546 -27.154083 -0.57502973
-8.9995308 -45.888775 -0.58300579
-0.38065624 -2.0758071 -0.56548452
-0.39253056 -2.1405604 -0.5637815
-0.40686241 -2.2187152 -0.56440288
-0.42281392 -2.3057024 -0.5658713
-0.44202504 -2.4104652 -0.57007056
-0.45642918 -2.4890144 -0.56652021
-0.47331703 -2.5811079 -0.56462085
-0.49369314 -2.6922235 -0.56516796
-0.5125913 -2.7952795 -0.56221759
-0.53965402 -2.9428589 -0.5661028
-0.56258154 -3.0678878 -0.5633449
-0.59254038 -3.2312603 -0.56519228
-0.62466663 -3.4064522 -0.56624204
-0.657965 -3.5880363 -0.56533945
-0.69621164 -3.7966039 -0.56539285
-0.73627388 -4.0150728 -0.5633148
-0.79024494 -4.3093891 -0.56754273
-0.84207296 -4.5920196 -0.56535429
-0.90459991 -4.9329934 -0.56508201
-0.97801495 -5.333343 -0.56534731
-1.0658555 -5.8123574 -0.56651944
-1.1652482 -6.3543692 -0.56520444
-1.292739 -7.0496068 -0.56706345
-1.4428688 -7.868299 -0.56606007
-1.6407171 -8.9472122 -0.56774247
-1.8959103 -10.33884 -0.5683912
-2.240906 -12.220181 -0.56830615
-2.7467608 -14.978726 -0.56980908
-3.5395732 -19.302116 -0.57099843
-4.9880028 -27.200739 -0.57467544
-8.4152679 -45.890411 -0.58166796
-0.35591272 -2.0850663 -0.56677186
-0.36577955 -2.1428699 -0.56316257
-0.37963539 -2.2240427 -0.56452787
-0.39678752 -2.3245261 -0.56925052
-0.40733182 -2.3862982 -0.56312805
-0.42261088 -2.4758086 -0.56228918
-0.43992531 -2.5772429 -0.56254953
-0.45888335 -2.6883061 -0.56311852
-0.48330015 -2.8313487 -0.56823391
-0.50098586 -2.934958 -0.56335533
-0.52634269 -3.0835073 -0.56498188
-0.55284172 -3.2387483 -0.56527019
-0.58235568 -3.4116521 -0.56587327
-0.61535418 -3.6049693 -0.5667724
-0.64931452 -3.8039212 -0.56525081
-0.68791407 -4.0300517 -0.56418687
-0.73469639 -4.3041191 -0.56561613
-0.78495359 -4.5985441 -0.56492656
-0.84426779 -4.9460287 -0.56534326
-0.91213685 -5.3436303 -0.56520611
-0.99492884 -5.8286562 -0.56687278
-1.0887033 -6.3780208 -0.56607461
-1.2030275 -7.0477738 -0.56568336
-1.3458496 -7.8844776 -0.56599063
-1.5280946 -8.952136 -0.56681973
-1.7628732 -10.327554 -0.56653619
-2.0904005 -12.246328 -0.5682838
-2.5593512 -14.993612 -0.56913513
-3.3009267 -19.338032 -0.57081699
-4.6452737 -27.213707 -0.57369924
-7.8346038 -45.897964 -0.5804987
-0.33135155 -2.0962615 -0.56866443
-0.34089106 -2.1566122 -0.56562972
-0.35324502 -2.2347682 -0.56610501
-0.36399966 -2.3028064 -0.56279302
-0.38017914 -2.4051642 -0.56643409
-0.39207008 -2.480391 -0.5621925
-0.41090021 -2.5995178 -0.56626594
-0.42727709 -2.7031245 -0.56507927
-0.44491541 -2.8147116 -0.56375438
-0.46482798 -2.9406862 -0.56331515
-0.490262 -3.1015921 -0.56714803
-0.51107121 -3.2332392 -0.5631693
-0.54057848 -3.4199142 -0.56609833
-0.56733185 -3.5891666 -0.56314856
-0.6022647 -3.8101654 -0.56503546
-0.64167219 -4.059473 -0.56715828
-0.67960036 -4.2994218 -0.56385803
-0.72956187 -4.6154981 -0.56586444
-0.7824803 -4.9502811 -0.56468689
-0.84853327 -5.3681583 -0.56665403
-0.92111903 -5.8273649 -0.56560284
-1.0108925 -6.3953071 -0.56646281
-1.1167299 -7.0648766 -0.56591111
-1.2499677 -7.9077921 -0.56651807
-1.4193465 -8.9793491 -0.56739485
-1.6371862 -10.35749 -0.56703115
-1.9390965 -12.267494 -0.56811661
-2.3732049 -15.013837 -0.56875211
-3.0587175 -19.35066 -0.57003647
-4.3048954 -27.234478 -0.5729779
-7.2561684 -45.905403 -0.57942051
-0.30494371 -2.0959973 -0.56753272
-0.31429905 -2.1603003 -0.56554067
-0.3251285 -2.2347353 -0.56504118
-0.33620092 -2.3108404 -0.56370354
-0.35088539 -2.4117725 -0.56693137
-0.36317164 -2.4962206 -0.56472546
-0.37753612 -2.5949533 -0.56421775
-0.39244154 -2.6974041 -0.56283212
-0.41096079 -2.8246942 -0.56469899
-0.42983988 -2.9544575 -0.56489795
-0.44855779 -3.083113 -0.56271785
-0.4724575 -3.247385 -0.56457865
-0.49694392 -3.4156899 -0.56434494
-0.52437645 -3.6042445 -0.56445986
-0.55427343 -3.8097377 -0.56391871
-0.59059507 -4.0593905 -0.56608933
-0.62867212 -4.3211093 -0.56564569
-0.66974276 -4.603404 -0.5633294
-0.72155702 -4.9595432 -0.56468862
-0.78009856 -5.3619223 -0.56494045
-0.84989703 -5.8416743 -0.5659346
-0.93028688 -6.3942251 -0.56531101
-1.0288656 -7.071795 -0.56540912
-1.1512009 -7.9126539 -0.56580943
-1.3070923 -8.9841566 -0.56664014
-1.5087336 -10.370116 -0.56666386
-1.7867405 -12.280966 -0.56768006
-2.1857896 -15.023786 -0.56806791
-2.820739 -19.388042 -0.57007277
-3.9654384 -27.256008 -0.57236171
-6.6776776 -45.898289 -0.57825053
-0.27946347 -2.1019518 -0.56817156
-0.28620076 -2.1526256 -0.56256765
-0.29664174 -2.2311561 -0.56317139
-0.3081685 -2.3178532 -0.56444716
-0.31904903 -2.3996899 -0.56312639
-0.33446097 -2.515609 -0.56813836
-0.34525782 -2.5968163 -0.56365705
-0.35926846 -2.7021956 -0.56286752
-0.37823221 -2.8448293 -0.56775159
-0.39329442 -2.958118 -0.56463051
-0.41115218 -3.092433 -0.56345361
-0.4318226 -3.2479031 -0.56370294
-0.45695335 -3.4369211 -0.56688154
-0.47927234 -3.6047907 -0.56357986
-0.50979352 -3.8343525 -0.56659144
-0.53832293 -4.048933 -0.56366527
-0.57250172 -4.306005 -0.56270438
-0.61423475 -4.619895 -0.56438053
-0.66105807 -4.9720707 -0.56514674
-0.71395993 -5.369966 -0.56482029
-0.77820599 -5.8531852 -0.56607991
-0.85289264 -6.4149323 -0.56617171
-0.94387811 -7.0992689 -0.56663495
-1.0534426 -7.9233451 -0.56560493
-1.1954768 -8.9916391 -0.56614214
-1.3804359 -10.382788 -0.56638598
-1.6359377 -12.304514 -0.56779575
-1.9996382 -15.040044 -0.56771004
-2.5784421 -19.39345 -0.56925648
-3.6248682 -27.264021 -0.57155079
-6.0990257 -45.873108 -0.57694483
-0.25227413 -2.0942414 -0.56520611
-0.26001281 -2.1584835 -0.56322044
-0.26916352 -2.2344477 -0.56312424
-0.28003633 -2.3247077 -0.56523514
-0.28885072 -2.3978803 -0.56182575
-0.30176547 -2.5050912 -0.56488222
-0.31300986 -2.5984361 -0.56313068
-0.32640845 -2.7096636 -0.56354451
-0.3411392 -2.8319504 -0.56430143
-0.35647899 -2.9592929 -0.56397545
-0.37557003 -3.1177764 -0.56718689
-0.39224795 -3.2562273 -0.56426787
-0.41395488 -3.4364262 -0.56591761
-0.4353554 -3.6140816 -0.56415284
-0.46168965 -3.8326943 -0.56546474
-0.49025959 -4.0698662 -0.56569743
-0.52080107 -4.3234048 -0.56409866
-0.5586375 -4.6375022 -0.56564951
-0.60183078 -4.996069 -0.56699049
-0.6473698 -5.3741093 -0.56437612
-0.70463341 -5.8494802 -0.56484091
-0.77260751 -6.4137635 -0.56518734
-0.85555434 -7.1023426 -0.56599784
-0.95601183 -7.936286 -0.56564677
-1.0840645 -8.9993086 -0.56574297
-1.2534163 -10.405174 -0.56672353
-1.4833267 -12.313765 -0.56733805
-1.8166181 -15.080566 -0.56835341
-2.3385689 -19.413515 -0.5689584
-3.2868714 -27.285803 -0.57111692
-5.5238075 -45.855618 -0.57582706
-0.22506255 -2.0838275 -0.56160617
-0.23492266 -2.1751211 -0.56676513
-0.24159923 -2.2369385 -0.56296068
-0.25142875 -2.3279488 -0.5652287
-0.25992784 -2.406641 -0.56308693
-0.271617 -2.5148692 -0.56629115
-0.28198147 -2.6108329 -0.56502312
-0.29304007 -2.7132232 -0.56349272
-0.30592787 -2.8325498 -0.56362867
-0.32214451 -2.9826977 -0.56763804
-0.33479083 -3.0997884 -0.56312305
-0.35130009 -3.2526457 -0.56285608
-0.37144458 -3.4391613 -0.56557304
-0.39222276 -3.6315439 -0.56608301
-0.41219687 -3.8164818 -0.5622825
-0.43941176 -4.0684614 -0.56470847
-0.46963468 -4.3482919 -0.56654954
-0.50069124 -4.6358404 -0.56465322
-0.5392853 -4.9931784 -0.56586707
-0.58159679 -5.3849354 -0.56471938
-0.63367379 -5.8671098 -0.5657481
-0.69405389 -6.4261622 -0.56548512
-0.76868057 -7.1171217 -0.56637955
-0.8587954 -7.9514842 -0.5659346
-0.9730922 -9.0097446 -0.56560403
-1.1241418 -10.408295 -0.56609786
-1.3295861 -12.31048 -0.56639069
-1.630165 -15.093503 -0.56804258
-2.0960982 -19.407522 -0.56798446
-2.946486 -27.281164 -0.57021832
-4.9492898 -45.824883 -0.57463348
-0.20107488 -2.1037118 -0.56625599
-0.20713548 -2.16712 -0.56397396
-0.2138848 -2.2377334 -0.56245631
-0.22189966 -2.3215873 -0.56297904
-0.23086296 -2.4153645 -0.56442112
-0.24054578 -2.5166693 -0.56598771
-0.25014496 -2.617099 -0.56567079
-0.26131588 -2.733973 -0.56709194
-0.26974422 -2.8221531 -0.56085753
-0.28369415 -2.968102 -0.56415379
-0.29830986 -3.121016 -0.56627017
-0.31162775 -3.2603524 -0.56348401
-0.32973161 -3.4497609 -0.56660658
-0.34692582 -3.6296527 -0.56508052
-0.36733076 -3.8431358 -0.56550121
-0.38912976 -4.0712042 -0.56438231
-0.41469139 -4.3386383 -0.56458467
-0.44289565 -4.6337204 -0.56368905
-0.47786808 -4.9996138 -0.56588763
-0.51594007 -5.3979354 -0.56537455
-0.56000704 -5.8589787 -0.56425738
-0.61510354 -6.4354162 -0.5655911
-0.67959565 -7.1101542 -0.5651173
-0.76031137 -7.9546285 -0.56545019
-0.86214262 -9.0200205 -0.56554091
-0.99614167 -10.421963 -0.56613225
-1.1784016 -12.328826 -0.56652528
-1.4420371 -15.087069 -0.56709021
-1.8549924 -19.407543 -0.56727463
-2.6078742 -27.284441 -0.56957352
-4.3756485 -45.77948 -0.57334608
-0.17484213 -2.1018023 -0.56512064
-0.18035731 -2.1681011 -0.56360954
-0.18623327 -2.2387369 -0.56209046
-0.19372608 -2.328809 -0.56410998
-0.20111834 -2.4176724 -0.56433988
-0.20920084 -2.5148335 -0.56495357
-0.21781935 -2.6184378 -0.56533849
-0.22515661 -2.7066398 -0.56080568
-0.23782216 -2.8588943 -0.56753516
-0.2463899 -2.9618883 -0.56235433
-0.2599501 -3.1248975 -0.56635165
-0.27191412 -3.268719 -0.56430948
-0.28642955 -3.4432106 -0.56490952
-0.30081603 -3.6161528 -0.56236041
-0.31765077 -3.8185253 -0.56126273
-0.3401874 -4.0894418 -0.56628788
-0.36060447 -4.334878 -0.56347573
-0.38772994 -4.6609573 -0.56637961
-0.41435069 -4.9809694 -0.56315809
-0.44922921 -5.400249 -0.56499565
-0.48913935 -5.8800144 -0.56566119
-0.53594142 -6.4426284 -0.56560302
-0.59189832 -7.1152945 -0.56490469
-0.66268182 -7.9661932 -0.56565028
-0.75044948 -9.0212612 -0.56499732
-0.86760068 -10.429552 -0.56592214
-1.025789 -12.331157 -0.56600994
-1.2558156 -15.09634 -0.56681544
-1.6167763 -19.435499 -0.56746775
-2.2697637 -27.285154 -0.56896275
-3.8058012 -45.75008 -0.57234854
-0.14964844 -2.1131456 -0.56763285
-0.15399969 -2.1745884 -0.56476104
-0.15898667 -2.2450085 -0.56313169
-0.16534884 -2.334847 -0.56503737
-0.17175834 -2.4253538 -0.56559712
-0.17802945 -2.5139062 -0.56421083
-0.18511033 -2.6138935 -0.56382328
-0.1923718 -2.7164309 -0.56230175
-0.20179462 -2.849488 -0.56513256
-0.21203731 -2.9941223 -0.56793648
-0.22056951 -3.114603 -0.56395173
-0.2308608 -3.2599239 -0.56225854
-0.24332069 -3.4358666 -0.56317121
-0.25739962 -3.6346714 -0.56470543
-0.27166769 -3.8361471 -0.56331921
-0.28752401 -4.06005 -0.56168574
-0.30735511 -4.3400798 -0.563618
-0.32913116 -4.6475735 -0.56421876
-0.35362947 -4.9935074 -0.56404138
-0.38327163 -5.4120765 -0.56569725
-0.4157148 -5.8701978 -0.56418246
-0.4562439 -6.4424987 -0.56505638
-0.5038355 -7.1145272 -0.56430924
-0.56401962 -7.9643707 -0.56498569
-0.63920093 -9.0259857 -0.5647583
-0.73828995 -10.425196 -0.56515044
-0.87396634 -12.341046 -0.5659278
-1.068876 -15.093313 -0.56616551
-1.3760934 -19.431448 -0.56681257
-1.931905 -27.279917 -0.56831521
-3.2359171 -45.693523 -0.5711
-0.12257273 -2.096319 -0.56266546
-0.12649226 -2.163353 -0.56139672
-0.13178238 -2.2538283 -0.56489486
-0.13655178 -2.3353975 -0.56472152
-0.14140166 -2.4183435 -0.56351423
-0.14687237 -2.5119071 -0.5633142
-0.15290061 -2.6150057 -0.56361502
-0.16033895 -2.7422214 -0.5671894
-0.16587248 -2.8368595 -0.56218094
-0.17413752 -2.9782135 -0.56446999
-0.18242538 -3.1199579 -0.56447244
-0.19209245 -3.2852905 -0.56618345
-0.20169935 -3.4495938 -0.56497192
-0.21303269 -3.643424 -0.56561553
-0.22499976 -3.8480926 -0.56462443
-0.23841187 -4.0774755 -0.56364834
-0.25451967 -4.3529611 -0.56484175
-0.27215889 -4.6546388 -0.56462759
-0.29219362 -4.9972858 -0.56401974
-0.31531426 -5.3927102 -0.56322509
-0.34415171 -5.8859072 -0.56524283
-0.37712884 -6.4499035 -0.56525636
-0.41679457 -7.1282926 -0.56495184
-0.46633366 -7.9755425 -0.56532866
-0.52876222 -9.0432367 -0.56538814
-0.60972661 -10.427942 -0.56485021
-0.72047251 -12.32199 -0.564605
-0.88224816 -15.088784 -0.56554592
-1.136768 -19.441746 -0.56666237
-1.5939524 -27.260815 -0.56746602
-2.6674469 -45.620415 -0.5697332
-0.096746944 -2.0967758 -0.56242621
-0.099828616 -2.1635642 -0.56109047
-0.10413153 -2.2568202 -0.56528103
-0.10833743 -2.3479738 -0.56739753
-0.11134849 -2.4132316 -0.56196159
-0.11603364 -2.5147722 -0.56359416
-0.12023323 -2.6057889 -0.56126744
-0.12613009 -2.7335901 -0.56504059
-0.13100258 -2.8391907 -0.56228119
-0.1374044 -2.9779358 -0.56405449
-0.14457183 -3.1332741 -0.56651717
-0.15142196 -3.2817354 -0.56520718
-0.1589006 -3.4438186 -0.56366348
-0.16791385 -3.6391609 -0.56459051
-0.17756847 -3.848403 -0.56430691
-0.18821709 -4.0791883 -0.56352258
-0.20123976 -4.3614264 -0.56557626
-0.215193 -4.6638317 -0.56537896
-0.23093423 -5.0049877 -0.56452584
-0.24922051 -5.4013023 -0.5637598
-0.27147669 -5.883656 -0.56466335
-0.29745996 -6.4467854 -0.5646199
-0.32890183 -7.1282187 -0.56458277
-0.36786249 -7.9726043 -0.56475705
-0.41687846 -9.0349169 -0.56450486
-0.48139772 -10.433228 -0.5647732
-0.56944585 -12.341477 -0.56513435
-0.69688696 -15.103481 -0.56573284
-0.89656532 -19.431067 -0.56598699
-1.2575718 -27.255083 -0.56698203
-2.1030998 -45.580029 -0.56886286
-0.07116998 -2.1040547 -0.56410134
-0.073497482 -2.1728644 -0.56322551
-0.076288626 -2.2553813 -0.56464303
-0.078881323 -2.3320315 -0.56326801
-0.081596904 -2.4123142 -0.56147182
-0.08529678 -2.5216966 -0.56486821
-0.088182151 -2.6069992 -0.56125212
-0.0925069 -2.7348552 -0.56502426
-0.096538566 -2.8540463 -0.56494546
-0.10071338 -2.9774699 -0.56368905
-0.10540036 -3.1160347 -0.56312335
-0.11089338 -3.2784293 -0.56436026
-0.11688641 -3.4556062 -0.56531483
-0.12307397 -3.6385338 -0.56421572
-0.13023612 -3.8502741 -0.56430382
-0.1381014 -4.0828013 -0.56374449
-0.14690745 -4.3431416 -0.56292838
-0.15739267 -4.6531248 -0.56380379
-0.16915841 -5.0009646 -0.56379485
-0.18244626 -5.3938041 -0.56270045
-0.19960512 -5.9010849 -0.56605768
-0.21801646 -6.445394 -0.56422055
-0.24084888 -7.1204076 -0.56368691
-0.26955 -7.9689212 -0.56421876
-0.30606896 -9.0485601 -0.56507939
-0.35301903 -10.436583 -0.56467706
-0.41779691 -12.351663 -0.56532276
-0.51094842 -15.105575 -0.5655331
-0.65707535 -19.425642 -0.56555086
-0.92076892 -27.221424 -0.56600344
-1.5390605 -45.500469 -0.56759083
-0.045284171 -2.1043091 -0.5639776
-0.047130037 -2.1900847 -0.56749594
-0.048217766 -2.2406301 -0.56075919
-0.050178256 -2.3317323 -0.5630042
-0.051961843 -2.4146135 -0.5618158
-0.054245688 -2.5207417 -0.56446224
-0.056417864 -2.6216805 -0.56422079
-0.058827277 -2.7336433 -0.56458175
-0.06142059 -2.854152 -0.56477416
-0.064352192 -2.9903805 -0.56594068
-0.06711413 -3.1187248 -0.56341773
-0.070889883 -3.2941804 -0.56687874
-0.074409932 -3.4577532 -0.56547362
-0.078371264 -3.6418324 -0.56453514
-0.082726084 -3.8441963 -0.56322134
-0.087733284 -4.0768757 -0.56273478
-0.093470007 -4.3434553 -0.56277752
-0.10008165 -4.650692 -0.5633173
-0.10804573 -5.0207748 -0.5658356
-0.11639705 -5.4088516 -0.56407833
-0.12657912 -5.8820024 -0.5640353
-0.13842168 -6.4323139 -0.56288397
-0.15334687 -7.1258721 -0.56392759
-0.17158228 -7.9732528 -0.56433338
-0.19490141 -9.0568695 -0.56540585
-0.22481523 -10.446934 -0.56504488
-0.26538408 -12.332127 -0.56423664
-0.32475162 -15.090875 -0.56479061
-0.41783333 -19.416286 -0.56508619
-0.58565372 -27.214729 -0.56567174
-0.97741634 -45.419537 -0.56638849
-0.019471915 -2.111733 -0.56586027
-0.020176286 -2.188122 -0.56688029
-0.020790113 -2.2546916 -0.56417167
-0.021508219 -2.3325703 -0.5631001
-0.022287158 -2.4170465 -0.56227565
-0.023172341 -2.5130448 -0.56263238
-0.024246825 -2.6295729 -0.56581241
-0.025220737 -2.7351937 -0.5647952
-0.026400955 -2.8631885 -0.56645525
-0.027356956 -2.966867 -0.56138456
-0.028781217 -3.1213284 -0.5637815
-0.030236384 -3.2791414 -0.56418419
-0.03184678 -3.4537892 -0.56471866
-0.033581238 -3.6418917 -0.56443769
-0.035513774 -3.8514752 -0.56418121
-0.037599903 -4.0777164 -0.5627445
-0.040119454 -4.3509626 -0.56364369
-0.0428183 -4.6436529 -0.56235838
-0.046172764 -5.0074453 -0.56422669
-0.049964577 -5.4186678 -0.56499529
-0.054249834 -5.8834047 -0.56406313
-0.059495594 -6.4523082 -0.56452698
-0.065662146 -7.1210723 -0.56344128
-0.07347811 -7.9687147 -0.5639056
-0.083334543 -9.0376472 -0.56409925
-0.096155994 -10.428136 -0.56392157
-0.11374035 -12.335162 -0.56426883
-0.13902986 -15.077815 -0.56419516
-0.17880888 -19.391857 -0.56426859
-0.25064728 -27.182745 -0.56490016
-0.41817111 -45.350735 -0.56542367
0.0064721704 -2.1045661 -0.56391853
0.0066688145 -2.168509 -0.56177789
0.0069604628 -2.2633448 -0.56631547
0.0071818591 -2.3353367 -0.56374663
0.0074252444 -2.4144788 -0.56165707
0.0078063761 -2.5384119 -0.56829017
0.0080495793 -2.6174946 -0.56319225
0.0084037036 -2.7326458 -0.56424779
0.0087951608 -2.8599367 -0.56579053
0.0091042677 -2.9604495 -0.56014907
0.00963974 -3.1345696 -0.5661518
0.010061363 -3.2716696 -0.56287736
0.010586012 -3.4422705 -0.562814
0.011173265 -3.6332285 -0.56307369
0.011854868 -3.8548665 -0.56465662
0.012574764 -4.0889564 -0.56427431
0.013366381 -4.3463674 -0.56302714
0.014338434 -4.6624513 -0.56461364
0.01539352 -5.0055356 -0.56399024
0.016680855 -5.4241405 -0.56554449
0.018095406 -5.8841119 -0.56410962
0.019755712 -6.4239964 -0.56202871
0.021902762 -7.1221561 -0.56350577
0.024504792 -7.9682627 -0.56385231
0.027771197 -9.030405 -0.56362593
0.032072708 -10.429133 -0.56395417
0.037907992 -12.326602 -0.56385601
0.046391781 -15.085289 -0.56445354
0.059612378 -19.384253 -0.56402594
0.083489001 -27.148252 -0.56416202
0.13912028 -45.237965 -0.56399637
0.032314934 -2.1021464 -0.56333411
0.033308648 -2.1667893 -0.561396
