# .PCD v0.7 - Point Cloud Data file format
VERSION 0.7
FIELDS x y z
SIZE 4 4 4
TYPE F F F
COUNT 1 1 1
WIDTH 1458
HEIGHT 1
VIEWPOINT 0 0 0 1 0 0 0
POINTS 1458
DATA ascii
0.97722262 -4.5379648 -0.56213337
1.0485841 -4.8693485 -0.56121993
1.1326046 -5.2595177 -0.56094849
1.2335646 -5.7283492 -0.56176317
1.3507698 -6.2726188 -0.56136239
1.4898771 -6.9185972 -0.55994594
1.6697619 -7.7539344 -0.56126124
1.8865805 -8.7607832 -0.55932969
2.1773324 -10.110959 -0.5592798
2.5701094 -11.934912 -0.55845118
3.1336098 -14.551659 -0.55696547
4.0210314 -18.672611 -0.55577153
5.5961485 -25.987041 -0.5524081
9.2010813 -42.727398 -0.54490513
0.4643783 -2.0345635 -0.55917871
0.48670912 -2.1324008 -0.56662768
0.50304687 -2.2039809 -0.56564128
0.52189797 -2.2865725 -0.56616759
0.54034537 -2.3673954 -0.56486434
0.5591076 -2.4495976 -0.56250757
0.58243859 -2.5518169 -0.5631783
0.60628164 -2.6562796 -0.56258202
0.63461542 -2.7804172 -0.56420219
0.66047269 -2.8937049 -0.56159824
0.69060236 -3.0257108 -0.56054169
0.72807813 -3.1899018 -0.56292069
0.76552689 -3.3539748 -0.56247759
0.80698019 -3.5355928 -0.56203109
0.84940732 -3.721477 -0.55913407
0.91006505 -3.9872346 -0.56438458
0.96548641 -4.2300501 -0.56204873
1.0323805 -4.5231309 -0.56182587
1.1114349 -4.8694892 -0.56276882
1.196395 -5.2417216 -0.56057715
1.3049159 -5.7171803 -0.56219894
1.4320016 -6.2739763 -0.56301713
1.5796806 -6.9209962 -0.56166977
1.7620062 -7.7198133 -0.56031734
1.9950727 -8.7409391 -0.55958664
2.2992711 -10.073711 -0.55874115
2.7161679 -11.900248 -0.55834979
3.3137767 -14.518529 -0.55721492
4.2430344 -18.589851 -0.55481923
5.9069214 -25.879778 -0.55163026
9.7086077 -42.535965 -0.54394513
0.49462658 -2.0505364 -0.56519759
0.50729167 -2.1030412 -0.56044132
0.52646792 -2.1825385 -0.56175721
0.54659069 -2.2659602 -0.56268549
0.56661123 -2.3489578 -0.56208509
0.59169745 -2.4529557 -0.56490678
0.61125219 -2.5340223 -0.56086755
0.63858962 -2.6473532 -0.56231207
0.66725338 -2.7661824 -0.56293601
0.69516289 -2.8818846 -0.56092077
0.72915506 -3.0228035 -0.56162167
0.7662465 -3.1765707 -0.56218833
0.80744243 -3.3473537 -0.56298971
0.84941494 -3.5213559 -0.56138581
0.89790326 -3.7223704 -0.56088477
0.95466876 -3.9576988 -0.56182301
1.0158181 -4.2112012 -0.56116152
1.0851862 -4.4987755 -0.5604158
1.1677728 -4.8411484 -0.5611105
1.2628256 -5.2352018 -0.56149805
1.3705213 -5.6816678 -0.56032163
1.5018911 -6.2262774 -0.56035161
1.6613533 -6.8873482 -0.56055456
1.8548944 -7.6896968 -0.5597446
2.098357 -8.6990013 -0.5585115
2.424515 -10.05113 -0.55909997
2.8589389 -11.852089 -0.55769747
3.4927175 -14.479498 -0.5573231
4.469317 -18.528112 -0.55457491
6.2198267 -25.78507 -0.55120015
10.21042 -42.328571 -0.54285753
0.51877135 -2.0402477 -0.56407732
0.53543156 -2.1057696 -0.56288046
0.55595273 -2.1864762 -0.56448758
0.57154649 -2.2478042 -0.55987984
0.59516352 -2.3406863 -0.56181455
0.61901152 -2.4344766 -0.56236154
0.64379674 -2.5319533 -0.56211925
0.67266345 -2.6454816 -0.56362879
0.69831568 -2.7463677 -0.56060874
0.73085248 -2.87433 -0.56115717
0.76964599 -3.0268989 -0.5640983
0.80169272 -3.1529338 -0.55970746
0.84899664 -3.3389728 -0.5632934
0.89459181 -3.5182917 -0.56260848
0.94395804 -3.7124412 -0.56109524
0.99920571 -3.9297218 -0.55955338
1.0705842 -4.2104425 -0.5627721
1.14516 -4.5037374 -0.56274545
1.2272536 -4.8265986 -0.56113082
1.3275574 -5.2210784 -0.5616917
1.4410063 -5.6672554 -0.56060541
1.5808583 -6.2172718 -0.56124818
1.7450778 -6.863122 -0.56028694
1.9472591 -7.6582699 -0.55915767
2.2091675 -8.6883144 -0.55952716
2.5460205 -10.013105 -0.55868411
3.0048959 -11.817792 -0.55778015
3.6655405 -14.416005 -0.55657202
4.6936603 -18.45944 -0.55420506
6.5264621 -25.667568 -0.55036223
10.713517 -42.134613 -0.54201853
0.54143596 -2.0248065 -0.56160647
0.560673 -2.0967472 -0.56226903
0.58250284 -2.1783841 -0.56420499
0.603109 -2.2554448 -0.56358761
0.62354803 -2.3318808 -0.56149894
0.64663672 -2.4182253 -0.56040186
0.67310178 -2.5171967 -0.56063825
0.70196867 -2.6251502 -0.56109369
0.73296952 -2.7410839 -0.56132752
0.76546967 -2.8626246 -0.56066716
0.80212909 -2.9997199 -0.56082892
0.84456974 -3.1584349 -0.56248504
0.8856433 -3.3120377 -0.56054425
0.93661273 -3.5026479 -0.5619061
0.99030614 -3.703445 -0.56153357
1.0514554 -3.9321246 -0.56169403
1.12014 -4.1889839 -0.56170249
1.1968076 -4.475698 -0.56103837
1.2886084 -4.819005 -0.56204766
1.3908027 -5.2011805 -0.5613485
1.5099766 -5.6468554 -0.56038171
1.6569728 -6.1965761 -0.56117678
1.8301386 -6.8441639 -0.56053406
2.0411558 -7.6333036 -0.55912513
2.3145945 -8.6558828 -0.5592292
2.6719632 -9.9923334 -0.55931598
3.1462288 -11.765943 -0.55711681
3.8418446 -14.367334 -0.5564748
4.9191036 -18.395958 -0.55407327
6.8375401 -25.570328 -0.55003846
11.205297 -41.904411 -0.54078889
0.56514531 -2.0139129 -0.5604701
0.58789712 -2.0949898 -0.56369376
0.60238588 -2.146621 -0.55785459
0.63199627 -2.2521384 -0.56466061
0.65576756 -2.3368483 -0.56459403
0.68104601 -2.4269288 -0.56431687
0.71058106 -2.5321779 -0.56587821
0.73596299 -2.622627 -0.56244618
0.76779652 -2.7360668 -0.56219095
0.8023569 -2.8592241 -0.56189096
0.83789504 -2.9858654 -0.56012261
0.87922448 -3.1331439 -0.5598641
0.92937088 -3.3118422 -0.56240278
0.98131222 -3.4969368 -0.56288314
1.0392144 -3.7032731 -0.56340247
1.0966594 -3.9079802 -0.56012905
1.1706088 -4.1715012 -0.56124592
1.2511885 -4.4586496 -0.56078744
1.3476199 -4.8022857 -0.56198788
1.4536335 -5.180069 -0.56095666
1.5752735 -5.6135364 -0.55895525
1.7309676 -6.1683574 -0.56050646
1.9089872 -6.8027353 -0.55902129
2.1361921 -7.6123872 -0.55947477
2.4207239 -8.6263256 -0.55920041
2.7915437 -9.9477539 -0.55869985
3.2880759 -11.717162 -0.55667943
4.0125117 -14.298712 -0.55568594
5.1390071 -18.313013 -0.55343646
7.1437926 -25.457129 -0.54945147
11.698923 -41.68948 -0.5398308
0.5938139 -2.0202477 -0.56422246
0.61166245 -2.080971 -0.56190306
0.63175958 -2.1493449 -0.56053889
0.6568827 -2.2348175 -0.5623005
0.67765856 -2.3055003 -0.55899119
0.70955992 -2.4140337 -0.56330466
0.73554045 -2.5024235 -0.56120771
0.76591778 -2.6057718 -0.56080884
0.80406821 -2.7355657 -0.5640769
0.8378855 -2.8506172 -0.56218183
0.87767947 -2.9860027 -0.56213045
0.9194867 -3.1282375 -0.5609653
0.97034788 -3.3012753 -0.56259197
1.0179634 -3.4632707 -0.55943668
1.0829549 -3.684382 -0.5625118
1.1475886 -3.9042757 -0.56157815
1.2263317 -4.1721721 -0.56332242
1.3046956 -4.4387784 -0.56026363
1.4060699 -4.7836695 -0.56179017
1.5136116 -5.1495428 -0.5596242
1.6457 -5.5989285 -0.5594734
1.8079896 -6.151063 -0.56091273
1.9927639 -6.7796941 -0.5590992
2.227545 -7.5784564 -0.55895185
2.5227134 -8.5826645 -0.55833882
2.9073489 -9.8912554 -0.55749238
3.4304864 -11.67105 -0.55645072
4.185041 -14.238164 -0.55529076
5.3595486 -18.234022 -0.55299914
7.4460034 -25.332466 -0.5486955
12.188271 -41.4664 -0.53884208
0.61588645 -2.0039351 -0.56173927
0.63971132 -2.081455 -0.56411511
0.65994149 -2.1472788 -0.56207389
0.6840297 -2.2256556 -0.56206912
0.71304154 -2.3200526 -0.56460267
0.7369796 -2.3979409 -0.56162167
0.77150631 -2.5102818 -0.56505483
0.80311823 -2.6131389 -0.56447703
0.83657438 -2.7219963 -0.56335747
0.8753047 -2.8480148 -0.5637486
0.91501439 -2.9772198 -0.56255263
0.95779592 -3.11642 -0.56091571
1.0101411 -3.2867379 -0.56218886
1.065585 -3.4671376 -0.5621354
1.1289539 -3.6733236 -0.56290042
1.1936713 -3.8838975 -0.56071591
1.2716949 -4.1377659 -0.56074589
1.3629935 -4.4348278 -0.56183797
1.4624659 -4.7584853 -0.56090212
1.5775579 -5.1329651 -0.55988836
1.7168398 -5.5861521 -0.56026387
1.8766038 -6.1059828 -0.55886394
2.0744641 -6.7497692 -0.55869281
2.323694 -7.5606985 -0.55970722
2.6288252 -8.5535164 -0.55850327
3.0307484 -9.86127 -0.55786067
3.5751507 -11.632615 -0.5566721
4.3555245 -14.17175 -0.55474746
5.5704436 -18.124781 -0.55172175
7.7450223 -25.200298 -0.54785413
12.677628 -41.249718 -0.53801143
0.63695341 -1.9852215 -0.5586468
0.66110069 -2.0604823 -0.56059188
0.68835121 -2.1454153 -0.56375915
0.71273488 -2.2214129 -0.56316841
0.73999041 -2.3063614 -0.56344265
0.77044964 -2.4012949 -0.56458342
0.79743391 -2.4853983 -0.56161845
0.83330554 -2.5972009 -0.56320512
0.86910141 -2.7087677 -0.56278884
0.90771294 -2.8291097 -0.56217337
0.94685513 -2.9511061 -0.55977601
0.99886984 -3.1132226 -0.5625084
1.0488725 -3.2690682 -0.56133014
1.105298 -3.4449325 -0.56069636
1.1758065 -3.6646891 -0.56375021
1.2460463 -3.8836086 -0.56284362
1.3249514 -4.1295357 -0.56179601
1.4123852 -4.4020448 -0.55984265
1.5175594 -4.729846 -0.55968356
1.6418334 -5.1171761 -0.56032598
1.7878937 -5.5724087 -0.56104809
1.9564654 -6.0978036 -0.56027484
2.1592896 -6.7299552 -0.55920821
2.4085608 -7.5068703 -0.55787271
2.7344835 -8.5226879 -0.55864358
3.1498148 -9.8171701 -0.55751485
3.7167511 -11.584166 -0.55649859
4.5267105 -14.108603 -0.5544126
5.7933316 -18.056337 -0.55176508
8.0460243 -25.077406 -0.54729205
13.157033 -41.007118 -0.53691679
0.66350728 -1.9837953 -0.56049901
0.68973529 -2.0622137 -0.56332779
0.71278679 -2.1311343 -0.56226707
0.73810345 -2.2068276 -0.56172925
0.76703078 -2.2933164 -0.5625174
0.79595548 -2.3797972 -0.56178766
0.82189941 -2.457366 -0.55752563
0.86427474 -2.5840626 -0.56261808
0.90054631 -2.6925094 -0.56166923
0.94161284 -2.8152926 -0.56168604
0.9907344 -2.9621594 -0.5641408
1.0375226 -3.1020494 -0.56275219
1.0905318 -3.26054 -0.56212586
1.1474421 -3.4306939 -0.560633
1.2123119 -3.6246455 -0.5598411
1.2915972 -3.8616979 -0.56192744
1.3785914 -4.1217985 -0.563007
1.4720153 -4.4011226 -0.5619849
1.5800992 -4.7242789 -0.5612815
1.7055529 -5.0993686 -0.56063008
1.85114 -5.5346537 -0.55949622
2.0293114 -6.0673618 -0.55972826
2.2449615 -6.7121253 -0.55997813
2.5100048 -7.5045681 -0.55995297
2.832895 -8.4699659 -0.55742902
3.2643182 -9.7598619 -0.55649775
3.8513911 -11.515129 -0.55541521
4.6995335 -14.050958 -0.5543763
6.0083961 -17.964277 -0.55116791
8.3466311 -24.955278 -0.54682523
13.641478 -40.78614 -0.53617924
0.69102806 -1.9846175 -0.56308949
0.7140165 -2.0506399 -0.56252205
0.74272257 -2.1330831 -0.56514812
0.77283794 -2.2195737 -0.56734973
0.79576218 -2.2854116 -0.56293607
0.82790744 -2.377732 -0.56366074
0.85805482 -2.4643147 -0.56145352
0.89411664 -2.5678835 -0.56144679
0.93410796 -2.6827376 -0.56198442
0.97661012 -2.8048029 -0.56194669
1.0214391 -2.9335508 -0.56104201
1.0711327 -3.0762699 -0.56042248
1.1330681 -3.2541468 -0.5633831
1.1849414 -3.403126 -0.55846679
1.2610518 -3.6217132 -0.56174076
1.3373721 -3.8409033 -0.56125206
1.4193107 -4.0762291 -0.55912423
1.5221169 -4.3714867 -0.56054819
1.6379099 -4.7040415 -0.56122756
1.7696087 -5.0822778 -0.56110102
1.9219687 -5.5198522 -0.56034672
2.1024022 -6.038053 -0.55936706
2.3253155 -6.6782556 -0.55949563
2.5948133 -7.4522476 -0.55838764
2.9437394 -8.4543552 -0.55874163
3.388519 -9.7317533 -0.55722868
3.9928741 -11.467447 -0.55544156
4.8642359 -13.969979 -0.55349934
6.2242603 -17.87594 -0.55076426
8.6419048 -24.819361 -0.54613423
14.111837 -40.528889 -0.53503817
0.71022248 -1.9617313 -0.55903172
0.7422877 -2.0502999 -0.56488991
0.77145147 -2.1308541 -0.56702799
0.78711909 -2.1741302 -0.55816561
0.82273775 -2.2725139 -0.56220859
0.85828596 -2.370703 -0.56445366
0.89367664 -2.4684567 -0.5648582
0.92676181 -2.5598423 -0.56213784
0.96985072 -2.6788599 -0.56362766
1.0147141 -2.8027787 -0.56399834
1.0574746 -2.9208889 -0.56106484
1.1089587 -3.0630951 -0.5604642
1.1694394 -3.2301512 -0.56167591
1.2322894 -3.4037514 -0.56101364
1.3038872 -3.6015143 -0.5610522
1.3889091 -3.8363562 -0.56304067
1.4724371 -4.0670719 -0.56030929
1.5811977 -4.3674836 -0.56248558
1.6950148 -4.6818619 -0.56102562
1.8256001 -5.0425563 -0.55915177
1.9868945 -5.4880733 -0.55955857
2.178262 -6.0166569 -0.55982399
2.402276 -6.6354141 -0.558339
2.6870034 -7.4218698 -0.55854493
3.0377638 -8.3907185 -0.55696243
3.5003541 -9.6684551 -0.55602682
4.132637 -11.414907 -0.55531609
5.0372777 -13.913648 -0.5536797
6.4385862 -17.784252 -0.55033702
8.9327602 -24.673502 -0.54530048
14.579243 -40.269855 -0.53394479
0.73728782 -1.960825 -0.56131452
0.75829232 -2.0166867 -0.55815572
0.78990149 -2.1007516 -0.5615598
0.82153207 -2.1848733 -0.5634746
0.84692168 -2.2523973 -0.55976593
0.88602471 -2.3563924 -0.5635978
0.91860181 -2.4430313 -0.56158245
0.96122146 -2.5563788 -0.56393021
1.00186 -2.6644576 -0.56314683
1.0453371 -2.7800853 -0.5619759
1.0900129 -2.8989012 -0.55937362
1.151539 -3.0625303 -0.56290919
1.2108296 -3.2202146 -0.56249452
1.277174 -3.3966582 -0.56239051
1.3451726 -3.5775013 -0.55984586
1.4334491 -3.8122737 -0.56205064
1.5172819 -4.0352273 -0.55845028
1.6273271 -4.3278942 -0.55992162
1.7512095 -4.6573606 -0.56062764
1.8875227 -5.019887 -0.55916941
2.0553246 -5.4661579 -0.55985862
2.2462392 -5.9738975 -0.55837321
2.488344 -6.6177778 -0.55938733
2.7786059 -7.3897324 -0.55865544
3.1444993 -8.3628302 -0.55763572
3.6230237 -9.6354713 -0.55664992
4.271666 -11.360542 -0.55518472
5.2039728 -13.840022 -0.55325449
6.6561279 -17.702045 -0.55028427
9.2244682 -24.532574 -0.54465151
15.046737 -40.01696 -0.53300458
0.76269305 -1.955076 -0.56231099
0.79326677 -2.0334482 -0.5654518
0.81526542 -2.0898392 -0.56128013
0.84122729 -2.1563895 -0.55875415
0.88401514 -2.2660711 -0.56582284
0.91024548 -2.3333097 -0.56071156
0.9517076 -2.4395931 -0.56343955
0.99160159 -2.5418565 -0.5633738
1.027632 -2.6342165 -0.55938369
1.0780139 -2.7633648 -0.5612331
1.1301582 -2.8970306 -0.56165177
1.1850003 -3.037612 -0.56096494
1.2479444 -3.1989617 -0.5614202
1.3171557 -3.3763773 -0.56167173
1.3892075 -3.5610738 -0.55990601
1.4779803 -3.7886324 -0.56120223
1.5737635 -4.0341616 -0.56093854
1.6812879 -4.3097882 -0.56021154
1.805514 -4.6282272 -0.55975091
1.9517285 -5.0030313 -0.55992281
2.1239715 -5.4445562 -0.56027877
2.3245244 -5.9586511 -0.55957747
2.5661745 -6.5780935 -0.55865794
2.8666575 -7.3483472 -0.5581494
3.2484779 -8.3270998 -0.55787456
3.7371359 -9.5797186 -0.55604178
4.4067187 -11.296117 -0.55464238
5.3714972 -13.769216 -0.55302256
6.8666048 -17.601751 -0.54974973
9.5176353 -24.397364 -0.5442068
15.515519 -39.772251 -0.53224611
0.78872925 -1.950633 -0.56377995
0.80646336 -1.9944919 -0.55733448
0.84178549 -2.0818481 -0.56187153
0.87404674 -2.1616347 -0.5628556
0.90799057 -2.2455823 -0.56345212
0.94688672 -2.3417776 -0.56550175
0.97940552 -2.4222009 -0.56216168
1.0212809 -2.5257642 -0.56254798
1.0647486 -2.633266 -0.56191963
1.1121985 -2.7506156 -0.5613789
1.1659758 -2.8836143 -0.56178784
1.2266185 -3.0335917 -0.56296539
1.2892163 -3.1884046 -0.56230706
1.3559759 -3.3535099 -0.56059903
1.4376274 -3.5554452 -0.56175804
1.5225213 -3.765399 -0.5604915
1.6187278 -4.0033302 -0.55937696
1.7355763 -4.2923121 -0.56067163
1.8673058 -4.6180968 -0.56126028
2.0143688 -4.9818034 -0.56027687
2.1835904 -5.4003115 -0.55844653
2.3965607 -5.9270153 -0.55933172
2.6410203 -6.5315967 -0.55742502
2.9506838 -7.2974362 -0.55699623
3.3482606 -8.2806969 -0.557482
3.8511217 -9.5243397 -0.55553406
4.5427942 -11.234939 -0.55433941
5.5312243 -13.679459 -0.55210751
7.0781431 -17.505196 -0.54941088
9.8083944 -24.257471 -0.54373556
15.969007 -39.493492 -0.53110325
0.80865401 -1.9312356 -0.56100512
0.83592695 -1.9963691 -0.56068897
0.86650264 -2.0693903 -0.56134248
0.89953494 -2.1482785 -0.56221545
0.93461084 -2.2320471 -0.56289703
0.97077 -2.3184025 -0.56269711
1.0091679 -2.4101048 -0.56219184
1.0530477 -2.514899 -0.56296945
1.0978745 -2.6219549 -0.56234419
1.1464319 -2.7379203 -0.56162256
1.1988516 -2.8631096 -0.56062269
1.2621384 -3.0142515 -0.5622139
1.3316057 -3.1801541 -0.5636971
1.400697 -3.3451583 -0.56203973
1.4761136 -3.5252693 -0.55981576
1.5698552 -3.7491441 -0.56090289
1.6753926 -4.0011897 -0.56191391
1.7882489 -4.2707138 -0.56068027
1.9168166 -4.5777607 -0.55918032
2.0739713 -4.9530792 -0.55987215
2.2540467 -5.3831367 -0.55949438
2.4654202 -5.8879414 -0.55846304
2.7274842 -6.5138054 -0.55872667
3.0473154 -7.2776289 -0.55830228
3.448653 -8.2361069 -0.55729288
3.9684966 -9.477603 -0.55561239
4.6783895 -11.172976 -0.5540787
5.7019906 -13.617551 -0.55239701
7.2849736 -17.398046 -0.54881793
10.093586 -24.105604 -0.54307246
16.432871 -39.245148 -0.53044087
0.83364958 -1.924173 -0.56188887
0.86006004 -1.9851317 -0.56046075
0.8944211 -2.0644417 -0.5629409
0.92346549 -2.13148 -0.56074858
0.96321517 -2.2232275 -0.56361717
0.99370056 -2.2935917 -0.55959868
1.041431 -2.4037597 -0.56365633
1.0804149 -2.4937398 -0.56116438
1.1276207 -2.6026969 -0.56114531
1.1811917 -2.7263458 -0.56218517
1.2333556 -2.8467472 -0.56034607
1.2995442 -2.9995191 -0.56240404
1.3645294 -3.1495135 -0.56119764
1.4377037 -3.3184097 -0.56047338
1.5240133 -3.5176234 -0.56153506
1.6175976 -3.7336283 -0.56151497
1.716712 -3.9623973 -0.55938834
1.8344316 -4.2341099 -0.55879384
1.9777862 -4.564991 -0.56054878
2.1315012 -4.9197855 -0.55902922
2.3196816 -5.3541307 -0.55940199
2.5386465 -5.8595304 -0.55868685
2.8012335 -6.4656157 -0.55750561
3.1346021 -7.235074 -0.55795246
3.5382102 -8.1666546 -0.55549532
4.0763421 -9.4087334 -0.55447155
4.8106093 -11.103519 -0.55352592
5.8600526 -13.525773 -0.5515554
7.4941897 -17.297577 -0.54851407
10.375867 -23.948866 -0.54237473
16.88611 -38.975365 -0.52956086
0.8590802 -1.9178736 -0.56309152
0.88538128 -1.9765902 -0.56108052
0.92049599 -2.0549829 -0.56340551
0.94924879 -2.1191726 -0.56053919
0.98977423 -2.2096446 -0.56321657
1.0228165 -2.2834105 -0.56014091
1.0680251 -2.3843377 -0.56213909
1.1099733 -2.4779859 -0.56064832
1.1606184 -2.5910497 -0.56166863
1.2149183 -2.7122726 -0.56232125
1.2725697 -2.8409779 -0.56224805
1.3330173 -2.9759257 -0.56101125
1.3988231 -3.1228354 -0.5594666
1.4793236 -3.3025508 -0.56082481
1.5648469 -3.493479 -0.56071013
1.6580424 -3.7015357 -0.55971235
1.7639787 -3.9380355 -0.55896896
1.8914024 -4.2225056 -0.56028944
2.0327928 -4.538156 -0.56028068
2.1974354 -4.9057164 -0.56045848
2.384171 -5.3225985 -0.55912828
2.6112821 -5.829618 -0.55885416
2.8806515 -6.4309778 -0.55753106
3.2194281 -7.1872873 -0.55727804
3.6489425 -8.1461668 -0.55711162
4.1949201 -9.3650475 -0.55489492
4.9465127 -11.042958 -0.5534972
6.0223927 -13.444832 -0.55123287
7.7013998 -17.193171 -0.54816484
10.669316 -23.818964 -0.54236299
17.329979 -38.688717 -0.5285216
0.87691629 -1.8948916 -0.55946761
0.90533119 -1.9562922 -0.55843651
0.94054848 -2.0323918 -0.56034029
0.97255695 -2.1015575 -0.55900085
1.0138996 -2.1908929 -0.56157237
1.0508771 -2.2707963 -0.56017399
1.0975657 -2.3716836 -0.56229514
1.140296 -2.4640179 -0.56061804
1.1923438 -2.5764856 -0.56164736
1.2455598 -2.691478 -0.56114298
1.3036715 -2.817049 -0.5606426
1.3730423 -2.9669497 -0.56245947
1.4415858 -3.1150622 -0.56120729
1.5193609 -3.2831233 -0.56065595
1.6049596 -3.4680898 -0.55976033
1.7024977 -3.6788559 -0.55940622
1.8165829 -3.9253778 -0.56030059
1.9485714 -4.2105861 -0.56184477
2.0825956 -4.5001936 -0.5587132
2.2526186 -4.867589 -0.5592249
2.4487176 -5.2913313 -0.55896449
2.6802516 -5.7916431 -0.55833095
2.9534588 -6.3820052 -0.55639178
3.3127573 -7.1583982 -0.55815434
3.7379851 -8.0772552 -0.55550027
4.3129807 -9.3197393 -0.55531079
5.0826616 -10.982911 -0.5535782
6.1842217 -13.363225 -0.55096316
7.9104171 -17.093288 -0.54804015
10.940342 -23.640526 -0.54132223
17.773642 -38.406315 -0.52760953
0.90528917 -1.894725 -0.56266248
0.93821955 -1.9636465 -0.56378651
0.96932286 -2.0287442 -0.56257832
1.0026567 -2.0985103 -0.5614273
1.0457215 -2.1886427 -0.56424886
1.0888697 -2.2789497 -0.56544554
1.1271472 -2.3590627 -0.56254631
1.176427 -2.4622028 -0.56345379
1.2215766 -2.5566986 -0.56056601
1.2795812 -2.6780994 -0.56159168
1.3379161 -2.8001916 -0.56051946
1.4026748 -2.9357281 -0.55976808
1.4794883 -3.0964949 -0.56109732
1.563694 -3.2727334 -0.56212276
1.6448717 -3.4426341 -0.55887401
1.7516448 -3.666105 -0.56070018
1.8599991 -3.892885 -0.55888504
1.9849468 -4.1543946 -0.55756146
2.1372256 -4.4731064 -0.5585708
2.3142796 -4.8436708 -0.55970412
2.5129313 -5.2594399 -0.55881757
2.7504675 -5.7565908 -0.55817002
3.0384586 -6.3593421 -0.55763113
3.3981092 -7.1120725 -0.55775809
3.839123 -8.0350924 -0.55580521
4.4207993 -9.252512 -0.55450213
5.2121253 -10.908718 -0.55302721
6.3462358 -13.282354 -0.55080462
8.1026907 -16.958525 -0.54687256
11.219566 -23.481991 -0.54081023
18.207628 -38.107655 -0.52654248
0.92833626 -1.8830832 -0.56255275
0.95253295 -1.932165 -0.55806845
0.99409753 -2.0164766 -0.56252366
1.030039 -2.0893822 -0.56233126
1.0653933 -2.1610966 -0.56048232
1.1075373 -2.2465835 -0.56075156
1.1509783 -2.3347013 -0.56006968
1.2024983 -2.4392071 -0.56153274
1.2560995 -2.5479343 -0.56198841
1.3128902 -2.6631312 -0.56179571
1.370796 -2.7805903 -0.55992758
1.4386544 -2.9182379 -0.55976397
1.5189257 -3.081064 -0.56164318
1.6039587 -3.2535493 -0.56217283
1.685878 -3.4197185 -0.55847704
1.791476 -3.6339185 -0.55910438
1.910257 -3.8748598 -0.55962718
2.0360708 -4.1300669 -0.55761439
2.198878 -4.4603133 -0.56030732
2.3698387 -4.8070984 -0.55880302
2.5789697 -5.2313099 -0.55915594
2.8215454 -5.7233624 -0.55827004
3.1161084 -6.320869 -0.55757529
3.4787951 -7.05656 -0.55671722
3.9368529 -7.9857078 -0.55569571
4.5384488 -9.2060146 -0.55501813
5.3477974 -10.847737 -0.5532276
6.5046086 -13.194271 -0.55042714
8.3114614 -16.859379 -0.54692972
11.500599 -23.328384 -0.5404886
18.649807 -37.830193 -0.52583766
0.94648623 -1.8618221 -0.55963576
0.98164231 -1.9309771 -0.56116939
1.0162346 -1.9990233 -0.5610984
1.0528703 -2.0710888 -0.56084991
1.09663 -2.1571681 -0.56291819
1.132708 -2.2281368 -0.55958152
1.1846534 -2.330318 -0.56247014
1.2366688 -2.432637 -0.56347835
1.2900606 -2.5376635 -0.56317931
1.3467866 -2.6492484 -0.56231809
1.4128892 -2.779278 -0.56311929
1.4774352 -2.9062457 -0.56090599
1.5518613 -3.0526483 -0.55989951
1.6402284 -3.2264743 -0.56093711
1.7364697 -3.4157896 -0.56128007
1.8403071 -3.6200466 -0.56040937
1.9599031 -3.8553028 -0.56024092
2.0924039 -4.1159434 -0.55913907
2.2453837 -4.4168682 -0.55827594
2.4289265 -4.7779131 -0.5588401
2.6412663 -5.1956048 -0.55876875
2.8900723 -5.6850281 -0.55795509
3.1928689 -6.2806554 -0.55744916
3.5643096 -7.011312 -0.55656314
4.0395536 -7.9461594 -0.55635816
4.6437569 -9.1346807 -0.55411816
5.4731607 -10.766191 -0.55245936
6.6555257 -13.092008 -0.54953361
8.5107212 -16.741341 -0.54645413
11.771139 -23.154871 -0.53978121
19.081038 -37.534088 -0.52494347
0.97336805 -1.8577952 -0.56198055
1.0100613 -1.9278289 -0.56382132
1.042293 -1.9893471 -0.56193733
1.080194 -2.061686 -0.561858
1.1305847 -2.1578629 -0.56668448
1.166508 -2.2264271 -0.56271195
1.2106656 -2.3107073 -0.56128752
1.2538381 -2.3931077 -0.55785114
1.3153203 -2.5104539 -0.56068778
1.3781078 -2.6302917 -0.56184882
1.4376055 -2.7438507 -0.55948061
1.5113491 -2.8845997 -0.56027269
1.5902903 -3.0352688 -0.56025618
1.6777623 -3.2022202 -0.56026477
1.7763958 -3.3904746 -0.56066722
1.8801914 -3.5885816 -0.55907518
2.0099072 -3.8361604 -0.56100827
2.1479578 -4.099647 -0.56047094
2.3022599 -4.3941522 -0.55894071
2.4851542 -4.7432289 -0.55831534
2.6996014 -5.1525283 -0.55766398
2.954699 -5.6394143 -0.55700207
3.2633057 -6.2284288 -0.55633318
3.6504297 -6.9673038 -0.55659086
4.1294527 -7.8815794 -0.55534977
4.7538738 -9.0733662 -0.55390286
5.5983663 -10.685185 -0.55179334
6.8154397 -13.008122 -0.54948872
8.7059975 -16.616491 -0.54583198
12.043665 -22.986847 -0.53927588
19.506937 -37.231438 -0.5240258
0.99712795 -1.8475227 -0.56253958
1.0276871 -1.904144 -0.56054777
1.058147 -1.9605814 -0.55744505
1.1058879 -2.0490379 -0.56207454
1.1523679 -2.1351583 -0.56440049
1.190914 -2.2065783 -0.56135404
1.2425622 -2.302274 -0.56290787
1.2901636 -2.3904722 -0.56089252
1.3465188 -2.4948893 -0.56086713
1.4067751 -2.606535 -0.56042695
1.4753703 -2.7336311 -0.56105357
1.5538712 -2.879081 -0.56286949
1.6210259 -3.0035083 -0.55803078
1.7162732 -3.1799867 -0.56002486
1.810177 -3.3539758 -0.55827022
1.9199697 -3.5574045 -0.55785394
2.0542955 -3.8062892 -0.56029165
2.1968274 -4.0703788 -0.56012034
2.3510604 -4.3561482 -0.55774176
2.5365336 -4.699801 -0.55683279
2.7656369 -5.1242938 -0.55824661
3.0293295 -5.612875 -0.55801779
3.3426752 -6.1934557 -0.55683863
3.7313359 -6.9135833 -0.55592269
4.2239766 -7.8263698 -0.55507743
4.8650179 -9.0141191 -0.55389619
5.7254481 -10.608363 -0.55142015
6.973547 -12.920896 -0.54938477
8.8970308 -16.484812 -0.54505897
12.309966 -22.808447 -0.53860104
19.92955 -36.92635 -0.52314138
1.0170878 -1.8302979 -0.56106055
1.0559484 -1.9002295 -0.56317526
1.0937835 -1.9683156 -0.56342554
1.1257139 -2.0257759 -0.55944836
1.1743993 -2.1133876 -0.56242049
1.2235863 -2.2019019 -0.56394941
1.2723309 -2.2896202 -0.56359667
1.3202876 -2.3759205 -0.56124508
1.3769597 -2.4779048 -0.56081283
1.4418777 -2.5947278 -0.56165791
1.5100545 -2.7174151 -0.56149393
1.582845 -2.8484051 -0.56063497
1.6603605 -2.9878979 -0.55888152
1.7579013 -3.1634274 -0.56087297
1.8537937 -3.3359904 -0.55902857
1.9668655 -3.5394683 -0.5587917
2.0938914 -3.7680573 -0.55841172
2.2413516 -4.0334191 -0.55878472
2.411329 -4.3393016 -0.55933887
2.6057925 -4.6892481 -0.55933654
2.8212883 -5.0770431 -0.55683631
3.0899189 -5.5604568 -0.55654174
3.4223135 -6.1586161 -0.55744767
3.8179107 -6.8705125 -0.55619228
4.3155556 -7.766048 -0.55452091
4.9733505 -8.9497814 -0.55365872
5.8567872 -10.539568 -0.55154598
7.1247053 -12.821247 -0.5488314
9.1046362 -16.384228 -0.54539371
12.574485 -22.628386 -0.53795964
20.352222 -36.624794 -0.52237523
1.0412958 -1.8207672 -0.56202149
1.0708489 -1.8724426 -0.55880028
1.1156766 -1.9508264 -0.56230384
1.1536682 -2.0172567 -0.56097096
1.1990408 -2.0965936 -0.56183243
1.2487471 -2.1835079 -0.56312859
1.2941674 -2.262928 -0.56090111
1.3403107 -2.3436124 -0.55746424
1.4077382 -2.4615133 -0.56097841
1.4716746 -2.5733097 -0.56089646
1.5405473 -2.6937377 -0.56047338
1.6128117 -2.8200963 -0.55892426
1.7030339 -2.9778552 -0.56087768
1.7968107 -3.1418295 -0.56091863
1.9040956 -3.3294234 -0.56180918
2.0170758 -3.5269759 -0.56069285
2.1417212 -3.744926 -0.55884433
2.2897718 -4.0038013 -0.55853993
2.4564548 -4.2952561 -0.5575127
2.6562328 -4.6445799 -0.55786228
2.8884764 -5.0506716 -0.55779731
3.1658754 -5.5357199 -0.5579201
3.4921739 -6.1062722 -0.5565545
3.90171 -6.8223705 -0.55613691
4.4084005 -7.7083483 -0.55422968
5.0810103 -8.8844461 -0.55344015
5.9872279 -10.469021 -0.55166519
7.2824802 -12.733847 -0.54888183
9.2984791 -16.25894 -0.54498804
12.84455 -22.459454 -0.53765774
20.772638 -36.322182 -0.52166283
1.0690268 -1.8170427 -0.56488675
1.1018752 -1.8728758 -0.56293052
1.1434443 -1.9435314 -0.56421119
1.1755632 -1.9981245 -0.55962801
1.2248996 -2.0819826 -0.56191075
1.2688823 -2.1567404 -0.56020683
1.3209641 -2.2452648 -0.56050676
1.3707184 -2.329833 -0.55815363
1.4326013 -2.4350164 -0.55891222
1.5065228 -2.560662 -0.56213504
1.5763077 -2.6792765 -0.56145495
1.6483773 -2.8017745 -0.55926794
1.7381736 -2.9544027 -0.5604437
1.8320504 -3.1139667 -0.55992383
1.9363701 -3.2912807 -0.55934846
2.0586274 -3.4990833 -0.56024051
2.1839285 -3.7120597 -0.55790502
2.3381991 -3.9742763 -0.55838984
2.5184083 -4.2805805 -0.55958509
2.7129846 -4.6113052 -0.55783039
2.9483228 -5.0113139 -0.55741239
3.2325711 -5.4944553 -0.55772519
3.560235 -6.0513911 -0.55550057
3.9765787 -6.7590575 -0.5549199
4.503623 -7.6548839 -0.5543254
5.1846294 -8.8124018 -0.55288184
6.1119766 -10.388629 -0.55134761
7.4327321 -12.633539 -0.54845631
9.4894257 -16.129335 -0.54451388
13.100652 -22.267397 -0.53687584
21.178507 -35.997463 -0.52069998
1.0864191 -1.7957143 -0.56236672
1.1255424 -1.8603802 -0.56329209
1.1630412 -1.922361 -0.56217462
1.2055349 -1.9925977 -0.5621894
1.2523206 -2.0699286 -0.56277108
1.2941048 -2.1389925 -0.55968791
1.3500285 -2.2314274 -0.56115419
1.4051504 -2.3225369 -0.56050271
1.46833 -2.426965 -0.56116599
1.5352355 -2.5375514 -0.56116343
1.6011921 -2.6465693 -0.55868471
1.6860756 -2.786871 -0.56038922
1.7650985 -2.917486 -0.55751586
1.8673612 -3.0865135 -0.55907398
1.9807322 -3.2739015 -0.56049174
2.1031339 -3.4762158 -0.56067747
2.2367325 -3.6970377 -0.5597387
2.3954196 -3.9593277 -0.5603857
2.5623856 -4.235301 -0.55774266
2.7774591 -4.5907907 -0.55943793
3.0149162 -4.9832778 -0.55837536
3.2919135 -5.4411192 -0.55637807
3.6372118 -6.0118537 -0.55593473
4.0642281 -6.717658 -0.55558199
4.601954 -7.606452 -0.554874
5.2876539 -8.7398281 -0.55236614
6.2394323 -10.312998 -0.55136383
7.5827546 -12.53334 -0.54811281
9.6786051 -15.997518 -0.54404044
13.362958 -22.08729 -0.53645462
21.580435 -35.669746 -0.51975876
1.1115786 -1.7873051 -0.56397116
1.1415421 -1.8354833 -0.55996156
1.1877252 -1.909741 -0.56271249
1.2246511 -1.9691142 -0.55977011
1.2743553 -2.0490334 -0.56130803
1.3205954 -2.1233828 -0.5598101
1.3817906 -2.2217784 -0.562958
1.4336824 -2.3052154 -0.56053454
1.503633 -2.4176886 -0.56325364
1.5565397 -2.5027573 -0.55765945
1.634746 -2.628505 -0.55907249
1.7166212 -2.7601519 -0.5592187
1.8096715 -2.9097674 -0.56025088
1.9113718 -3.0732911 -0.56089377
2.0205226 -3.2487946 -0.5604046
2.1473768 -3.4527628 -0.56111115
2.2783561 -3.6633646 -0.55883992
2.4389334 -3.9215565 -0.55924213
2.6253641 -4.2213178 -0.56011015
2.8329668 -4.5551219 -0.5592941
3.0676126 -4.9324083 -0.55685997
3.3685222 -5.4162402 -0.55802739
3.7169983 -5.9765544 -0.55685496
4.1477528 -6.6691642 -0.55574745
4.6776195 -7.5211353 -0.55280441
5.3939142 -8.6728649 -0.55228412
6.3694997 -10.241507 -0.55168736
7.7431355 -12.450172 -0.54859811
9.8643999 -15.86095 -0.5434801
13.629477 -21.91481 -0.53629541
21.983362 -35.347004 -0.51895565
1.1277305 -1.7645215 -0.56111521
1.1668379 -1.8257115 -0.56131518
1.2050958 -1.8855723 -0.55991507
1.248853 -1.9540377 -0.55980742
1.2960004 -2.0278075 -0.55981666
1.3504319 -2.1129749 -0.56140161
1.398472 -2.1881413 -0.55874991
1.4629393 -2.2890112 -0.56092614
1.5302593 -2.3943446 -0.56215638
1.5920556 -2.491035 -0.5593673
1.6689553 -2.6113575 -0.55974799
1.7499096 -2.738024 -0.55905282
1.849949 -2.894552 -0.56165868
1.9371516 -3.0309949 -0.55747962
2.0565624 -3.217833 -0.55938375
2.1842136 -3.4175644 -0.55971348
2.3213987 -3.6322134 -0.55840015
2.4831779 -3.8853438 -0.55839014
2.6685605 -4.1754055 -0.55832994
2.8782439 -4.50349 -0.55725801
3.1275554 -4.893579 -0.55677593
3.4328029 -5.3711896 -0.55769265
3.7858388 -5.923573 -0.55621392
4.2229815 -6.6075549 -0.55489874
4.7885175 -7.4924302 -0.55498046
5.492846 -8.5944691 -0.55155128
6.4815831 -10.141512 -0.55055255
7.8868599 -12.340301 -0.54798859
10.055639 -15.733716 -0.54331613
13.870819 -21.703197 -0.53525037
22.382992 -35.021904 -0.5181843
1.1556222 -1.7600888 -0.56418175
1.1956289 -1.8210216 -0.56435072
1.2294325 -1.8725066 -0.56048203
1.2832621 -1.9544927 -0.56441575
1.3250549 -2.0181458 -0.56160504
1.3752977 -2.0946689 -0.56098866
1.4294603 -2.1771622 -0.56039244
1.4889702 -2.2677994 -0.5601725
1.5450782 -2.3532557 -0.55692798
1.6283337 -2.4800594 -0.56135637
1.7068748 -2.5996828 -0.56170195
1.7880725 -2.7233522 -0.56050402
1.8788526 -2.8616161 -0.55970848
1.9810885 -3.0173283 -0.55940419
2.0940318 -3.1893482 -0.55886596
2.2176485 -3.3776245 -0.55759621
2.363029 -3.5990489 -0.5577265
2.5270205 -3.8488183 -0.55756444
2.7190251 -4.1412544 -0.55819196
2.9365797 -4.4726043 -0.55786222
3.1933146 -4.8636284 -0.55779368
3.4793694 -5.2993088 -0.55462956
3.8532429 -5.8687425 -0.55547249
4.3083744 -6.5619378 -0.55547494
4.8800778 -7.4326797 -0.55495751
5.6067977 -8.5395222 -0.55240774
6.6021314 -10.05548 -0.55024773
8.0343142 -12.236789 -0.54773772
10.240026 -15.596234 -0.54287571
14.123574 -21.511133 -0.5347563
22.770372 -34.680779 -0.5172407
1.170912 -1.7364571 -0.56117958
1.2046859 -1.7865436 -0.55821431
1.2544968 -1.860413 -0.56143701
1.2931587 -1.9177483 -0.5583545
1.3486407 -2.0000277 -0.56113559
1.4055436 -2.0844145 -0.56282854
1.4534376 -2.155441 -0.55935943
1.5132688 -2.2441707 -0.55888999
1.5760423 -2.3372633 -0.55768746
1.6613674 -2.4638 -0.56225765
1.7306806 -2.5665913 -0.5591079
1.8223445 -2.7025285 -0.5607878
1.9179959 -2.8443789 -0.5609076
2.0215313 -2.9979217 -0.56037247
2.138721 -3.1717134 -0.56034172
2.2613499 -3.3535712 -0.5581736
2.4199786 -3.5888169 -0.56070983
2.5792542 -3.825022 -0.55866945
2.7714405 -4.1100335 -0.55853492
2.9928951 -4.4384494 -0.55815023
3.2623785 -4.8380919 -0.55942345
3.5549195 -5.2719293 -0.556297
3.9231942 -5.8180785 -0.55520123
4.379931 -6.4954171 -0.55436105
4.9662623 -7.364944 -0.55441779
5.7125821 -8.4717331 -0.55252486
6.7194748 -9.9649496 -0.54977357
8.1786823 -12.128948 -0.54737085
10.427419 -15.463813 -0.54268849
14.387049 -21.335926 -0.53475821
23.166298 -34.355511 -0.51659906
1.1969328 -1.7288018 -0.56341952
1.2306117 -1.7774464 -0.56005764
1.2776266 -1.8453528 -0.56159073
1.3196031 -1.905982 -0.55961078
1.3712109 -1.9805223 -0.56035131
1.4223319 -2.0543594 -0.55939341
1.4836195 -2.1428807 -0.56079185
1.5417333 -2.2268178 -0.55924749
1.6147274 -2.3322477 -0.5611859
1.6881778 -2.4383366 -0.56114155
1.758396 -2.539757 -0.55793029
1.8572538 -2.6825433 -0.56133723
1.9497719 -2.8161726 -0.56003088
2.0553575 -2.9686761 -0.55958772
2.1732447 -3.138948 -0.559232
2.3044369 -3.3284366 -0.55866426
2.4512146 -3.5404363 -0.557818
2.6228108 -3.7882833 -0.55797184
2.8138926 -4.0642738 -0.55697644
3.0411603 -4.3925309 -0.55703628
3.2997692 -4.7660551 -0.55574358
3.6209555 -5.2299633 -0.55652499
4.003283 -5.7821822 -0.55643117
4.4609537 -6.4432235 -0.55454618
5.0472131 -7.2899928 -0.5534057
5.8057399 -8.3855791 -0.55152029
6.8466768 -9.8890667 -0.55019033
8.3175135 -12.013484 -0.54673433
10.601841 -15.312876 -0.54192555
14.621634 -21.118904 -0.53378475
23.554182 -34.020721 -0.51588106
1.2167299 -1.7120281 -0.56278634
1.2504635 -1.7594937 -0.55920357
1.303139 -1.833612 -0.56285167
1.3382062 -1.882954 -0.55763882
1.3960476 -1.9643412 -0.5605877
1.4575831 -2.0509262 -0.56329632
1.5046101 -2.1170964 -0.55884367
1.5714154 -2.2110965 -0.56010962
1.6412399 -2.3093448 -0.56048864
1.7105988 -2.4069378 -0.55871415
1.7943867 -2.5248334 -0.55945677
1.8868326 -2.6549118 -0.56036788
1.9925206 -2.8036225 -0.56236494
2.0880105 -2.9379838 -0.55859977
2.2170339 -3.119529 -0.56058687
2.347152 -3.3026147 -0.55913222
2.4983735 -3.5153944 -0.55867058
2.6674442 -3.7532895 -0.55760658
2.8710816 -4.0398221 -0.55842143
3.1026978 -4.3657231 -0.55843276
3.364552 -4.7341709 -0.55680788
3.6752334 -5.1713223 -0.55505192
4.0707884 -5.7278976 -0.55598223
4.5441394 -6.3939371 -0.55507141
5.132328 -7.2215614 -0.55295992
5.9148879 -8.3226805 -0.55212528
6.9641852 -9.799119 -0.54990876
8.4577589 -11.900687 -0.54629272
10.792998 -15.18654 -0.54211032
14.86359 -20.91416 -0.53318906
23.931118 -33.672836 -0.51502907
1.2359613 -1.6945705 -0.56200105
1.2676911 -1.7380739 -0.55730802
1.3147618 -1.8026103 -0.55825573
1.3629788 -1.8687186 -0.55834424
1.4165058 -1.942107 -0.55917102
1.4740717 -2.021033 -0.56002206
1.5261496 -2.0924346 -0.55724525
1.6005673 -2.1944654 -0.56083989
1.6747738 -2.2962067 -0.56225568
1.744884 -2.3923316 -0.56026173
1.8286589 -2.5071914 -0.56048769
1.9203039 -2.6328418 -0.56065118
2.0174253 -2.7660005 -0.55975217
2.1301684 -2.9205775 -0.56022811
2.2442591 -3.077002 -0.55786169
2.3872645 -3.2730701 -0.55905789
2.5454924 -3.4900095 -0.55956835
2.7175493 -3.725909 -0.55846107
2.9220731 -4.0063219 -0.55871528
3.1510272 -4.320231 -0.55752772
3.4279249 -4.6998725 -0.55768931
3.7439787 -5.1331997 -0.55585945
4.1302443 -5.6627908 -0.55455041
4.6157866 -6.328496 -0.55427575
5.2188134 -7.1552787 -0.55275661
6.0115709 -8.2421923 -0.55164796
7.0789065 -9.7055683 -0.54950219
8.5944328 -11.783438 -0.54572046
10.965391 -15.034152 -0.54144287
15.111594 -20.718822 -0.53290612
24.299398 -33.315807 -0.51409954
1.2592739 -1.6826802 -0.56315053
1.3019348 -1.7396852 -0.56291538
1.345343 -1.7976885 -0.56181228
1.4010583 -1.872137 -0.56447035
1.4397012 -1.9237728 -0.55894709
1.5001149 -2.0044994 -0.56050962
1.5559152 -2.0790615 -0.5587368
1.6290598 -2.1767995 -0.56140208
1.6959249 -2.2661467 -0.55995911
1.7674263 -2.3616889 -0.55813301
1.8621897 -2.4883146 -0.56134433
1.9460542 -2.6003771 -0.55879146
2.0478399 -2.7363861 -0.5588128
2.1634464 -2.8908632 -0.55958897
2.2872922 -3.05635 -0.5591743
2.4197841 -3.2333894 -0.5573203
2.5850146 -3.4541757 -0.55887717
2.7581851 -3.6855712 -0.55745643
2.9654005 -3.9624586 -0.55764121
3.1961491 -4.2707925 -0.55617744
3.4816983 -4.6523519 -0.55708849
3.8041532 -5.0832257 -0.5554713
4.1993456 -5.6112943 -0.55452222
4.6884599 -6.2648635 -0.55371004
5.3097029 -7.0949869 -0.55310094
6.1077385 -8.1613464 -0.55122197
7.1956348 -9.6150274 -0.549344
8.7452059 -11.685611 -0.54612875
11.14275 -14.889282 -0.54111916
15.349673 -20.510702 -0.53236759
24.691065 -32.992954 -0.51376384
1.2749592 -1.6606755 -0.56099057
1.3161672 -1.7143503 -0.55991215
1.370954 -1.7857119 -0.56329519
1.4098448 -1.8363683 -0.55887049
1.4670719 -1.9109085 -0.56040841
1.5297571 -1.992558 -0.56238794
1.5900011 -2.0710278 -0.56178963
1.6564432 -2.1575708 -0.56165355
1.7248185 -2.2466316 -0.5603354
1.8034792 -2.3490899 -0.56035405
1.8858217 -2.4563437 -0.55932087
1.9794294 -2.5782707 -0.55922914
2.0811627 -2.7107816 -0.5587678
2.1924007 -2.8556728 -0.55795342
2.3225138 -3.0251493 -0.55864877
2.4705338 -3.2179499 -0.55985302
2.6215141 -3.4146068 -0.55764848
2.8043625 -3.6527727 -0.55766916
3.0053716 -3.9145937 -0.55606383
3.2505395 -4.233933 -0.55654049
3.5378571 -4.6081734 -0.55696553
3.8634348 -5.0322485 -0.55505013
4.2718325 -5.5641994 -0.55501729
4.7730098 -6.2169991 -0.55462503
5.3924394 -7.0238261 -0.55268085
6.203311 -8.0800123 -0.55083889
7.2997937 -9.5082169 -0.54832852
8.883009 -11.570406 -0.54580826
11.31533 -14.738582 -0.54065806
15.595438 -20.313562 -0.53218794
25.045212 -32.622196 -0.51274729
1.2968307 -1.6468407 -0.56166142
1.3431624 -1.7056772 -0.56243122
1.3840868 -1.757647 -0.55976862
1.4412596 -1.8302505 -0.56235969
1.489801 -1.891893 -0.56016195
1.5573859 -1.9777188 -0.5635621
1.6076063 -2.0414937 -0.55909812
1.679309 -2.1325486 -0.56047291
1.7513533 -2.2240372 -0.56002897
1.8321177 -2.3265996 -0.56032085
1.9253532 -2.4449992 -0.56208611
2.015542 -2.5595295 -0.56049746
2.1173241 -2.6887825 -0.5595575
2.2346418 -2.8377635 -0.55978072
2.3580544 -2.9944849 -0.55829841
2.49247 -3.165179 -0.55596215
2.6673214 -3.3872221 -0.55849046
2.8547533 -3.6252408 -0.55878288
3.0596125 -3.8853912 -0.55721778
3.3038683 -4.1955709 -0.55679595
3.5879416 -4.5563145 -0.55598801
3.9269962 -4.9868784 -0.55533004
4.3422461 -5.5142031 -0.55531418
4.8440628 -6.1514578 -0.55404997
5.4768796 -6.95507 -0.55252814
6.3096085 -8.0125494 -0.55148727
7.4216962 -9.4247856 -0.54873854
9.0290384 -11.465944 -0.5460766
11.488768 -14.589545 -0.54033238
15.820188 -20.09 -0.53138721
25.406116 -32.263138 -0.51197529
1.3085924 -1.6203831 -0.55808371
1.3641024 -1.6891191 -0.56245971
1.4143388 -1.751325 -0.56325138
1.4503356 -1.7958986 -0.55724227
1.5153651 -1.8764224 -0.56105602
1.5713494 -1.9457457 -0.55991477
1.6327337 -2.0217557 -0.55914867
1.7017556 -2.107223 -0.55927426
1.7769127 -2.2002873 -0.5595082
1.8584907 -2.3013024 -0.55968988
1.9517506 -2.4167829 -0.56107432
2.0381701 -2.523793 -0.55811775
2.1406024 -2.6506312 -0.55705357
2.2658815 -2.8057599 -0.55892152
2.4010139 -2.9730895 -0.5597716
2.5396924 -3.14481 -0.55782759
2.7107015 -3.3565645 -0.55888915
2.8884776 -3.5766983 -0.55673319
3.1013258 -3.8402607 -0.55617255
3.3480833 -4.1458116 -0.55561405
3.6549721 -4.5258212 -0.5577091
3.9890449 -4.9394913 -0.55547333
4.4083872 -5.4587479 -0.55514663
4.915031 -6.0861068 -0.55356556
5.5640087 -6.8897128 -0.55272949
6.3986421 -7.9232097 -0.55071199
7.5308051 -9.3251257 -0.5482862
9.1597595 -11.342201 -0.54550624
11.663886 -14.442972 -0.5401749
16.054888 -19.880192 -0.53101933
25.769207 -31.909084 -0.51134664
1.3357908 -1.6130751 -0.56118149
1.3869628 -1.6748695 -0.56335127
1.4280484 -1.7244837 -0.56022406
1.4889059 -1.7979741 -0.56352448
1.5289109 -1.8462834 -0.55762357
1.5846009 -1.9135336 -0.55621034
1.6614897 -2.0063832 -0.56050515
1.7277904 -2.0864463 -0.55935645
1.8017033 -2.1757023 -0.5588479
1.8840138 -2.2750988 -0.558909
1.9700887 -2.3790412 -0.55789417
2.0721231 -2.5022559 -0.55894744
2.186233 -2.640053 -0.5604378
2.3037763 -2.7819958 -0.55978841
2.4381785 -2.9442973 -0.55995309
2.5854068 -3.1220875 -0.55939394
2.74176 -3.3108966 -0.55685663
2.9412746 -3.5518267 -0.55844921
3.1616542 -3.8179526 -0.55852997
3.40468 -4.1114259 -0.5565744
3.7055769 -4.4747834 -0.55699271
4.0389643 -4.8773756 -0.55403125
4.468678 -5.3962893 -0.55434102
4.9960546 -6.0331392 -0.55429375
5.6308236 -6.799674 -0.55101919
6.4885368 -7.8354325 -0.55011499
7.6350145 -9.2198963 -0.54757768
9.2743979 -11.199585 -0.54409081
11.833332 -14.289703 -0.53984386
16.280399 -19.659897 -0.5304423
26.122234 -31.544708 -0.51061624
1.3547895 -1.5956646 -0.56087768
1.4066404 -1.6567343 -0.56302667
1.4537823 -1.7122579 -0.5620172
1.4959773 -1.7619549 -0.55795854
1.5573587 -1.8342497 -0.55973053
1.6156595 -1.902916 -0.55885661
1.6767195 -1.9748323 -0.55740875
1.7576777 -2.0701842 -0.56074864
1.834994 -2.161247 -0.56088829
1.9188377 -2.2599978 -0.56095326
2.0063274 -2.3630428 -0.55988556
2.1044953 -2.4786646 -0.55941588
2.2099376 -2.6028538 -0.55826753
2.3458824 -2.7629693 -0.5617218
2.46907 -2.9080586 -0.55879301
2.6178885 -3.0833366 -0.55817634
2.7823498 -3.2770383 -0.55687428
2.9838252 -3.5143352 -0.55828106
3.1941769 -3.7620864 -0.55606109
3.456682 -4.0712638 -0.55684942
3.7445691 -4.4103355 -0.55466008
4.1110215 -4.8419414 -0.55570644
4.5390716 -5.3460965 -0.55487657
5.0567298 -5.9557924 -0.55285847
5.7271576 -6.745419 -0.5522877
6.5916705 -7.763638 -0.55072349
7.7548089 -9.1335773 -0.54807299
9.4213667 -11.09644 -0.54466689
11.990495 -14.122348 -0.53905076
16.503056 -19.437222 -0.52986944
26.473854 -31.180779 -0.50995624
1.3741707 -1.5787299 -0.56082213
1.4206108 -1.6320832 -0.5605433
1.4736804 -1.6930526 -0.56161886
1.5239952 -1.7508572 -0.56033623
1.5841326 -1.8199468 -0.56126767
1.6532935 -1.899403 -0.56375277
1.7223841 -1.9787784 -0.56445783
1.7702693 -2.0337918 -0.55674523
1.8650666 -2.1427007 -0.56198442
1.9446796 -2.234165 -0.56043428
2.0254946 -2.3270099 -0.55720723
2.1302576 -2.4473679 -0.55822217
2.2482913 -2.5829723 -0.55989051
2.36851 -2.7210867 -0.55908579
2.5064642 -2.8795767 -0.55920011
2.6555166 -3.0508173 -0.55815846
2.8253617 -3.2459455 -0.5574522
3.0233109 -3.4733615 -0.55763561
3.2434175 -3.726233 -0.55661452
3.5059342 -4.0278282 -0.55676287
3.8039896 -4.3702521 -0.55545974
4.1583333 -4.7773438 -0.55411917
4.600018 -5.2847772 -0.55434108
5.135128 -5.8995438 -0.55345672
5.7966242 -6.6595106 -0.55104816
6.6793556 -7.673645 -0.55012429
7.858891 -9.0287666 -0.54754114
9.5466337 -10.967747 -0.5440709
12.158431 -13.968336 -0.53883803
16.727528 -19.217588 -0.52944934
26.813591 -30.805065 -0.50916541
1.3866664 -1.5540802 -0.55808073
1.4457769 -1.6203272 -0.56256908
1.4958255 -1.6764183 -0.5621599
1.5497653 -1.7368703 -0.56191623
1.6062529 -1.8001777 -0.56121975
1.6618237 -1.8624576 -0.55881006
1.7350398 -1.9445132 -0.560727
1.8053598 -2.0233231 -0.55991417
1.8930292 -2.1215768 -0.56250674
1.9789699 -2.2178934 -0.56241429
2.0700531 -2.319973 -0.56157482
2.170512 -2.4325604 -0.56089002
2.2808483 -2.5562179 -0.56012827
2.4006689 -2.6905043 -0.55882519
2.5330617 -2.8388813 -0.55730385
2.6914322 -3.016372 -0.55786926
2.8578801 -3.2029152 -0.55605543
3.060087 -3.4295347 -0.55659842
3.289866 -3.6870553 -0.55676311
3.5586462 -3.9882855 -0.55730361
3.8664644 -4.3332672 -0.55675966
4.2238736 -4.7338266 -0.55505407
4.6551838 -5.2172098 -0.55321616
5.2042356 -5.8325486 -0.55313331
5.8875165 -6.5983229 -0.55193388
6.7784882 -7.5968628 -0.55055362
7.9756756 -8.9385881 -0.5479784
9.6794262 -10.848035 -0.54399556
12.320298 -13.807743 -0.53844637
16.948843 -18.995096 -0.52902138
27.143682 -30.420771 -0.5082919
1.4108126 -1.5425359 -0.56012249
1.4610295 -1.5974414 -0.56081837
1.5114684 -1.6525897 -0.56035936
1.5678164 -1.7141986 -0.56077611
1.6234472 -1.7750235 -0.55955893
1.6804352 -1.8373324 -0.55742919
1.7550957 -1.9189637 -0.55954051
1.8381619 -2.0097854 -0.56238031
1.9106017 -2.0889888 -0.56005317
2.0045345 -2.1916919 -0.56197804
2.0890746 -2.2841251 -0.55907327
2.1953249 -2.4002957 -0.5596326
2.3201742 -2.5368018 -0.56208283
2.427099 -2.6537099 -0.55733961
2.5695424 -2.8094528 -0.55768728
2.7294874 -2.9843314 -0.55810863
2.9082561 -3.1797912 -0.55820715
3.105437 -3.3953824 -0.55721092
3.3311472 -3.6421661 -0.55612791
3.6003292 -3.936481 -0.55620891
3.916841 -4.2825446 -0.5563888
4.2823935 -4.6822276 -0.55513626
4.7309375 -5.1726508 -0.55461794
5.2734723 -5.7658405 -0.55291486
5.9672146 -6.5243549 -0.55184257
6.857481 -7.4977431 -0.54943973
8.0668783 -8.8200579 -0.54675174
9.8036785 -10.719018 -0.54352993
12.49056 -13.656766 -0.53850758
17.175179 -18.778772 -0.52883857
27.489651 -30.056274 -0.50781125
1.4284861 -1.5238072 -0.55965775
1.47989 -1.5786413 -0.5605644
1.5265012 -1.6283628 -0.55846703
1.5908592 -1.6970153 -0.56151181
1.6513206 -1.7615112 -0.56165797
1.7128816 -1.82718 -0.56069684
1.7892116 -1.9086037 -0.56289226
1.8570678 -1.9809878 -0.56066954
1.9378619 -2.0671732 -0.56055057
2.0211658 -2.1560359 -0.55916584
2.1201217 -2.261595 -0.55989736
2.2293279 -2.3780882 -0.56080383
2.3333983 -2.4891031 -0.55782944
2.4613354 -2.6255774 -0.55774546
2.608732 -2.7828095 -0.55872387
2.757827 -2.9418535 -0.55646455
2.9500475 -3.1469007 -0.55875909
3.1476605 -3.3577001 -0.55733663
3.3729451 -3.5980177 -0.55567771
3.6510849 -3.8947175 -0.55660933
3.9688118 -4.2336459 -0.5563342
4.3359385 -4.6252704 -0.5546627
4.7895722 -5.1091743 -0.55408484
5.348392 -5.7052836 -0.55337256
6.0386577 -6.4416103 -0.55108279
6.9552689 -7.4193859 -0.54992342
8.1823759 -8.7283764 -0.54726404
9.9360323 -10.599052 -0.54360098
12.639326 -13.482734 -0.53773296
17.392778 -18.553377 -0.52847403
27.820396 -29.676817 -0.50714159
1.4450263 -1.5039551 -0.55885035
1.4993224 -1.5604653 -0.56061453
1.5484039 -1.6115484 -0.55918807
1.6120119 -1.6777505 -0.56165373
1.6649224 -1.7328186 -0.55899477
1.725003 -1.7953494 -0.55739599
1.8057675 -1.8794075 -0.56078786
1.8722661 -1.9486178 -0.55798179
1.9648176 -2.0449438 -0.56103176
2.052809 -2.1365232 -0.56060946
2.1441419 -2.2315807 -0.55895185
2.2517681 -2.3435962 -0.55915719
2.3715613 -2.4682746 -0.55965471
2.5029984 -2.6050718 -0.55988526
2.6473587 -2.7553191 -0.55969805
2.805367 -2.919771 -0.55877042
2.9888442 -3.1107304 -0.55882019
3.1846275 -3.3144982 -0.55662358
3.4302387 -3.5701253 -0.55784208
3.6968298 -3.8475881 -0.55632842
4.0189009 -4.1827936 -0.55610371
4.4002433 -4.5796871 -0.5556429
4.848321 -5.0460372 -0.55366123
5.4174457 -5.638371 -0.55330193
6.1187258 -6.3682504 -0.55120182
7.0539432 -7.3416057 -0.55054581
8.284173 -8.6220055 -0.54694027
10.06194 -10.47227 -0.54340321
12.803903 -13.326051 -0.53772265
17.60351 -18.32139 -0.52799183
28.139906 -29.287462 -0.5063628
1.4687892 -1.4915376 -0.56090492
1.5264425 -1.5500838 -0.56358546
1.5672262 -1.5914991 -0.5588758
1.6292253 -1.6544584 -0.56052053
1.6930126 -1.7192336 -0.56128567
1.7427487 -1.7697401 -0.55605632
1.8338388 -1.862241 -0.56235164
1.9037514 -1.9332362 -0.56023818
1.9961144 -2.0270298 -0.56280845
2.0862792 -2.1185911 -0.56259304
2.1711986 -2.2048256 -0.55889529
2.2838354 -2.319207 -0.55999619
2.3984945 -2.435642 -0.55890059
2.53758 -2.5768816 -0.56049049
2.6727836 -2.714179 -0.55797511
2.843962 -2.8880086 -0.55934215
3.0183055 -3.0650525 -0.55723971
3.2285221 -3.2785249 -0.55720723
3.4745235 -3.5283363 -0.55794609
3.7385745 -3.7964768 -0.55554324
4.0757775 -4.1389022 -0.55688941
4.4397597 -4.508522 -0.55359048
4.9187531 -4.9949336 -0.55464846
5.4880071 -5.5730042 -0.55346775
6.1886764 -6.2845254 -0.55050015
7.113472 -7.2236443 -0.54821789
8.3933115 -8.5233059 -0.54718488
10.189156 -10.346964 -0.54336131
12.955219 -13.155868 -0.53724301
17.798742 -18.074406 -0.52714157
28.452339 -28.893003 -0.50555354
1.4824417 -1.4688314 -0.55917895
1.5274965 -1.5134726 -0.55706125
1.5808501 -1.5663364 -0.55682379
1.652256 -1.6370867 -0.56147593
1.7027153 -1.6870826 -0.55758262
1.7680311 -1.751799 -0.557208
1.8489679 -1.8319926 -0.56004065
1.9235066 -1.9058471 -0.55911297
2.0184879 -1.9999563 -0.56214035
2.0983477 -2.079083 -0.55891114
2.2043056 -2.184068 -0.56046194
2.3181984 -2.2969153 -0.56145418
2.4294391 -2.4071345 -0.5591718
2.5648301 -2.5412824 -0.55956495
2.7067385 -2.6818881 -0.55813688
2.8785572 -2.8521295 -0.55920625
3.0481555 -3.0201707 -0.55585229
3.267705 -3.2377043 -0.55705649
