# .PCD v0.7 - Point Cloud Data file format
VERSION 0.7
FIELDS x y z
SIZE 4 4 4
TYPE F F F
COUNT 1 1 1
WIDTH 1419
HEIGHT 1
VIEWPOINT 0 0 0 1 0 0 0
POINTS 1419
DATA ascii
-2.2134762 -0.46954647 -0.56615913
-2.3115573 -0.49035251 -0.5704205
-2.3956273 -0.50818634 -0.56966966
-2.4855216 -0.52725565 -0.56882882
-2.5818808 -0.54769647 -0.56788844
-2.701901 -0.57315642 -0.57031119
-2.8248818 -0.59924442 -0.57128853
-2.9477537 -0.62530935 -0.57015526
-3.0775311 -0.65283912 -0.56821591
-3.2395105 -0.68719995 -0.56974393
-3.4151239 -0.72445303 -0.57079786
-3.6132123 -0.76647365 -0.57242954
-3.8232005 -0.81101865 -0.57247716
-4.0553899 -0.86027312 -0.57209265
-4.3279443 -0.91809034 -0.57311338
-4.6428242 -0.98488599 -0.57474506
-4.9893312 -1.0583909 -0.57467109
-5.3924551 -1.1439059 -0.57474923
-5.8754401 -1.2463619 -0.57580972
-6.4626913 -1.3709359 -0.57799298
-7.1784577 -1.5227721 -0.58059591
-8.0234776 -1.7020267 -0.58039057
-9.1443338 -1.939795 -0.5834341
-10.621826 -2.2532165 -0.5871523
-12.629311 -2.6790659 -0.59055513
-15.61041 -3.3114488 -0.59709692
-12.703297 -2.6947606 -0.37785265
-12.554247 -2.6631427 -0.26669118
-12.71146 -2.6964924 -0.16200361
-12.816025 -2.7186737 -0.054442905
-13.018212 -2.761564 0.055301808
-13.440653 -2.8511765 0.17129694
-13.78303 -2.923805 0.29279432
-13.950498 -2.9593303 0.41494998
-14.059759 -2.9825079 0.53778464
-14.127374 -2.9968512 0.66060555
-14.145536 -3.0007041 0.78193569
-14.143898 -3.0003564 0.90242022
-14.075067 -2.9857552 1.0181415
-14.043899 -2.9791434 1.1358749
-13.875258 -2.9433696 1.2409384
-13.832607 -2.9343224 1.3556346
-13.541516 -2.8725729 1.4433085
-13.21765 -2.8038709 1.5224088
-12.816317 -2.7187355 1.5865591
-12.725366 -2.6994421 1.6851134
-12.531478 -2.6583126 1.767812
-12.445376 -2.6400478 1.8635417
-2.0673246 -0.46517748 -0.56778729
-2.1384511 -0.48118192 -0.56783986
-2.2179596 -0.49907246 -0.56883264
-2.2910504 -0.5155189 -0.56688148
-2.3858404 -0.53684801 -0.56886917
-2.4725099 -0.55634987 -0.56737381
-2.5888867 -0.58253634 -0.57096177
-2.7030339 -0.60822105 -0.5720858
-2.8014719 -0.63037103 -0.56807894
-2.9238818 -0.657915 -0.56705987
-3.075006 -0.6919201 -0.56927752
-3.2390399 -0.72883004 -0.57119417
-3.3948436 -0.76388806 -0.56893516
-3.6029959 -0.81072533 -0.57234704
-3.7975879 -0.85451126 -0.57017219
-4.0488834 -0.9110564 -0.57271194
-4.324975 -0.97318089 -0.57426143
-4.6309309 -1.0420253 -0.57481551
-4.9897027 -1.1227541 -0.57626045
-5.3904996 -1.212939 -0.57608694
-5.8705339 -1.3209536 -0.57687712
-6.446229 -1.4504932 -0.57807219
-7.1410646 -1.6068411 -0.57912588
-8.0072346 -1.8017416 -0.58077431
-9.1318445 -2.054795 -0.58420515
-10.578941 -2.3804123 -0.58635545
-12.602129 -2.8356581 -0.5908699
-15.576552 -3.5049458 -0.59740525
-20.361776 -4.5816894 -0.60727984
-12.620048 -2.8396902 -0.26881045
-12.699804 -2.8576367 -0.16229062
-12.850799 -2.8916125 -0.054737534
-12.910185 -2.9049752 0.054990489
-13.098608 -2.9473729 0.16738692
-13.338153 -3.0012741 0.28410628
-13.546946 -3.0482554 0.40403089
-13.68558 -3.0794501 0.52488106
-13.746218 -3.0930946 0.64451224
-13.74073 -3.0918598 0.76160288
-13.734383 -3.0904315 0.87865019
-13.722417 -3.087739 0.99530333
-13.700169 -3.0827327 1.1110559
-13.554788 -3.05002 1.2155395
-13.400359 -3.0152712 1.316807
-13.173778 -2.9642873 1.4078919
-12.925783 -2.9084849 1.492798
-12.795009 -2.8790588 1.5881838
-12.705095 -2.8588271 1.6869569
-12.540648 -2.8218241 1.7738663
-12.536539 -2.8208995 1.8822438
-2.0615952 -0.490596 -0.56782758
-2.146054 -0.51069462 -0.57148302
-2.2132087 -0.52667534 -0.56923205
-2.2971497 -0.54665071 -0.57001072
-2.3820715 -0.56685948 -0.56958944
-2.4679601 -0.58729833 -0.56794399
-2.5695333 -0.61146957 -0.56830877
-2.684916 -0.6389271 -0.56987089
-2.8017154 -0.66672176 -0.56974763
-2.9216037 -0.69525146 -0.56823313
-3.0662498 -0.72967279 -0.56927454
-3.2340064 -0.76959366 -0.57193214
-3.4042938 -0.81011683 -0.5721451
-3.582963 -0.85263455 -0.57078707
-3.8023095 -0.90483224 -0.57250834
-4.0266314 -0.95821398 -0.57118785
-4.2860231 -1.0199412 -0.57071161
-4.6155863 -1.0983671 -0.57454389
-4.9695358 -1.1825961 -0.57556731
-5.3707151 -1.2780644 -0.57560855
-5.8361049 -1.3888127 -0.57512856
-6.4282074 -1.5297148 -0.57809913
-7.1233511 -1.6951376 -0.57933593
-7.9664454 -1.8957679 -0.57946283
-9.0799541 -2.1607487 -0.58254123
-10.564166 -2.5139453 -0.58720547
-12.560969 -2.9891229 -0.59061873
-15.511081 -3.6911583 -0.59658986
-20.302305 -4.8313217 -0.60723203
-12.726878 -3.028604 -0.27185866
-12.673841 -3.0159826 -0.16242047
-12.782405 -3.0418177 -0.054601405
-12.898499 -3.0694444 0.055097312
-12.966913 -3.0857251 0.16617632
-13.022443 -3.0989392 0.27817219
-13.157527 -3.1310852 0.3935352
-13.261784 -3.155895 0.51007706
-13.342708 -3.1751525 0.6273762
-13.386964 -3.1856842 0.74410969
-13.409363 -3.1910143 0.86030239
-13.374151 -3.1826351 0.97280818
-13.302087 -3.1654859 1.0818472
-13.197202 -3.1405265 1.1868459
-13.07041 -3.1103539 1.288045
-12.919499 -3.0744419 1.3846526
-12.84355 -3.0563684 1.4875288
-12.780389 -3.041338 1.5908908
-12.625301 -3.004432 1.6811402
-12.546565 -2.9856949 1.7797619
-2.0649881 -0.51831216 -0.57047439
-2.1146333 -0.5307731 -0.56481117
-2.2082598 -0.55427337 -0.56966913
-2.2654347 -0.56862426 -0.56383342
-2.3633473 -0.59320033 -0.56681347
-2.4567485 -0.61664408 -0.56706595
-2.5634034 -0.64341444 -0.5686599
-2.6713419 -0.67050701 -0.5686968
-2.7891109 -0.70006698 -0.568892
-2.9233754 -0.73376745 -0.57028949
-3.0597403 -0.767995 -0.56977618
-3.2220724 -0.80874038 -0.57153708
-3.3889809 -0.8506344 -0.57128626
-3.5701866 -0.89611709 -0.57046402
-3.7927325 -0.95197612 -0.57278562
-4.0342455 -1.0125958 -0.57399076
-4.2916059 -1.0771934 -0.57317537
-4.5971379 -1.1538819 -0.57397026
-4.9425535 -1.2405813 -0.57416564
-5.3434911 -1.3412166 -0.57441491
-5.8228531 -1.4615365 -0.5755502
-6.3994322 -1.6062579 -0.57724398
-7.1005826 -1.7822467 -0.5792228
-7.966156 -1.9995056 -0.58118623
-9.0683413 -2.2761543 -0.58354771
-10.514439 -2.6391249 -0.58620089
-12.530423 -3.1451368 -0.59095621
-15.477388 -3.8848255 -0.59708619
-20.231272 -5.0780506 -0.60692918
-29.241114 -7.3395219 -0.62649947
-12.750319 -3.2003307 -0.16389249
-12.720565 -3.1928627 -0.054500837
-12.807434 -3.2146668 0.054873027
-12.908474 -3.2400277 0.16592543
-12.947698 -3.2498729 0.27740824
-12.970448 -3.2555835 0.3891077
-13.014836 -3.2667248 0.50208592
-13.035992 -3.2720349 0.61479974
-13.046102 -3.2745721 0.72734612
-13.063827 -3.2790213 0.84065717
-13.05522 -3.276861 0.95246863
-13.029684 -3.2704515 1.0628831
-12.979329 -3.2578125 1.1707664
-12.920832 -3.2431295 1.277138
-12.894079 -3.2364149 1.3860886
-12.804873 -3.2140238 1.487514
-12.682707 -3.1833601 1.5834843
-12.632842 -3.1708441 1.6872085
-2.0483832 -0.54100192 -0.56768203
-2.1125429 -0.55794728 -0.56604248
-2.1977174 -0.58044285 -0.5687477
-2.2886317 -0.6044544 -0.57141346
-2.3574522 -0.62263072 -0.56719297
-2.452836 -0.64782268 -0.56795865
-2.5683243 -0.67832452 -0.57155865
-2.6530993 -0.70071453 -0.56660461
-2.7732401 -0.73244518 -0.56744897
-2.9036412 -0.76688564 -0.56823635
-3.0456328 -0.80438727 -0.56894809
-3.2040215 -0.84621954 -0.57013786
-3.3777351 -0.89209932 -0.57119656
-3.5637116 -0.9412179 -0.57123554
-3.7805569 -0.99848932 -0.57275772
-4.0037441 -1.0574358 -0.57145792
-4.2847986 -1.1316655 -0.57408136
-4.574861 -1.2082742 -0.57300055
-4.932373 -1.3026973 -0.57480037
-5.3227429 -1.4057987 -0.57399946
-5.8119006 -1.5349909 -0.57628971
-6.3671937 -1.6816503 -0.57615769
-7.0724068 -1.8679053 -0.57875425
-7.9355712 -2.0958772 -0.58079118
-9.0284786 -2.3845267 -0.5828253
-10.486104 -2.7695026 -0.58647549
-12.477567 -3.2954712 -0.59032995
-15.416303 -4.0716257 -0.59661597
-20.164814 -5.3257632 -0.6068542
-29.125429 -7.6923666 -0.62600017
-52.419804 -13.844683 -0.67594093
-12.756241 -3.3690722 0.054827038
-12.781583 -3.3757656 0.16481547
-12.858108 -3.3959765 0.27636251
-12.927518 -3.4143088 0.38904989
-12.965002 -3.4242086 0.50174981
-12.967113 -3.4247661 0.613491
-13.019933 -3.4387164 0.72818959
-12.984816 -3.4294417 0.8382231
-13.005831 -3.4349918 0.95187497
-12.952 -3.4207745 1.0598973
-12.899874 -3.4070075 1.16729
-12.846981 -3.3930378 1.2738661
-12.767725 -3.3721054 1.3768591
-12.684671 -3.3501701 1.4782244
-12.679945 -3.3489218 1.588161
-19.592196 -5.1745276 2.6249807
-2.0547245 -0.56979311 -0.57133794
-2.1270192 -0.58984107 -0.57182145
-2.1851497 -0.60596114 -0.56738073
-2.2669373 -0.62864155 -0.56788397
-2.3612664 -0.65479988 -0.57000476
-2.4575624 -0.68150365 -0.57095033
-2.5467367 -0.70623243 -0.56864417
-2.6674564 -0.73970902 -0.5715701
-2.7789316 -0.77062207 -0.57050937
-2.8972974 -0.80344594 -0.56888527
-3.0462983 -0.84476519 -0.5709697
-3.1803761 -0.88194615 -0.56781709
-3.3642292 -0.93293023 -0.57080942
-3.5681179 -0.98947036 -0.57384866
-3.7670014 -1.0446224 -0.5726068
-3.9886858 -1.1060976 -0.57120669
-4.2603998 -1.1814462 -0.57271552
-4.5713477 -1.2676748 -0.57446945
-4.917305 -1.3636118 -0.57495499
-5.3215284 -1.4757065 -0.57578176
-5.7926793 -1.6063608 -0.57629883
-6.3715625 -1.76689 -0.57847524
-7.0443187 -1.9534514 -0.57837766
-7.9107275 -2.1937141 -0.58090323
-8.9977036 -2.495142 -0.58277524
-10.43698 -2.8942661 -0.58567423
-12.433295 -3.4478617 -0.59019661
-15.371169 -4.2625599 -0.59685266
-20.097515 -5.5732174 -0.60684544
-29.030643 -8.0504522 -0.6260432
-52.212284 -14.478925 -0.67550975
-12.802412 -3.5502212 0.27608287
-12.80312 -3.5504172 0.38659081
-12.823157 -3.555974 0.49791497
-12.822386 -3.5557599 0.60866636
-12.862636 -3.5669217 0.72179061
-12.849861 -3.5633793 0.83227688
-12.824633 -3.5563831 0.94174284
-12.807312 -3.5515797 1.0515513
-12.763359 -3.5393913 1.1587876
-12.747608 -3.5350237 1.2682269
-12.793803 -3.5478339 1.3842713
-21.831604 -6.0540948 2.5526562
-21.08182 -5.8461738 2.649298
-19.932732 -5.5275211 2.6795099
-2.0378931 -0.59220386 -0.56863964
-2.1025608 -0.61099601 -0.56722301
-2.1894093 -0.63623393 -0.57047498
-2.2645516 -0.65806997 -0.56927043
-2.3537014 -0.68397653 -0.57016575
-2.4455681 -0.71067268 -0.57015085
-2.5429597 -0.73897433 -0.56978667
-2.6584272 -0.77252871 -0.57162768
-2.7734828 -0.80596346 -0.57138216
-2.8909314 -0.84009355 -0.56962061
-3.0270615 -0.87965238 -0.56934845
-3.1823177 -0.92476928 -0.57015085
-3.3503582 -0.97360122 -0.57044405
-3.5427678 -1.0295147 -0.57176447
-3.752984 -1.0906026 -0.57247132
-3.9800415 -1.1565847 -0.57196224
-4.2358489 -1.2309214 -0.57140666
-4.5475278 -1.3214941 -0.57347482
-4.8887796 -1.4206605 -0.57361889
-5.3126225 -1.5438275 -0.57682854
-5.7626095 -1.674592 -0.57531232
-6.3377676 -1.8417308 -0.57741952
-7.0132861 -2.038034 -0.57784367
-7.8663497 -2.2859309 -0.57966477
-8.9765091 -2.6085389 -0.58343589
-10.404313 -3.0234532 -0.58588308
-12.400873 -3.603646 -0.59071636
-15.310803 -4.4492602 -0.59658796
-20.020538 -5.8178911 -0.60663533
-28.92099 -8.4043283 -0.62585986
-51.992764 -15.108897 -0.67502224
-21.401035 -6.2190585 2.6988189
-20.238178 -5.8811369 2.7300856
-2.0189419 -0.61371559 -0.56541467
-2.0966856 -0.63734806 -0.56770945
-2.1749547 -0.66114014 -0.56878394
-2.2496493 -0.68384576 -0.56759518
-2.3483288 -0.71384221 -0.57094747
-2.4230797 -0.73656493 -0.56697667
-2.5297401 -0.76898742 -0.56890035
-2.6414037 -0.80293077 -0.57004702
-2.7709022 -0.84229559 -0.57294095
-2.8876357 -0.87778014 -0.57105482
-3.0336564 -0.92216736 -0.57267839
-3.1671829 -0.96275651 -0.56951725
-3.3247573 -1.0106559 -0.56815815
-3.5241492 -1.0712667 -0.57084239
-3.7268054 -1.13287 -0.57055986
-3.9787104 -1.2094437 -0.57386476
-4.2464862 -1.2908419 -0.57493937
-4.5227499 -1.3748201 -0.57243872
-4.8887181 -1.4860667 -0.5757122
-5.2729883 -1.6028769 -0.5746218
-5.7325177 -1.742564 -0.57440394
-6.3044376 -1.9164156 -0.57648623
-7.01372 -2.1320224 -0.57999563
-7.8574948 -2.3885119 -0.58113259
-8.941 -2.7178748 -0.58325607
-10.352816 -3.1470368 -0.58511806
-12.351485 -3.75459 -0.59051836
-15.249646 -4.6355696 -0.59638089
-19.933735 -6.059433 -0.60621703
-28.795303 -8.7531624 -0.62542188
-51.777725 -15.739332 -0.67469209
-21.703678 -6.5974588 2.7470071
-22.339558 -6.7907524 3.0245926
-2.0203676 -0.64138979 -0.56797975
-2.0979371 -0.66601515 -0.57022268
-2.1670506 -0.68795604 -0.56888616
-2.2414505 -0.71157521 -0.56769133
-2.3273866 -0.73885661 -0.56802177
-2.4319351 -0.7720468 -0.57122695
-2.5168135 -0.79899246 -0.56815982
-2.6376882 -0.83736557 -0.57142419
-2.7214923 -0.86397022 -0.5648784
-2.8762991 -0.9131155 -0.5709902
-3.0145416 -0.95700216 -0.57124823
-3.1557362 -1.001826 -0.56963104
-3.3242209 -1.0553136 -0.57024091
-3.5168471 -1.1164651 -0.57184017
-3.715843 -1.1796386 -0.57105911
-3.9557834 -1.2558106 -0.57274187
-4.2150078 -1.3381045 -0.57286185
-4.5283151 -1.4375676 -0.57533693
-4.85606 -1.5416142 -0.57405525
-5.2447791 -1.6650176 -0.57373542
-5.7221065 -1.816551 -0.57555538
-6.291924 -1.9974463 -0.57754427
-6.9767089 -2.2148395 -0.5791434
-7.8180985 -2.4819486 -0.58043218
-8.9022331 -2.8261201 -0.58295
-10.339791 -3.28249 -0.58661884
-12.294802 -3.9031315 -0.59005839
-15.194486 -4.8236704 -0.59649825
-19.857729 -6.3040729 -0.60621721
-28.664806 -9.0999842 -0.62497067
-51.525425 -16.357361 -0.67397445
-22.036098 -6.9956222 2.799757
-21.022322 -6.6737871 2.8571446
-2.010982 -0.66573703 -0.56759965
-2.0828183 -0.68951845 -0.56837487
-2.1541197 -0.71312284 -0.56775063
-2.232923 -0.73921072 -0.56779075
-2.3233781 -0.76915598 -0.56930876
-2.4190276 -0.80082083 -0.57046503
-2.502347 -0.82840377 -0.56715071
-2.6123078 -0.86480635 -0.56818658
-2.724833 -0.90205789 -0.56783116
-2.868068 -0.94947594 -0.57163066
-3.0005982 -0.99335015 -0.57087743
-3.1566854 -1.0450228 -0.57207865
-3.3067284 -1.0946947 -0.56950629
-3.4957316 -1.1572645 -0.57067746
-3.710063 -1.228219 -0.57244855
-3.9316828 -1.3015864 -0.57152653
-4.1910391 -1.3874464 -0.57187974
-4.4868455 -1.4853734 -0.5723455
-4.8133521 -1.5934637 -0.5712797
-5.2356591 -1.7332686 -0.5750258
-5.7017136 -1.8875563 -0.57579523
-6.2692108 -2.0754266 -0.57775825
-6.942338 -2.2982659 -0.57859236
-7.7826066 -2.5764375 -0.58010536
-8.8690939 -2.9361198 -0.58310008
-10.290413 -3.4066484 -0.58614963
-12.246179 -4.0541062 -0.59007269
-15.134645 -5.010335 -0.59652257
-19.785532 -6.550014 -0.60642606
-28.538624 -9.447731 -0.6247052
-51.295361 -16.981365 -0.67364556
-22.353886 -7.4002695 2.8514788
-21.499086 -7.1172881 2.9336145
-1.9964058 -0.68826205 -0.56583148
-2.0767589 -0.71596384 -0.56908077
-2.1327751 -0.73527545 -0.56446528
-2.2280316 -0.76811516 -0.56890565
-2.3114805 -0.79688424 -0.56875145
-2.4003756 -0.8275308 -0.56842309
-2.5023704 -0.86269361 -0.56951725
-2.6168125 -0.90214759 -0.571536
-2.7238641 -0.93905371 -0.56999254
-2.8494394 -0.98234588 -0.57028222
-2.9935188 -1.0320174 -0.57190168
-3.1529229 -1.086972 -0.57377565
-3.304975 -1.139392 -0.57157403
-3.4825938 -1.2006261 -0.57089967
-3.6881118 -1.2714787 -0.57143074
-3.922543 -1.352299 -0.57257181
-4.1810274 -1.4414116 -0.57288885
-4.4786615 -1.5440211 -0.57368004
-4.8064156 -1.6570145 -0.57283133
-5.218462 -1.7990677 -0.5755232
-5.6734066 -1.9559102 -0.57532197
-6.2333312 -2.1489444 -0.57684326
-6.9033666 -2.3799396 -0.57773978
-7.7516341 -2.6723804 -0.58020228
-8.8241463 -3.0421295 -0.5825603
-10.245031 -3.5319805 -0.58599424
-12.180671 -4.1992931 -0.58935976
-15.061812 -5.1925683 -0.59612352
-19.689304 -6.7878985 -0.60598916
-28.406012 -9.7929888 -0.62439114
-51.009766 -17.585646 -0.67268389
-22.697317 -7.824913 2.9073412
-1.9885144 -0.71301585 -0.56603706
-2.0569177 -0.73754299 -0.56608617
-2.1427045 -0.76830328 -0.56955051
-2.2078927 -0.79167765 -0.56620628
-2.29495 -0.82289356 -0.56713092
-2.3978026 -0.8597731 -0.57027423
-2.4909897 -0.89318693 -0.56938374
-2.5852311 -0.92697877 -0.56708497
-2.708746 -0.9712671 -0.56928504
-2.8350337 -1.0165498 -0.56985772
-2.9686954 -1.0644765 -0.56961691
-3.122452 -1.1196085 -0.57069278
-3.2747426 -1.174215 -0.56879967
-3.4694278 -1.2440226 -0.57120585
-3.6696417 -1.3158127 -0.57103276
-3.9156208 -1.4040127 -0.57403803
-4.1577716 -1.49084 -0.57217091
-4.452363 -1.5964708 -0.5727827
-4.801126 -1.7215258 -0.57468045
-5.1834812 -1.8586258 -0.57414246
-5.6563959 -2.0281973 -0.57608247
-6.2015014 -2.2236543 -0.57638454
-6.88061 -2.4671602 -0.57833046
-7.7202392 -2.7682238 -0.58035636
-8.7783737 -3.1476357 -0.58204967
-10.192538 -3.6547086 -0.58551794
-12.136683 -4.3518152 -0.58977604
-14.999748 -5.3784161 -0.59623957
-19.581602 -7.021318 -0.60528588
-28.287794 -10.143072 -0.62448692
-50.757793 -18.200075 -0.67226154
-23.052319 -8.2658024 2.9656091
-1.9898387 -0.74122685 -0.56896544
-2.0478961 -0.76285356 -0.5661422
-2.116632 -0.78845811 -0.56515461
-2.2041767 -0.821069 -0.56779957
-2.2958331 -0.8552115 -0.5699048
-2.3739097 -0.88429552 -0.56713498
-2.4738781 -0.92153436 -0.56801963
-2.585304 -0.96304119 -0.56965554
-2.6844859 -0.99998701 -0.56672782
-2.8269868 -1.0530695 -0.57079995
-2.962126 -1.1034096 -0.57091659
-3.0873895 -1.150071 -0.56682622
-3.2704861 -1.2182755 -0.57061917
-3.4575989 -1.2879763 -0.57182264
-3.6605265 -1.3635679 -0.57218021
-3.8807778 -1.445613 -0.57149279
-4.1375499 -1.5412621 -0.571953
-4.4354534 -1.6522329 -0.57317764
-4.7686172 -1.7763383 -0.57336038
-5.1566133 -1.9208692 -0.57373929
-5.6262422 -2.095809 -0.57559258
-6.1787829 -2.3016336 -0.57685983
-6.8365278 -2.5466475 -0.5772137
-7.6832891 -2.862071 -0.58018041
-8.7397499 -3.255609 -0.58209908
-10.133791 -3.7748976 -0.58476549
-12.077915 -4.4990959 -0.58956403
-14.905844 -5.552516 -0.59517586
-19.496166 -7.2624383 -0.60535961
-28.14255 -10.483268 -0.62407905
-50.487064 -18.806734 -0.67168796
-23.370632 -8.7056999 3.0201023
-1.9719718 -0.76231134 -0.56649411
-2.0457339 -0.79082584 -0.5681898
-2.1113594 -0.81619483 -0.56638366
-2.2071507 -0.85322517 -0.57122517
-2.2801926 -0.88146126 -0.56866992
-2.3740506 -0.91774422 -0.56982166
-2.4613965 -0.95150983 -0.5677973
-2.5773168 -0.9963215 -0.57055193
-2.6795857 -1.0358559 -0.56833941
-2.8176582 -1.089231 -0.57157755
-2.9422543 -1.1373966 -0.5697391
-3.0864606 -1.1931428 -0.56930625
-3.2609642 -1.2606012 -0.57161915
-3.4311883 -1.3264053 -0.57010913
-3.6454911 -1.4092491 -0.5724954
-3.8689716 -1.4956405 -0.57241923
-4.1239696 -1.5942159 -0.57274222
-4.413208 -1.7060277 -0.57297057
-4.7524405 -1.8371658 -0.57408816
-5.1480536 -1.9900992 -0.57546616
-5.601963 -2.1655686 -0.57578945
-6.1526999 -2.3784688 -0.5771116
-6.8150554 -2.6345174 -0.57809222
-7.6636457 -2.9625597 -0.58140397
-8.6937971 -3.3607886 -0.58174694
-10.092962 -3.9016683 -0.58513373
-12.021788 -4.6473007 -0.58956915
-14.848423 -5.7400017 -0.59565634
-19.383446 -7.4931197 -0.60467488
-27.981087 -10.816737 -0.62340093
-50.205341 -19.408037 -0.67106414
-23.700005 -9.1617861 3.0769918
-27.146662 -10.494171 4.5105538
-27.23019 -10.526461 4.7732196
-27.307037 -10.556168 5.036859
-27.3843 -10.586035 5.3027053
-1.9602274 -0.78560954 -0.56585258
-2.0302765 -0.81368351 -0.56663269
-2.0960858 -0.84005821 -0.56501478
-2.1755397 -0.87190133 -0.56577599
-2.2686832 -0.90923083 -0.56854486
-2.3602343 -0.94592214 -0.56925416
-2.4439745 -0.97948313 -0.5665139
-2.5575886 -1.0250168 -0.56893182
-2.6726732 -1.0711398 -0.56962383
-2.7901793 -1.1182333 -0.56874961
-2.9210162 -1.1706694 -0.56837112
-3.0702751 -1.2304885 -0.56906861
-3.22509 -1.2925345 -0.56807381
-3.4234927 -1.3720492 -0.57159048
-3.6270838 -1.4536434 -0.5723685
-3.8419726 -1.5397654 -0.57118279
-4.0956988 -1.6414526 -0.571576
-4.3874121 -1.7583637 -0.57238531
-4.7407079 -1.8999557 -0.57544959
-5.1213746 -2.0525174 -0.57526171
-5.5774527 -2.235302 -0.57605177
-6.1187453 -2.4522383 -0.57671148
-6.7812371 -2.7177482 -0.57801461
-7.595427 -3.044055 -0.57902449
-8.6612844 -3.4712236 -0.58238345
-10.044837 -4.0257163 -0.58516932
-11.947071 -4.7880836 -0.5887478
-14.768438 -5.9188166 -0.59532231
-19.297958 -7.7341337 -0.60492909
-27.829739 -11.153455 -0.62303746
-49.920433 -20.006847 -0.6704936
-24.08285 -9.6517963 3.1418679
-26.353077 -10.561646 3.6777081
-26.456842 -10.603232 3.933316
-26.569515 -10.64839 4.1927772
-26.615164 -10.666684 4.4436998
-1.9573412 -0.81252545 -0.56786066
-2.0234375 -0.83996308 -0.56756365
-2.0990722 -0.87136036 -0.56866497
-2.182689 -0.90607113 -0.57048965
-2.2634337 -0.93958956 -0.57008159
-2.3596756 -0.9795413 -0.57198131
-2.4509521 -1.0174317 -0.57098818
-2.5355763 -1.0525606 -0.56687146
-2.6561673 -1.10262 -0.56895262
-2.7974639 -1.1612746 -0.57310188
-2.9232633 -1.213496 -0.57166857
-3.0592816 -1.2699596 -0.56988233
-3.2251136 -1.3387992 -0.57093453
-3.4044597 -1.4132488 -0.571271
-3.5984094 -1.4937606 -0.57069892
-3.8386664 -1.5934954 -0.57356095
-4.0833025 -1.695048 -0.57271147
-4.3737516 -1.8156183 -0.57347244
-4.6982641 -1.9503289 -0.5731653
-5.090209 -2.1130319 -0.5746361
-5.546505 -2.302448 -0.57573605
-6.0934877 -2.52951 -0.57721889
-6.7536144 -2.8035395 -0.57855481
-7.5708389 -3.1427834 -0.58005226
-8.602253 -3.5709407 -0.58132279
-9.9872189 -4.1458635 -0.58473837
-11.903817 -4.9414759 -0.58956605
-14.690928 -6.098453 -0.59517574
-19.187948 -7.9652419 -0.60450512
-27.692032 -11.495431 -0.62307197
-49.619202 -20.597771 -0.66979891
-24.685392 -10.247324 3.2366705
-25.904284 -10.753306 3.6332552
-26.005194 -10.795196 3.8856108
-1.9450696 -0.83561409 -0.56723851
-2.0179973 -0.86694437 -0.56898493
-2.0740502 -0.89102501 -0.56481177
-2.164 -0.92966801 -0.56854975
-2.234045 -0.95975977 -0.56560928
-2.3162389 -0.99507082 -0.56437552
-2.4380481 -1.0474008 -0.57093924
-2.520077 -1.082641 -0.56633985
-2.6566827 -1.1413276 -0.57202595
-2.766427 -1.1884745 -0.5696944
-2.9070761 -1.2488981 -0.57146299
-3.0311203 -1.3021884 -0.56757629
-3.2112124 -1.3795571 -0.57143348
-3.3802814 -1.4521902 -0.57016712
-3.592227 -1.5432433 -0.57268476
-3.8029704 -1.6337801 -0.57118595
-4.0535374 -1.7414252 -0.57149684
-4.3486037 -1.8681875 -0.57314384
-4.673449 -2.0077431 -0.57310647
-5.0819478 -2.1832368 -0.57669055
-5.518827 -2.3709228 -0.57584566
-6.0663147 -2.606127 -0.57763684
-6.7011561 -2.878859 -0.57704991
-7.5253086 -3.2329199 -0.57956588
-8.5669947 -3.6804349 -0.58195448
-9.9465065 -4.2730818 -0.58538681
-11.827398 -5.0811248 -0.58883119
-14.614271 -6.2783828 -0.5951528
-19.092415 -8.2022219 -0.60462719
-27.531349 -11.827641 -0.62268192
-49.307217 -21.182692 -0.66905296
-1.9417249 -0.86261046 -0.56931347
-2.0069327 -0.89157903 -0.56891334
-2.0612338 -0.91570222 -0.56434524
-2.1557307 -0.95768243 -0.56942803
-2.2254171 -0.98864061 -0.56645989
-2.3325469 -1.0362331 -0.57141072
-2.4079406 -1.0697266 -0.56692618
-2.5280488 -1.1230845 -0.57119167
-2.6348078 -1.1705123 -0.57037187
-2.7439997 -1.2190207 -0.56811982
-2.8799498 -1.2794164 -0.56918019
-3.0228596 -1.3429041 -0.56907851
-3.1872103 -1.4159168 -0.57021743
-3.36573 -1.4952241 -0.57077074
-3.5673773 -1.584806 -0.5717867
-3.7792137 -1.6789141 -0.57067537
-4.0545273 -1.801222 -0.57471561
-4.3273616 -1.9224285 -0.57341641
-4.6606507 -2.0704923 -0.57461572
-5.0448375 -2.2411668 -0.57556307
-5.4788179 -2.4339626 -0.57475048
-6.0462327 -2.6860363 -0.57882589
-6.6588573 -2.9581945 -0.57649624
-7.4964652 -3.3303015 -0.58045447
-8.5164766 -3.7834413 -0.58163911
-9.879159 -4.3888121 -0.58455515
-11.766462 -5.2272458 -0.58895296
-14.537024 -6.4580665 -0.59519589
-18.982752 -8.4330797 -0.60439253
-27.358501 -12.154003 -0.62210572
-49.011913 -21.773521 -0.66862833
-1.9279149 -0.8850165 -0.56841213
-1.9899811 -0.91350818 -0.5672493
-2.0529635 -0.94242054 -0.565211
-2.135268 -0.98020267 -0.56716377
-2.2285759 -1.0230361 -0.57042289
-2.2981126 -1.0549572 -0.56611025
-2.3995476 -1.1015213 -0.56809616
-2.5231962 -1.1582826 -0.57326996
-2.6009192 -1.1939617 -0.56617123
-2.7331614 -1.254668 -0.56902707
-2.8556392 -1.3108917 -0.56751841
-3.0054824 -1.3796779 -0.56895798
-3.1623299 -1.4516793 -0.56891674
-3.3565834 -1.5408522 -0.57238948
-3.5256257 -1.6184516 -0.56824148
-3.7685542 -1.7299689 -0.57223475
-4.0194416 -1.8451396 -0.57291514
-4.3082905 -1.9777369 -0.57406849
-4.6356277 -2.1280022 -0.57471329
-5.0134864 -2.3014596 -0.57517147
-5.4561696 -2.5046751 -0.575562
-5.9974823 -2.7531667 -0.57735616
-6.6230993 -3.0403585 -0.57659358
-7.4453549 -3.4178178 -0.57970732
-8.4589252 -3.8831012 -0.5809257
-9.8271008 -4.5111675 -0.58471292
-11.70158 -5.371654 -0.58896703
-14.442953 -6.6300917 -0.59463739
-18.86438 -8.6597633 -0.60396844
-27.185148 -12.479444 -0.62160623
-48.677025 -22.345371 -0.66775775
-1.9076928 -0.90429586 -0.56568569
-1.9935988 -0.94501758 -0.57154977
-2.0438082 -0.96881813 -0.56592745
-2.1315427 -1.0104065 -0.56943136
-2.2046413 -1.0450572 -0.56754291
-2.2958732 -1.0883034 -0.56881219
-2.3921127 -1.1339235 -0.56959403
-2.4822168 -1.1766351 -0.56720382
-2.5928061 -1.2290574 -0.56765205
-2.6990488 -1.2794191 -0.56515759
-2.8557222 -1.3536863 -0.57079977
-2.987453 -1.4161303 -0.56879836
-3.1681416 -1.5017813 -0.57324117
-3.3245218 -1.5759096 -0.57018352
-3.5169823 -1.6671408 -0.57010937
-3.7510846 -1.7781115 -0.57285881
-3.9915152 -1.8920817 -0.57220757
-4.2737126 -2.0258508 -0.57273704
-4.5925236 -2.1769753 -0.57264483
-4.9707122 -2.3562465 -0.57354486
-5.43261 -2.5751982 -0.57637352
-5.9691725 -2.8295426 -0.57793665
-6.5958986 -3.1266272 -0.57752895
-7.4030099 -3.5092187 -0.57972622
-8.418746 -3.9907038 -0.58149236
-9.7675381 -4.6300664 -0.58451223
-11.633372 -5.5145202 -0.58890241
-14.350641 -6.8025761 -0.59423572
-18.748718 -8.8873796 -0.60371858
-27.023443 -12.809813 -0.62146348
-48.330368 -22.909849 -0.66681635
-1.9123859 -0.93548894 -0.57044524
-1.9633304 -0.9604097 -0.56621498
-2.0347996 -0.99537045 -0.5667792
-2.0958278 -1.0252239 -0.56321555
-2.1905332 -1.0715512 -0.56726009
-2.2840874 -1.1173155 -0.56925309
-2.3735859 -1.161096 -0.5685392
-2.488539 -1.217328 -0.57202572
-2.5972068 -1.2704854 -0.57199258
-2.6993887 -1.32047 -0.56858575
-2.8417323 -1.3901007 -0.57137692
-2.9858811 -1.4606147 -0.57187545
-3.1375666 -1.5348151 -0.57108057
-3.3074639 -1.6179245 -0.57062685
-3.4969089 -1.710596 -0.57022202
-3.7321432 -1.8256664 -0.57335114
-3.9604485 -1.9373474 -0.57112592
-4.2508211 -2.07939 -0.57305253
-4.5703769 -2.2357082 -0.57326788
-4.9394903 -2.4162688 -0.57332724
-5.3929029 -2.6380665 -0.5755589
-5.9236135 -2.897676 -0.57693177
-6.54632 -3.2022879 -0.57659209
-7.3629565 -3.6017652 -0.58001411
-8.3758383 -4.09724 -0.58196461
-9.7041626 -4.7470217 -0.58416867
-11.556112 -5.6529465 -0.58846569
-14.265159 -6.9781408 -0.59420425
-18.635307 -9.1159029 -0.60363054
-26.839586 -13.129221 -0.62090105
-48.009388 -23.484932 -0.66632175
-1.8910227 -0.9540301 -0.5675292
-1.9650011 -0.99135262 -0.57016927
-2.0250871 -1.0216663 -0.56753027
-2.107306 -1.0631461 -0.56977016
-2.1849935 -1.1023399 -0.56929272
-2.2664201 -1.14342 -0.5683111
-2.3615944 -1.1914359 -0.56913304
-2.4576616 -1.2399023 -0.56838977
-2.5679951 -1.295566 -0.56902462
-2.6751113 -1.3496066 -0.56692481
-2.8173871 -1.4213855 -0.56995308
-2.9473944 -1.4869748 -0.56796324
-3.1159222 -1.5719979 -0.57061625
-3.2800405 -1.6547964 -0.56936318
-3.4773681 -1.7543491 -0.57051015
-3.7007372 -1.8670399 -0.57201004
-3.9341447 -1.9847951 -0.57080907
-4.2323308 -2.1352315 -0.57405603
-4.5410295 -2.2909715 -0.57307702
-4.9169116 -2.4806058 -0.57420355
-5.3511391 -2.6996756 -0.57460105
-5.8675852 -2.9602253 -0.57497668
-6.5290647 -3.2939448 -0.57859606
-7.3304954 -3.6982706 -0.58099538
-8.3211203 -4.1980453 -0.58170545
-9.6539717 -4.8704758 -0.58470833
-11.484609 -5.7940412 -0.58840811
-14.170045 -7.1488566 -0.59385908
-18.513021 -9.3399096 -0.60334402
-26.665377 -13.452812 -0.62065083
-47.667435 -24.048452 -0.66562963
-1.8826089 -0.9790082 -0.56857401
-1.9532979 -1.0157684 -0.57035458
-2.0119205 -1.0462538 -0.56740296
-2.0796201 -1.0814595 -0.56583726
-2.1762364 -1.1317025 -0.57059371
-2.2573557 -1.1738868 -0.56961465
-2.3530076 -1.2236284 -0.57064664
-2.4425914 -1.2702144 -0.5684737
-2.5535941 -1.3279389 -0.56940883
-2.6643972 -1.3855596 -0.56822193
-2.807152 -1.459796 -0.57147068
-2.9461379 -1.5320724 -0.5713082
-3.0935912 -1.6087521 -0.57010633
-3.2687414 -1.6998351 -0.57098693
-3.4586651 -1.7986007 -0.57102704
-3.6825504 -1.915027 -0.57279545
-3.9090114 -2.032793 -0.570746
-4.199964 -2.1840963 -0.57326531
-4.515161 -2.3480074 -0.57341278
-4.8955507 -2.5458205 -0.57532132
-5.3263712 -2.7698591 -0.57555532
-5.8285084 -3.0309839 -0.57475621
-6.4908805 -3.3754356 -0.57884669
-7.2763624 -3.7839079 -0.58034885
-8.2631941 -4.2970872 -0.58130592
-9.5795498 -4.9816284 -0.58386683
-11.410837 -5.933948 -0.5883224
-14.076256 -7.3200388 -0.59365588
-18.398972 -9.5679693 -0.60341573
-26.487675 -13.774317 -0.62041014
-47.300316 -24.59746 -0.66467649
-1.8451973 -0.9885639 -0.56090403
-1.9389436 -1.0387884 -0.56984991
-2.0034909 -1.0733696 -0.5687049
-2.0878479 -1.118564 -0.57177508
-2.1583021 -1.1563097 -0.56957638
-2.2363119 -1.1981034 -0.5679791
-2.3292379 -1.2478886 -0.56856042
-2.4306703 -1.302231 -0.56938297
-2.5269628 -1.3538196 -0.56713963
-2.6607547 -1.4254986 -0.57114017
-2.7783704 -1.4885111 -0.56929451
-2.9212551 -1.5650616 -0.57017177
-3.0774038 -1.6487182 -0.57081616
-3.2508082 -1.7416196 -0.5715521
-3.4278955 -1.8364941 -0.56963223
-3.6485023 -1.954684 -0.57119489
-3.9040928 -2.0916166 -0.57373971
-4.1617317 -2.2296464 -0.57174581
-4.4820395 -2.4012513 -0.57291287
-4.8466072 -2.5965683 -0.57327843
-5.2858405 -2.8318875 -0.57489502
-5.8054852 -3.1102872 -0.57621378
-6.4346695 -3.4473724 -0.5775705
-7.1986012 -3.8566487 -0.57788545
-8.2018795 -4.394155 -0.58074975
-9.5129671 -5.0965695 -0.58358413
-11.327247 -6.0685692 -0.58781558
-13.977593 -7.488492 -0.59333348
-18.263206 -9.7845078 -0.60286349
-26.299498 -14.089949 -0.62001377
-46.935722 -25.1458 -0.66384798
-1.8446441 -1.0176543 -0.56449705
-1.913344 -1.0555547 -0.56609809
-1.9994341 -1.1030489 -0.57136029
-2.0621936 -1.1376722 -0.56853759
-2.1391547 -1.18013 -0.56830996
-2.2238767 -1.2268696 -0.56860942
-2.3061492 -1.2722577 -0.5667004
-2.4022067 -1.3252507 -0.56648988
-2.521106 -1.3908452 -0.56962049
-2.6272395 -1.449397 -0.56772876
-2.7701399 -1.5282325 -0.57141542
-2.9053154 -1.6028061 -0.57086426
-3.0528595 -1.6842033 -0.5700618
-3.2271981 -1.7803825 -0.57120693
-3.4224775 -1.8881143 -0.57254672
-3.6208477 -1.9975513 -0.57066774
-3.8621199 -2.1306565 -0.57137853
-4.1424823 -2.2853272 -0.57291865
-4.450222 -2.455101 -0.57266152
-4.822854 -2.6606748 -0.57429528
-5.2525234 -2.8977151 -0.57510328
-5.750639 -3.1725159 -0.57459861
-6.3860931 -3.5230834 -0.57705522
-7.1627011 -3.9515231 -0.57886034
-8.1640949 -4.5039725 -0.58195186
-9.4524641 -5.2147408 -0.58376211
-11.247784 -6.205184 -0.58760709
-13.886043 -7.6606598 -0.59340101
-18.131987 -10.003064 -0.60254663
-26.110275 -14.404531 -0.61968178
-46.583328 -25.699118 -0.66328323
-1.8494501 -1.0501715 -0.56987643
-1.8990456 -1.0783333 -0.56574804
-1.9763426 -1.1222247 -0.56866199
-2.0320938 -1.1538818 -0.56410825
-2.13082 -1.2099415 -0.5700053
-2.2057233 -1.2524737 -0.56786275
-2.2925727 -1.3017894 -0.5672549
-2.3865826 -1.3551708 -0.56669217
-2.5012462 -1.4202802 -0.56903625
-2.6234882 -1.4896927 -0.57083333
-2.7464113 -1.559492 -0.5704332
-2.8830814 -1.6370974 -0.57040787
-3.0276418 -1.719183 -0.56925732
-3.2022662 -1.8183397 -0.57070833
-3.3821378 -1.9204761 -0.56970578
-3.603971 -2.0464394 -0.57193065
-3.8335624 -2.1768081 -0.57107049
-4.1062021 -2.3316207 -0.57182294
-4.4129171 -2.5057824 -0.57178277
-4.790226 -2.7200296 -0.57434934
-5.2061067 -2.9561787 -0.57395774
-5.7310328 -3.2542467 -0.57659429
-6.3421135 -3.6012361 -0.57703894
-7.119031 -4.0423927 -0.57930446
-8.0920534 -4.594903 -0.58080018
-9.3854828 -5.3293495 -0.58362848
-11.175641 -6.3458533 -0.5878703
-13.78936 -7.829999 -0.59333903
-17.998585 -10.220119 -0.60224426
-25.908585 -14.711647 -0.61914158
-46.195 -26.230862 -0.66229653
-1.8271322 -1.0674191 -0.5670011
-1.8931881 -1.1060092 -0.56801164
-1.961112 -1.1456907 -0.56829023
-2.0250185 -1.1830251 -0.56613964
-2.1237159 -1.2406845 -0.57214266
-2.1916358 -1.2803637 -0.56824625
-2.2832959 -1.3339119 -0.56897497
-2.3840058 -1.392747 -0.57010376
-2.4880593 -1.4535357 -0.57005936
-2.5958376 -1.5165002 -0.56883138
-2.7218127 -1.5900955 -0.56934214
-2.8564436 -1.6687474 -0.56915438
-3.0205173 -1.7646 -0.57195425
-3.1819675 -1.8589201 -0.57112134
-3.3640668 -1.9653033 -0.57068938
-3.5683222 -2.0846303 -0.57029814
-3.7945669 -2.2168036 -0.56927907
-4.0798378 -2.38346 -0.57218969
-4.3918872 -2.5657606 -0.57310253
-4.7609396 -2.7813625 -0.57489508
-5.182848 -3.0278437 -0.57545471
-5.6847038 -3.3210299 -0.57599819
-6.2992992 -3.6800797 -0.5772171
-7.0575614 -4.1230597 -0.57838428
-8.0394831 -4.696703 -0.58112818
-9.3190212 -5.4442148 -0.58361441
-11.080957 -6.473546 -0.58703256
-13.676804 -7.9900513 -0.59267861
-17.85956 -10.433637 -0.60183978
-25.71027 -15.020058 -0.61876923
-45.815956 -26.765892 -0.66153085
-1.8224225 -1.0949427 -0.56967467
-1.8767184 -1.1275645 -0.56718731
-1.9399738 -1.1655694 -0.56627524
-2.0218925 -1.2147877 -0.56939882
-2.1005971 -1.2620747 -0.57005215
-2.1853611 -1.3130023 -0.57076234
-2.2795615 -1.3695996 -0.57219779
-2.3544326 -1.4145834 -0.56714851
-2.4596214 -1.4777827 -0.56766427
-2.5742426 -1.546649 -0.56822383
-2.7155812 -1.6315677 -0.57219195
-2.8211694 -1.6950068 -0.56623602
-2.986306 -1.7942238 -0.56961077
-3.1570892 -1.8968333 -0.57079929
-3.3424082 -2.0081761 -0.57116103
-3.5589302 -2.1382661 -0.57295597
-3.7888296 -2.2763937 -0.5725745
-4.0418591 -2.4284182 -0.57100803
-4.36554 -2.6228912 -0.57382965
-4.7227139 -2.8374875 -0.57444906
-5.1358933 -3.0857327 -0.5744108
-5.6449628 -3.3915904 -0.57615364
-6.252367 -3.7565291 -0.57710564
-7.0202389 -4.2178798 -0.57953227
-7.9815078 -4.7954264 -0.58115596
-9.2545433 -5.560288 -0.58381414
-11.003498 -6.6110902 -0.58719128
-13.570158 -8.153183 -0.59235692
-17.722712 -10.648108 -0.60159498
-25.494265 -15.31739 -0.61805695
-45.442268 -27.302492 -0.66093272
-1.8045683 -1.1146402 -0.56833506
-1.8601886 -1.1489956 -0.56641877
-1.921293 -1.1867384 -0.56503922
-1.9956715 -1.2326803 -0.56624037
-2.0742319 -1.2812052 -0.56712973
-2.1626348 -1.3358096 -0.56907374
-2.2461708 -1.3874079 -0.56805569
-2.3335848 -1.4414015 -0.56635326
-2.4566011 -1.5173858 -0.57123023
-2.5680668 -1.5862358 -0.57112288
-2.6813262 -1.6561934 -0.56922227
-2.8132055 -1.7376522 -0.56888312
-2.9650428 -1.8314385 -0.56980747
-3.1256573 -1.9306464 -0.56936556
-3.3067868 -2.042526 -0.56932276
-3.5154393 -2.1714058 -0.5702098
-3.7515447 -2.3172426 -0.57120281
-4.016283 -2.4807656 -0.57166111
-4.3266177 -2.6724522 -0.57298976
-4.6762648 -2.8884208 -0.57307601
-5.1081796 -3.155205 -0.575607
-5.5990243 -3.4583881 -0.57576174
-6.2127018 -3.8374426 -0.57775629
-6.9567699 -4.2970362 -0.57861096
-7.9205279 -4.8923273 -0.58105218
-9.1831236 -5.6722035 -0.58366454
-10.912794 -6.7405815 -0.58672971
-13.465423 -8.3172817 -0.59220469
-17.594206 -10.867536 -0.60172355
-25.290924 -15.621621 -0.61773753
-45.020908 -27.808378 -0.65972781
-1.7912091 -1.1370503 -0.56848812
-1.8529736 -1.1762581 -0.56858301
-1.9125501 -1.2140769 -0.56681561
-1.9920303 -1.2645305 -0.56957603
-2.0524762 -1.3029013 -0.56551903
-2.1519482 -1.3660457 -0.57063866
-2.2298276 -1.4154831 -0.56828141
-2.3240018 -1.4752643 -0.56838715
-2.4351785 -1.5458387 -0.57062572
-2.5415404 -1.6133568 -0.56959254
-2.6564572 -1.6863053 -0.5683018
-2.7903266 -1.7712849 -0.56861806
-2.9411156 -1.8670051 -0.56957811
-3.1047571 -1.9708838 -0.56992996
-3.2864058 -2.0861936 -0.57018733
-3.4838357 -2.2115209 -0.56945151
-3.7193801 -2.3610432 -0.57068276
-3.9790089 -2.5258543 -0.57073331
-4.2933545 -2.7253995 -0.57297951
-4.6502051 -2.9519262 -0.57428735
-5.0649815 -3.2152243 -0.57515085
-5.5555091 -3.5266085 -0.57570279
-6.1632819 -3.9124196 -0.5775907
-6.9060493 -4.3839245 -0.57883221
-7.8413711 -4.9776616 -0.57969159
-9.1065416 -5.7807856 -0.58327097
-10.832343 -6.8763151 -0.5869059
-13.361317 -8.4816952 -0.59216821
-17.428715 -11.063658 -0.60067105
-25.074226 -15.91699 -0.61717856
-44.618649 -28.323687 -0.65888697
-1.7693303 -1.1539255 -0.56600487
-1.8518517 -1.2077445 -0.57275248
-1.9022217 -1.2405949 -0.56823272
-1.9664083 -1.2824562 -0.56671607
-2.0517123 -1.3380901 -0.56979907
-2.1306107 -1.389546 -0.56946832
-2.2212899 -1.4486854 -0.57060224
-2.3067434 -1.5044167 -0.56864762
-2.4087355 -1.5709341 -0.56891286
-2.5215235 -1.6444925 -0.56959528
-2.64323 -1.7238673 -0.56996387
-2.7726097 -1.8082464 -0.56949574
-2.9132006 -1.8999373 -0.56865346
-3.0833743 -2.0109215 -0.57050067
-3.2642114 -2.1288602 -0.57083523
-3.4576147 -2.2549944 -0.56965488
-3.6882713 -2.4054244 -0.57040477
-3.9569631 -2.5806603 -0.57207954
-4.2599969 -2.7782934 -0.57304364
-4.6039472 -3.0026116 -0.57309097
-5.0213041 -3.2748046 -0.57472026
-5.512248 -3.5949893 -0.57575715
-6.1153669 -3.9883325 -0.57765263
-6.8576698 -4.4724493 -0.5793429
-7.8014145 -5.0879426 -0.58131897
-9.0227051 -5.8844466 -0.58249176
-10.744 -7.0070448 -0.58674341
-13.25386 -8.6439295 -0.59207171
-17.290985 -11.276871 -0.60065788
-24.859823 -16.213131 -0.6167618
-44.205799 -28.830231 -0.65797579
-1.7616491 -1.1800414 -0.56814653
-1.8214685 -1.2201114 -0.56795269
-1.8959266 -1.2699872 -0.57097399
-1.9614726 -1.3138933 -0.56990677
-2.0324004 -1.3614043 -0.56904185
-2.1000028 -1.4066877 -0.5658679
-2.1940532 -1.4696875 -0.56820512
-2.2867129 -1.5317557 -0.56831002
-2.3831074 -1.5963255 -0.56745309
-2.4959576 -1.6719184 -0.56842124
-2.6178546 -1.753571 -0.56909871
-2.7536054 -1.8445036 -0.57020777
-2.8895795 -1.9355862 -0.5686456
-3.0520654 -2.0444274 -0.56931615
-3.2382481 -2.169142 -0.57091618
-3.4359248 -2.3015559 -0.57070094
-3.6520712 -2.4463415 -0.56941545
-3.9287376 -2.6316667 -0.57263404
-4.2230868 -2.8288364 -0.57271445
-4.553266 -3.0500071 -0.57140756
-4.987802 -3.3410814 -0.57554448
-5.465157 -3.6608379 -0.57549685
-6.0647058 -4.0624461 -0.57754219
-6.7913127 -4.5491638 -0.57841903
-7.7285237 -5.1769547 -0.58058709
-8.9508572 -5.9957352 -0.58256894
-10.648744 -7.1330657 -0.58628702
-13.145332 -8.8054066 -0.59201574
-17.144638 -11.484344 -0.6004343
-24.637333 -16.503328 -0.61622995
-43.782932 -29.328016 -0.65699977
-1.7524478 -1.2053552 -0.56991607
-1.8144927 -1.2480303 -0.57051957
-1.8805919 -1.2934941 -0.57110268
-1.9394307 -1.3339642 -0.56822544
-2.0038395 -1.3782655 -0.56574762
-2.0960727 -1.4417046 -0.56954283
-2.1767113 -1.4971689 -0.56843871
-2.2668569 -1.5591719 -0.56809711
-2.3619962 -1.6246099 -0.56714016
-2.4810874 -1.7065223 -0.56977051
-2.5937636 -1.7840225 -0.56858748
-2.7348051 -1.8810326 -0.57106125
-2.8748701 -1.977371 -0.57049268
-3.0183971 -2.0760906 -0.56775486
-3.2121642 -2.2093658 -0.571064
-3.4236028 -2.3547962 -0.57342041
-3.6307921 -2.4973032 -0.57084244
-3.8796446 -2.6684673 -0.57021803
-4.1781101 -2.8737557 -0.57136405
-4.5308003 -3.1163402 -0.57335389
-4.9375873 -3.3961332 -0.57452554
-5.4197016 -3.7277374 -0.57549363
-6.0079589 -4.1323481 -0.5769335
-6.7291827 -4.6284142 -0.57793099
-7.6590729 -5.2680044 -0.58019221
-8.869462 -6.1005249 -0.58210975
-10.557091 -7.2612967 -0.58611256
-13.030732 -8.962698 -0.59177327
-16.986811 -11.683737 -0.59989303
-24.412764 -16.791399 -0.61573082
-43.363853 -29.826191 -0.656165
-1.7343932 -1.2246213 -0.56889868
-1.7953111 -1.2676342 -0.56934643
-1.8606342 -1.3137575 -0.56990469
-1.9220178 -1.3570994 -0.56796998
-1.9909202 -1.40575 -0.56693757
-2.0651815 -1.4581844 -0.56597835
-2.1619461 -1.5265081 -0.56944168
-2.2440324 -1.5844676 -0.56721693
-2.3493073 -1.6588001 -0.56894803
-2.4657729 -1.7410343 -0.57112682
-2.5694511 -1.8142395 -0.56810534
-2.7032242 -1.908694 -0.56932455
-2.8377123 -2.0036533 -0.56796521
-3.0030916 -2.1204245 -0.56973732
-3.1744668 -2.2414293 -0.56921905
-3.3821716 -2.3880856 -0.57135624
-3.5985322 -2.5408535 -0.57063949
-3.8597643 -2.7253046 -0.57217824
-4.1481576 -2.9289334 -0.57214987
-4.4926186 -3.1721506 -0.57341486
-4.8927393 -3.454668 -0.57420659
-5.3710656 -3.7924047 -0.57523745
-5.9489088 -4.2004085 -0.57617933
-6.6672311 -4.707602 -0.57753825
-7.5944371 -5.3622842 -0.58024693
-8.7919464 -6.2078223 -0.58198816
-10.475241 -7.3963637 -0.58657336
-12.906094 -9.1127415 -0.59115708
-16.827148 -11.881322 -0.59936875
-24.179333 -17.072557 -0.61509168
-42.936501 -30.316628 -0.65528983
-1.7198368 -1.2463121 -0.56910789
-1.7700984 -1.2827351 -0.56631011
-1.8288348 -1.3252995 -0.56511348
-1.9002169 -1.3770279 -0.56648856
-1.9706981 -1.4281034 -0.56613684
-2.0457671 -1.4825037 -0.56561089
-2.141871 -1.552147 -0.56913805
-2.2271857 -1.6139721 -0.56793213
-2.3227119 -1.6831968 -0.56747675
-2.4435585 -1.7707705 -0.57098168
-2.5372593 -1.8386728 -0.56594384
-2.6791553 -1.9415003 -0.56924039
-2.8220224 -2.0450318 -0.56981498
-2.9691327 -2.1516378 -0.56827116
-3.1498766 -2.2826173 -0.56979954
-3.3466935 -2.4252443 -0.57035762
-3.563854 -2.5826137 -0.57013315
-3.82059 -2.7686625 -0.57137465
-4.1126466 -2.9803069 -0.57226336
-4.449614 -3.2244964 -0.57294333
-4.8559389 -3.5189476 -0.5749225
-5.3235688 -3.8578243 -0.57518768
-5.9031892 -4.2778568 -0.57680237
-6.6222486 -4.7989368 -0.5787096
-7.5141506 -5.4452705 -0.57918477
-8.7164316 -6.3165259 -0.58208686
-10.362107 -7.5090961 -0.58536452
-12.784147 -9.2642727 -0.59074467
-16.675434 -12.084167 -0.59921229
-23.956463 -17.360502 -0.61480618
-42.495739 -30.795336 -0.65429276
-1.6967717 -1.2617047 -0.56656647
-1.7673569 -1.3141912 -0.57055992
-1.8225739 -1.3552501 -0.56828541
-1.8830912 -1.4002503 -0.56647331
-1.9550359 -1.4537477 -0.56673002
-2.0337663 -1.512291 -0.5673914
-2.1250167 -1.5801439 -0.56977952
-2.2026041 -1.6378373 -0.56675661
-2.3200805 -1.7251916 -0.5719735
-2.4222262 -1.8011464 -0.57112908
-2.5360131 -1.8857573 -0.57079488
-2.6485879 -1.969467 -0.56784832
-2.7896442 -2.0743551 -0.56838459
-2.9508104 -2.1941969 -0.56988531
-3.1329379 -2.3296256 -0.5718742
-3.3195112 -2.4683597 -0.57085466
-3.5395877 -2.6320066 -0.57138544
-3.7964332 -2.8229949 -0.57291001
-4.0748591 -3.03003 -0.57214653
-4.4165039 -3.2840741 -0.57383645
-4.8011403 -3.5700862 -0.57358867
-5.2728086 -3.9208145 -0.57486886
-5.8448811 -4.3462029 -0.57628345
-6.5415926 -4.8642716 -0.57684457
-7.4466352 -5.5372534 -0.57918513
-8.6300297 -6.4172149 -0.58154255
-10.278546 -7.6430378 -0.58590895
-12.681146 -9.4295902 -0.59129834
-16.529352 -12.291082 -0.5993486
-23.713848 -17.633411 -0.61409795
-42.055149 -31.271845 -0.65338033
-1.6893781 -1.2887642 -0.56934619
-1.7435868 -1.3301179 -0.5681234
-1.8059659 -1.3777046 -0.5683462
-1.8675836 -1.4247106 -0.5670355
-1.9414549 -1.4810642 -0.56802946
-2.0174792 -1.5390605 -0.56808442
-2.1065431 -1.6070039 -0.57008147
-2.189029 -1.6699293 -0.56850427
-2.2898815 -1.7468661 -0.56978101
-2.3997099 -1.8306501 -0.57108456
-2.4996698 -1.9069057 -0.56784958
-2.6286287 -2.0052838 -0.56881267
-2.7781684 -2.1193621 -0.57131308
-2.9193361 -2.2270536 -0.56905252
-3.0868545 -2.3548472 -0.56870484
-3.2926168 -2.5118158 -0.57149798
-3.5091379 -2.6769917 -0.57174063
-3.7549379 -2.8645034 -0.57192028
-4.0422258 -3.0836649 -0.57284528
-4.3772135 -3.3392143 -0.57402301
-4.7713656 -3.6398988 -0.57533526
-5.2200089 -3.9821517 -0.57440752
-5.7899213 -4.4169168 -0.57617605
-6.4888749 -4.9501228 -0.57751971
-7.3791418 -5.6292748 -0.57927567
-8.5511103 -6.5233264 -0.58158588
-10.164313 -7.7539792 -0.58478814
-12.537298 -9.5642414 -0.59003013
-16.361641 -12.481692 -0.59878737
-23.469448 -17.903976 -0.61342376
-41.606079 -31.73974 -0.65241772
-1.6650523 -1.3029031 -0.56650448
-1.7249498 -1.3497729 -0.56741595
-1.7890993 -1.3999698 -0.56841278
-1.8454093 -1.4440323 -0.56565136
-1.9070386 -1.4922572 -0.56328601
-2.0006657 -1.5655205 -0.56872755
-2.0805943 -1.6280645 -0.56843382
-2.1639595 -1.6932979 -0.5673582
-2.2563491 -1.7655926 -0.56679654
-2.3707933 -1.8551453 -0.56958866
-2.4894757 -1.9480143 -0.57093221
-2.608598 -2.0412273 -0.56986654
-2.7422507 -2.1458106 -0.56930989
-2.8974721 -2.2672713 -0.57018197
-3.0628674 -2.396693 -0.56967211
-3.2689865 -2.5579813 -0.57281262
-3.4945352 -2.734473 -0.57479632
-3.728471 -2.9175277 -0.57330996
-3.9887452 -3.1211922 -0.57066208
-4.336174 -3.3930554 -0.5740692
-4.7245841 -3.696986 -0.57513237
-5.1758051 -4.0500665 -0.57498008
-5.7278633 -4.4820518 -0.57544148
-6.430613 -5.0319533 -0.57779765
-7.3092427 -5.719481 -0.57926565
-8.4826002 -6.6376333 -0.5824334
-10.072909 -7.8820496 -0.58506131
-12.416437 -9.7158594 -0.5899201
-16.197227 -12.674327 -0.59842867
-23.242659 -18.187376 -0.61329508
-41.141426 -32.193157 -0.65128976
-1.6458385 -1.3208151 -0.56545043
-1.7101363 -1.3724153 -0.5680514
-1.7640458 -1.4156786 -0.56594092
-1.8326607 -1.4707433 -0.56724417
-1.8992141 -1.5241537 -0.56646788
-1.9742392 -1.5843627 -0.56671065
-2.0577605 -1.6513901 -0.56770039
-2.1486857 -1.724359 -0.56886983
-2.2488992 -1.8047823 -0.5704568
-2.3440485 -1.8811413 -0.56867754
-2.4555211 -1.9706001 -0.56865931
-2.5881555 -2.0770416 -0.57093704
-2.7176406 -2.1809559 -0.56972522
-2.8572903 -2.2930269 -0.56778044
-3.0328197 -2.4338927 -0.56960684
-3.2190192 -2.5833211 -0.5695802
-3.4405742 -2.7611229 -0.57146198
-3.6691296 -2.9445429 -0.56970966
-3.9533572 -3.1726406 -0.57113737
-4.2918162 -3.4442601 -0.57376027
-4.6738639 -3.7508605 -0.57452929
-5.1253734 -4.113205 -0.57495284
-5.6823936 -4.5602236 -0.57646334
-6.3518424 -5.0974684 -0.57630837
-7.2342558 -5.8056211 -0.57893676
-8.3877363 -6.7313099 -0.58155912
-9.977953 -8.0074873 -0.58522081
-12.296842 -9.8684378 -0.58995873
-16.030725 -12.864947 -0.59807652
-22.993114 -18.452389 -0.61265123
-40.692455 -32.656433 -0.65049005
-1.6330609 -1.3439037 -0.56669521
-1.6939024 -1.3939723 -0.56830972
-1.7565951 -1.4455644 -0.56921023
-1.809877 -1.489412 -0.56581813
-1.8759738 -1.5438052 -0.56515545
-1.9679033 -1.6194572 -0.57056504
-2.0334015 -1.6733581 -0.56661403
-2.1228001 -1.7469273 -0.56766081
-2.2187619 -1.8258977 -0.5684644
-2.3144033 -1.9046044 -0.56712437
-2.4295824 -1.9993893 -0.56830293
-2.5563724 -2.1037295 -0.56958926
-2.6928763 -2.2160633 -0.57020313
-2.831542 -2.3301761 -0.56831467
-3.0065658 -2.4742093 -0.57034689
-3.2008214 -2.6340692 -0.57204813
-3.4104905 -2.8066132 -0.57215416
-3.6415188 -2.9967349 -0.57110095
-3.9236908 -3.2289441 -0.57254434
-4.2266016 -3.47822 -0.57071656
-4.6203213 -3.8022258 -0.57365137
-5.0750189 -4.1764131 -0.57502162
-5.6132135 -4.6193118 -0.57516402
-6.292326 -5.1781774 -0.57664192
-7.1565471 -5.8893762 -0.57846963
-8.3031864 -6.8329859 -0.58147854
-9.8737307 -8.1254425 -0.58492392
-12.146307 -9.9956255 -0.58858895
-15.858293 -13.05035 -0.59758514
-22.750582 -18.72226 -0.61227679
-40.219841 -33.098331 -0.64939195
-1.6015948 -1.351378 -0.56149995
-1.6760572 -1.414207 -0.56811392
-1.7181324 -1.4497088 -0.56248063
-1.7977641 -1.5168997 -0.56781965
-1.8643833 -1.5731111 -0.56744832
-1.9382738 -1.6354575 -0.56776214
-2.0204058 -1.704758 -0.56879097
-2.0950284 -1.7677225 -0.56600428
-2.1907592 -1.8484973 -0.5670706
-2.2879267 -1.9304842 -0.56641048
-2.4155073 -2.0381329 -0.57082969
-2.5217195 -2.1277516 -0.56765479
-2.6625042 -2.2465415 -0.56957829
-2.8067791 -2.3682766 -0.56914645
-2.9653947 -2.5021117 -0.56833035
-3.1570516 -2.6638258 -0.57003653
-3.3690331 -2.8426895 -0.57102013
-3.6189399 -3.0535536 -0.57340521
-3.8883102 -3.2808399 -0.57322502
-4.1828918 -3.5293992 -0.57063144
-4.5709906 -3.8568654 -0.57337153
-5.0138187 -4.2305102 -0.57393807
-5.5502768 -4.6831579 -0.57457238
-6.2255926 -5.2529693 -0.57640225
-7.0946965 -5.9862928 -0.5793764
-8.1986771 -6.917799 -0.58007294
-9.7578688 -8.2333984 -0.58401364
-12.036718 -10.156224 -0.58928573
-15.680261 -13.230536 -0.59696186
-22.496883 -18.982199 -0.61168462
-39.743877 -33.534698 -0.64831597
-1.6059268 -1.3891938 -0.56896448
-1.6506907 -1.4279164 -0.56542456
-1.7111956 -1.4802556 -0.56612581
-1.779739 -1.5395486 -0.56806284
-1.8455052 -1.5964391 -0.5676344
-1.9312769 -1.6706352 -0.57168686
-1.9963692 -1.7269428 -0.56795943
-2.0875592 -1.8058259 -0.5699423
-2.1706626 -1.8777138 -0.56780231
-2.2819116 -1.9739488 -0.57088727
-2.380523 -2.0592518 -0.5685032
-2.5049152 -2.1668563 -0.5698269
-2.6472654 -2.2899952 -0.57229894
-2.7901144 -2.4135654 -0.57174206
-2.9447494 -2.5473313 -0.57033366
-3.1300199 -2.707598 -0.57112408
-3.3331213 -2.8832891 -0.57089943
-3.569303 -3.0875962 -0.57151288
-3.8473835 -3.3281474 -0.57318139
-4.1534991 -3.5929501 -0.57260555
-4.5162797 -3.9067705 -0.57249141
-4.9699411 -4.2992067 -0.57492346
-5.501018 -4.7586102 -0.57548696
