# .PCD v0.7 - Point Cloud Data file format
VERSION 0.7
FIELDS x y z
SIZE 4 4 4
TYPE F F F
COUNT 1 1 1
WIDTH 1409
HEIGHT 1
VIEWPOINT 0 0 0 1 0 0 0
POINTS 1409
DATA ascii
-2.4153633 -3.0287814 -0.56744939
-2.5658813 -3.217526 -0.56791586
-2.7319667 -3.4257913 -0.56760728
-2.9328716 -3.6777189 -0.56963897
-3.1634536 -3.9668608 -0.57167882
-3.4176118 -4.2855663 -0.5715158
-3.7161083 -4.6598706 -0.57140046
-4.0748396 -5.1097074 -0.57178581
-4.5180869 -5.6655235 -0.57333845
-5.0558248 -6.339828 -0.57380372
-5.7569785 -7.2190509 -0.57629913
-6.6475267 -8.3357668 -0.57653451
-7.9124694 -9.9219618 -0.58050567
-9.7261744 -12.196284 -0.58369535
-12.627635 -15.834616 -0.58930713
-18.017132 -22.592857 -0.60050589
-31.383932 -39.354359 -0.62755275
-1.3037627 -1.6767592 -0.56911957
-1.3402619 -1.7237006 -0.56564534
-1.39069 -1.7885557 -0.56687742
-1.4433653 -1.8563012 -0.56762546
-1.4999589 -1.9290856 -0.56843179
-1.5486921 -1.9917611 -0.56483853
-1.614185 -2.0759909 -0.5658161
-1.6888698 -2.1720426 -0.56811184
-1.7537767 -2.2555189 -0.56522936
-1.8323759 -2.3566048 -0.56482214
-1.9292569 -2.4812026 -0.56767029
-2.0211093 -2.5993333 -0.56648093
-2.1418486 -2.7546153 -0.57050544
-2.2507222 -2.8946366 -0.56825805
-2.3819366 -3.0633905 -0.56840307
-2.5272915 -3.2503304 -0.56817788
-2.6972218 -3.4688764 -0.56920761
-2.879638 -3.7034805 -0.5681017
-3.1095269 -3.9991388 -0.57077706
-3.3573589 -4.317874 -0.5702756
-3.6600792 -4.7072001 -0.5716421
-4.0038676 -5.1493435 -0.5706687
-4.4408684 -5.7113671 -0.57240832
-4.9798622 -6.404563 -0.57407707
-5.6576219 -7.2762246 -0.57526612
-6.550858 -8.4250088 -0.57709181
-7.7697878 -9.9926653 -0.57900876
-9.5716162 -12.309983 -0.58345985
-12.428513 -15.984216 -0.5891425
-17.713514 -22.781218 -0.59967768
-30.836338 -39.658382 -0.62630689
-1.2782581 -1.6863446 -0.56699514
-1.3232532 -1.7457044 -0.5674836
-1.372929 -1.8112394 -0.56867325
-1.4206778 -1.8742322 -0.56772375
-1.4679837 -1.9366405 -0.56529617
-1.5290177 -2.0171597 -0.56666654
-1.5830041 -2.0883813 -0.56384516
-1.6510121 -2.1781011 -0.56434375
-1.7354832 -2.2895398 -0.56836414
-1.8059441 -2.3824954 -0.56566232
-1.8938065 -2.4984081 -0.56623608
-1.9907169 -2.6262574 -0.566971
-2.0954492 -2.7644255 -0.56715786
-2.2098596 -2.9153619 -0.56694931
-2.3533487 -3.10466 -0.57064807
-2.4962337 -3.2931614 -0.57025623
-2.6659906 -3.5171134 -0.57170039
-2.8320661 -3.7362089 -0.56773722
-3.0577922 -4.0339985 -0.57034284
-3.2988763 -4.3520494 -0.56938875
-3.5978501 -4.7464709 -0.57099545
-3.94169 -5.2000823 -0.57087713
-4.3708124 -5.7662034 -0.5724743
-4.8999701 -6.4642954 -0.57398707
-5.5580068 -7.3324118 -0.57426161
-6.440002 -8.495986 -0.57648575
-7.648818 -10.090718 -0.57919675
-9.4062281 -12.409185 -0.58263558
-12.221391 -16.123095 -0.58867782
-17.423971 -22.986609 -0.59939915
-30.296644 -39.96891 -0.62528032
-1.2637975 -1.7105566 -0.56986779
-1.2939192 -1.7513264 -0.56409639
-1.3458585 -1.8216264 -0.56669563
-1.3990132 -1.8935716 -0.56832796
-1.451061 -1.9640187 -0.56803656
-1.5138487 -2.0490022 -0.57033932
-1.5660043 -2.1195951 -0.56703073
-1.635232 -2.213295 -0.56820971
-1.6997087 -2.3005648 -0.56586981
-1.782495 -2.4126163 -0.56756687
-1.8565415 -2.5128386 -0.56429005
-1.9493926 -2.6385131 -0.56439918
-2.072808 -2.8055565 -0.57032412
-2.1762464 -2.9455609 -0.56757516
-2.3008368 -3.1141949 -0.56715751
-2.449192 -3.3149943 -0.56877881
-2.6173446 -3.5425897 -0.57056689
-2.7940454 -3.7817552 -0.56939447
-3.0141842 -4.0797143 -0.57152283
-3.2550368 -4.4057097 -0.57112944
-3.5389004 -4.7899203 -0.57094425
-3.8812058 -5.2532325 -0.57142943
-4.3004303 -5.8206549 -0.57258707
-4.8224196 -6.5271702 -0.57426119
-5.475812 -7.41154 -0.57514191
-6.3356805 -8.5753775 -0.57654291
-7.5263658 -10.186975 -0.57936585
-9.2426043 -12.509913 -0.58198488
-12.008322 -16.253326 -0.58799702
-17.116081 -23.166706 -0.59856194
-29.748377 -40.264584 -0.62413609
-1.2419894 -1.7250212 -0.56955576
-1.2745718 -1.7702757 -0.56510901
-1.3204961 -1.8340607 -0.56546974
-1.3674533 -1.8992805 -0.56495196
-1.4211388 -1.9738452 -0.56578165
-1.4734381 -2.0464847 -0.56455278
-1.5383556 -2.1366498 -0.56648982
-1.6025313 -2.2257845 -0.56631434
-1.6753033 -2.326859 -0.56722748
-1.7476274 -2.4273112 -0.5659256
-1.8367655 -2.5511167 -0.56777102
-1.9329865 -2.6847596 -0.56916434
-2.0301688 -2.8197379 -0.56808925
-2.1460767 -2.9807243 -0.56922281
-2.2558894 -3.1332452 -0.56553227
-2.4126306 -3.3509459 -0.56981409
-2.5673435 -3.5658295 -0.56918234
-2.7437797 -3.8108847 -0.56865752
-2.9475062 -4.0938444 -0.56838197
-3.1955807 -4.4383993 -0.57023013
-3.4822145 -4.8365102 -0.57135051
-3.8082416 -5.2893353 -0.5702197
-4.2264996 -5.8702612 -0.57231116
-4.7313089 -6.5713997 -0.57299066
-5.3791885 -7.4712515 -0.57459921
-6.2344375 -8.6591225 -0.57697552
-7.3927631 -10.267941 -0.57875687
-9.0919123 -12.62792 -0.58222967
-11.801394 -16.391169 -0.58768946
-16.814177 -23.353512 -0.5980013
-29.198145 -40.553829 -0.62300718
-1.2083092 -1.7225188 -0.56378114
-1.2628481 -1.8002675 -0.5696829
-1.294417 -1.8452709 -0.56397599
-1.3530784 -1.9288962 -0.56876922
-1.3889817 -1.9800785 -0.56263018
-1.4556197 -2.0750751 -0.56745923
-1.5133719 -2.1574044 -0.56701583
-1.5784714 -2.2502077 -0.56754708
-1.6478895 -2.3491676 -0.56768316
-1.7230265 -2.4562798 -0.56769693
-1.8062863 -2.5749719 -0.56809402
-1.89516 -2.7016666 -0.5677653
-1.9963118 -2.8458648 -0.56836444
-2.1037037 -2.9989586 -0.56772208
-2.2263684 -3.1738245 -0.56787241
-2.3803973 -3.3934023 -0.57201302
-2.5303564 -3.607178 -0.57077277
-2.6994476 -3.848228 -0.56923372
-2.9028218 -4.1381502 -0.56953454
-3.133682 -4.4672561 -0.56894392
-3.4164243 -4.8703222 -0.57033896
-3.7492912 -5.3448443 -0.5711906
-4.1517301 -5.9185457 -0.57199812
-4.6517901 -6.6314116 -0.57319248
-5.2823958 -7.5303793 -0.57410765
-6.1180058 -8.7215919 -0.57608181
-7.2668891 -10.359396 -0.57883132
-8.9244003 -12.72228 -0.58147657
-11.588669 -16.520357 -0.58716786
-16.505056 -23.528971 -0.59725207
-28.656263 -40.851261 -0.62211615
-1.1934097 -1.7465696 -0.56680715
-1.2307884 -1.8012738 -0.56516945
-1.2726843 -1.8625891 -0.56444329
-1.3240674 -1.9377887 -0.56654769
-1.3733212 -2.0098724 -0.56625479
-1.4315922 -2.0951529 -0.56809288
-1.4857894 -2.1744709 -0.56665671
-1.5517011 -2.2709334 -0.56791914
-1.6301302 -2.3857155 -0.57162797
-1.6958522 -2.4819005 -0.56875587
-1.7775798 -2.6015098 -0.56908345
-1.859316 -2.7211316 -0.56700832
-1.9550954 -2.861306 -0.56660414
-2.0600197 -3.014864 -0.56589496
-2.1872036 -3.2009995 -0.56787956
-2.3264995 -3.4048605 -0.56907916
-2.4798198 -3.6292465 -0.56939667
-2.6535265 -3.8834686 -0.56957692
-2.8543243 -4.1773386 -0.57005435
-3.0808072 -4.5087991 -0.56936705
-3.3616817 -4.9198623 -0.5712564
-3.6894753 -5.3995924 -0.57214975
-4.0850577 -5.9785318 -0.57289755
-4.5631266 -6.6781917 -0.57234269
-5.1865826 -7.5906272 -0.57379526
-6.0021605 -8.784235 -0.57530099
-7.1341009 -10.440844 -0.57843685
-8.77388 -12.840681 -0.58191317
-11.376892 -16.650221 -0.5867669
-16.200752 -23.709999 -0.59674543
-28.090151 -41.110279 -0.62075359
-1.1760895 -1.767491 -0.56886041
-1.216 -1.8274704 -0.56865442
-1.253306 -1.8835361 -0.56607807
-1.2992194 -1.9525372 -0.56614602
-1.3410716 -2.015435 -0.56313348
-1.3994876 -2.1032257 -0.56557298
-1.4627593 -2.1983137 -0.56813979
-1.5182929 -2.2817729 -0.56591809
-1.5829152 -2.3788905 -0.56528622
-1.661806 -2.497452 -0.56759399
-1.749222 -2.6288254 -0.57031053
-1.827993 -2.7472069 -0.56771499
-1.9204108 -2.8860972 -0.56679434
-2.0342431 -3.0571706 -0.56909782
-2.1500793 -3.2312555 -0.56851387
-2.2873378 -3.437535 -0.56979626
-2.4258115 -3.6456409 -0.56724608
-2.6034899 -3.9126656 -0.56912076
-2.8027308 -4.2120957 -0.57005131
-3.0287695 -4.5517983 -0.57005084
-3.2947354 -4.9515066 -0.57018352
-3.6162434 -5.4346862 -0.57111341
-4.0027561 -6.0155582 -0.57168591
-4.4844828 -6.7395229 -0.57282972
-5.0955071 -7.657804 -0.57409352
-5.9082994 -8.8793116 -0.57672608
-7.0060287 -10.529039 -0.57850647
-8.5972929 -12.920477 -0.58069456
-11.162822 -16.776093 -0.58632112
-15.883423 -23.870468 -0.59582347
-27.53401 -41.379601 -0.61966103
-1.1524477 -1.7790074 -0.56796312
-1.1927868 -1.8412781 -0.56834406
-1.2334753 -1.904088 -0.56765348
-1.2768157 -1.9709915 -0.56690168
-1.3255405 -2.0462072 -0.56713438
-1.3770818 -2.1257701 -0.56703895
-1.4286376 -2.2053556 -0.56537688
-1.4973674 -2.3114522 -0.56866956
-1.5573899 -2.4041076 -0.56668496
-1.6368382 -2.5267501 -0.56963515
-1.7014241 -2.6264501 -0.56521362
-1.7807841 -2.7489562 -0.56350881
-1.8835024 -2.9075201 -0.5664103
-1.9853392 -3.0647233 -0.56591648
-2.1163085 -3.2668974 -0.57016313
-2.2392752 -3.4567184 -0.56836897
-2.3751593 -3.6664798 -0.56590134
-2.5518439 -3.9392238 -0.56837666
-2.7452612 -4.2377977 -0.56891817
-2.9755948 -4.5933585 -0.57063019
-3.2289903 -4.9845195 -0.56936979
-3.5402915 -5.4650683 -0.56968832
-3.9245787 -6.0582838 -0.57111686
-4.4031191 -6.7969956 -0.57306939
-4.9927444 -7.7071872 -0.5731498
-5.7812552 -8.9243937 -0.57499337
-6.8683038 -10.602446 -0.57785571
-8.4396467 -13.028092 -0.58082318
-10.951595 -16.905729 -0.58610106
-15.578851 -24.048721 -0.59544617
-26.973011 -41.637627 -0.61851144
-1.1292263 -1.791044 -0.56732994
-1.1631806 -1.8448981 -0.56500381
-1.2004808 -1.9040593 -0.56320149
-1.2580763 -1.9954103 -0.56943256
-1.2939078 -2.0522418 -0.56435454
-1.3480992 -2.1381941 -0.5658884
-1.3923177 -2.208328 -0.56170726
-1.4582422 -2.3128896 -0.564569
-1.5253706 -2.4193606 -0.56581634
-1.6059761 -2.5472076 -0.56975204
-1.6738803 -2.6549091 -0.56686574
-1.7518693 -2.7786059 -0.56512809
-1.8553669 -2.9427614 -0.56878817
-1.9494135 -3.0919268 -0.56647056
-2.0581999 -3.2644708 -0.56527984
-2.197829 -3.485934 -0.56868607
-2.3368535 -3.7064378 -0.56759065
-2.5041335 -3.9717574 -0.56858492
-2.6893432 -4.2655149 -0.56815666
-2.9112296 -4.6174445 -0.56913221
-3.1743121 -5.0347147 -0.5706017
-3.4841208 -5.5260963 -0.57154083
-3.8519375 -6.1094832 -0.57143515
-4.315937 -6.8454237 -0.5726347
-4.8947177 -7.7634163 -0.57281214
-5.6804509 -9.0096531 -0.5759427
-6.7320323 -10.677546 -0.57739347
-8.2725506 -13.120931 -0.58038318
-10.739097 -17.033072 -0.58589345
-15.262762 -24.20797 -0.59469736
-26.409103 -41.886967 -0.61734474
-1.1113578 -1.8117027 -0.56950194
-1.1366202 -1.8528848 -0.56312686
-1.1798325 -1.9233282 -0.56456709
-1.2260239 -1.998628 -0.56600583
-1.2712256 -2.0723145 -0.56553298
-1.3167896 -2.1465917 -0.56378299
-1.3772322 -2.2451234 -0.56671602
-1.4418796 -2.3505099 -0.56938112
-1.4980508 -2.4420781 -0.56677836
-1.5707461 -2.5605841 -0.56838083
-1.6491252 -2.6883554 -0.56963426
-1.7210559 -2.8056145 -0.56627423
-1.81268 -2.9549775 -0.56679827
-1.9148765 -3.1215751 -0.56754565
-2.0267417 -3.3039348 -0.56775504
-2.1526144 -3.5091283 -0.5681088
-2.2916882 -3.7358427 -0.56773537
-2.4583437 -4.0075192 -0.56933403
-2.6389787 -4.3019853 -0.56864917
-2.8607817 -4.6635623 -0.57043755
-3.1035004 -5.0592346 -0.56901258
-3.416806 -5.5699763 -0.57169056
-3.769726 -6.1452966 -0.57040608
-4.2299852 -6.895597 -0.57243747
-4.8061957 -7.834919 -0.57368398
-5.5648975 -9.0717325 -0.57549334
-6.5973892 -10.754869 -0.57714432
-8.1050606 -13.212631 -0.57998705
-10.514688 -17.140734 -0.58510518
-14.947111 -24.366341 -0.59402776
-25.848295 -42.137131 -0.6163007
-1.0818168 -1.8131945 -0.56574655
-1.1122135 -1.8641413 -0.56234896
-1.1628102 -1.9489447 -0.56784648
-1.2058269 -2.0210433 -0.56811172
-1.2446481 -2.0861104 -0.5650785
-1.3018703 -2.1820185 -0.56884009
-1.343646 -2.252037 -0.56424803
-1.4058945 -2.3563697 -0.56657004
-1.4683795 -2.4610984 -0.56695932
-1.5400761 -2.5812666 -0.56872523
-1.6046412 -2.6894817 -0.56564927
-1.6872532 -2.827945 -0.56655091
-1.7788901 -2.9815342 -0.56765354
-1.8771001 -3.1461403 -0.56777245
-1.9835515 -3.3245597 -0.56706506
-2.1000509 -3.5198202 -0.56561637
-2.2479649 -3.7677336 -0.5683381
-2.405993 -4.032599 -0.5686509
-2.5934129 -4.3467269 -0.57030481
-2.8025239 -4.6972103 -0.57029498
-3.048975 -5.1102781 -0.57049364
-3.3508208 -5.6161909 -0.57216161
-3.6944308 -6.1921034 -0.5704909
-4.1492639 -6.9544325 -0.57304287
-4.7053094 -7.8864007 -0.5731737
-5.4535809 -9.1405525 -0.57556146
-6.4663773 -10.838064 -0.57729816
-7.9380012 -13.3046 -0.57969564
-10.288179 -17.24365 -0.58425564
-14.633517 -24.526716 -0.59350592
-25.279903 -42.370743 -0.61512446
-1.0649908 -1.8359265 -0.56871027
-1.0962453 -1.8898058 -0.56598186
-1.1328524 -1.9529124 -0.56490111
-1.1767044 -2.0285087 -0.56610012
-1.2265737 -2.1144776 -0.56863403
-1.2623024 -2.17607 -0.56320024
-1.3193974 -2.2744956 -0.56576735
-1.383867 -2.3856339 -0.56947184
-1.4388009 -2.4803338 -0.56727195
-1.5019544 -2.5892036 -0.56636202
-1.5761453 -2.7171004 -0.56733894
-1.6542612 -2.8517637 -0.56720471
-1.7401288 -2.99979 -0.56701255
-1.8364991 -3.1659217 -0.56722409
-1.940405 -3.3450439 -0.56644642
-2.0663023 -3.5620768 -0.56828088
-2.2030327 -3.797785 -0.56874186
-2.3653815 -4.0776563 -0.57085997
-2.5273502 -4.356873 -0.56751567
-2.7335861 -4.7124009 -0.56801528
-2.9775543 -5.1329751 -0.56889701
-3.2713296 -5.6394114 -0.57038605
-3.6237831 -6.2470016 -0.57140023
-4.0510564 -6.9835739 -0.57129627
-4.6071663 -7.942246 -0.57307172
-5.3234773 -9.1770868 -0.57369673
-6.3225851 -10.899439 -0.57638264
-7.770195 -13.394958 -0.57942581
-10.07094 -17.361187 -0.58399808
-14.321378 -24.688475 -0.59311402
-24.706642 -42.591526 -0.61387277
-1.0387911 -1.8425933 -0.56677574
-1.0721214 -1.9017143 -0.5655573
-1.1068126 -1.9632491 -0.56391162
-1.1440771 -2.0293481 -0.56236589
-1.1883003 -2.1077909 -0.56286377
-1.243651 -2.2059712 -0.5669384
-1.2930584 -2.2936094 -0.56652391
-1.3523229 -2.3987319 -0.56858599
-1.4097219 -2.5005455 -0.56788701
-1.4687536 -2.6052551 -0.56587976
-1.5460436 -2.7423513 -0.56859887
-1.6190482 -2.8718457 -0.56719625
-1.6997147 -3.0149305 -0.56588101
-1.798209 -3.1896384 -0.5674687
-1.9065349 -3.3817854 -0.56865531
-2.0221858 -3.5869257 -0.56823522
-2.1494257 -3.8126221 -0.5669629
-2.3015053 -4.0823789 -0.56751621
-2.4793017 -4.3977513 -0.56882626
-2.6810997 -4.7556977 -0.56921726
-2.9229708 -5.1847253 -0.57060593
-3.206569 -5.687768 -0.57124579
-3.5408883 -6.2807794 -0.57046413
-3.9734478 -7.0480475 -0.57253033
-4.5012941 -7.984334 -0.57207155
-5.2089062 -9.2394867 -0.57355016
-6.1899128 -10.979583 -0.57655215
-7.5987272 -13.478518 -0.57895482
-9.8558846 -17.482233 -0.58394897
-13.994098 -24.822538 -0.59215599
-24.13883 -42.817127 -0.61279994
-1.0118606 -1.8475647 -0.56443506
-1.0487387 -1.9149007 -0.56560093
-1.0869124 -1.9846025 -0.5661633
-1.1350888 -2.0725679 -0.57043183
-1.1694778 -2.1353593 -0.56634271
-1.215055 -2.2185791 -0.56629598
-1.2585338 -2.2979674 -0.56373525
-1.3157434 -2.402427 -0.56558412
-1.3708289 -2.5030079 -0.56457537
-1.4364829 -2.6228862 -0.56582987
-1.5075471 -2.7526426 -0.56684625
-1.5795053 -2.8840318 -0.56572431
-1.6676126 -3.0449076 -0.56761581
-1.7583557 -3.2105963 -0.56730777
-1.8598738 -3.3959589 -0.56715012
-1.9720792 -3.6008356 -0.56655437
-2.1056941 -3.844804 -0.56785518
-2.2525826 -4.1130095 -0.56788081
-2.4247596 -4.4273887 -0.56876016
-2.6191919 -4.7824039 -0.5685159
-2.8501637 -5.2041378 -0.56884223
-3.1321731 -5.7190604 -0.57047731
-3.4649143 -6.3266158 -0.57071435
-3.8848529 -7.0933852 -0.57228947
-4.4060221 -8.0449924 -0.57249254
-5.095437 -9.3038006 -0.57360971
-6.0530553 -11.052324 -0.57641983
-7.4207106 -13.549537 -0.57804215
-9.6256914 -17.575628 -0.58307093
-13.679715 -24.977905 -0.5918048
-23.562843 -43.02359 -0.61156183
-0.98770285 -1.8573006 -0.56365639
-1.024268 -1.9260587 -0.56513381
-1.0560087 -1.9857445 -0.56274217
-1.0941902 -2.0575421 -0.5625506
-1.1449348 -2.1529634 -0.56723481
-1.1883157 -2.2345381 -0.56659693
-1.2315503 -2.3158374 -0.56436139
-1.2910591 -2.4277391 -0.56776279
-1.3452324 -2.529608 -0.56680131
-1.4133047 -2.6576126 -0.56952924
-1.4723268 -2.7685993 -0.56636113
-1.5397304 -2.8953466 -0.56418729
-1.6318896 -3.068645 -0.56825721
-1.7166506 -3.2280319 -0.56661588
-1.8132142 -3.4096124 -0.56566393
-1.9292948 -3.6278932 -0.56703609
-2.0563848 -3.8668761 -0.56733757
-2.2140257 -4.1633081 -0.57102352
-2.3707907 -4.4580932 -0.56891656
-2.5592232 -4.8124261 -0.56830084
-2.7832775 -5.2337432 -0.56829441
-3.054307 -5.7433939 -0.56911516
-3.3771234 -6.3504252 -0.56907314
-3.7873695 -7.1218619 -0.57078648
-4.3016777 -8.0889797 -0.57181543
-4.9824982 -9.3692112 -0.57382178
-5.9053135 -11.104496 -0.57531017
-7.2546797 -13.641877 -0.57813209
-9.4063511 -17.687933 -0.58291537
-13.353051 -25.109406 -0.59098548
-22.990128 -43.231197 -0.6104483
-0.9710598 -1.8814492 -0.56731838
-0.99995011 -1.9374248 -0.56481832
-1.0373319 -2.0098529 -0.56591672
-1.0727947 -2.0785625 -0.56464839
-1.1178672 -2.1658916 -0.56697661
-1.158751 -2.245105 -0.56562066
-1.2101809 -2.3447514 -0.56773829
-1.2581673 -2.437726 -0.56643742
-1.3119844 -2.5419979 -0.56591994
-1.3781949 -2.6702821 -0.5685696
-1.4302287 -2.7710989 -0.56323224
-1.512898 -2.9312723 -0.56751984
-1.5879691 -3.0767241 -0.56609452
-1.6774933 -3.2501793 -0.56683987
-1.7777668 -3.4444613 -0.56777585
-1.8872617 -3.6566103 -0.5678544
-2.0057392 -3.8861628 -0.56650591
-2.1517859 -4.1691313 -0.56815016
-2.313287 -4.4820433 -0.56829995
-2.5013049 -4.8463316 -0.56862968
-2.7205331 -5.271091 -0.56867433
-2.9934185 -5.7998123 -0.57101518
-3.3113749 -6.4158597 -0.57124478
-3.7041337 -7.1768384 -0.57149893
-4.2087212 -8.1544876 -0.57274449
-4.8633685 -9.4228811 -0.57340282
-5.7705932 -11.180648 -0.57553577
-7.0834894 -13.724412 -0.57789487
-9.1756382 -17.777996 -0.58212113
-13.026974 -25.240042 -0.59024537
-22.414852 -43.429256 -0.60930699
-0.94992077 -1.8973769 -0.56855601
-0.98052531 -1.9585066 -0.56740642
-1.0051358 -2.0076637 -0.56177771
-1.0504298 -2.098134 -0.5664134
-1.0851971 -2.1675785 -0.56388235
-1.130864 -2.2587941 -0.56552333
-1.179971 -2.3568804 -0.56711906
-1.2226372 -2.4421022 -0.56391829
-1.2791212 -2.5549235 -0.56525314
-1.3418216 -2.6801617 -0.56711715
-1.4057412 -2.8078353 -0.56714278
-1.4755554 -2.9472823 -0.56706375
-1.5557716 -3.1075068 -0.56819546
-1.6360285 -3.2678123 -0.56636375
-1.7348101 -3.4651191 -0.56762183
-1.8434384 -3.6820939 -0.56824869
-1.9665604 -3.9280186 -0.56903929
-2.1012709 -4.1970897 -0.56839615
-2.2553623 -4.5048728 -0.5676353
-2.4431276 -4.8799167 -0.56900239
-2.6571586 -5.3074231 -0.56902599
-2.9097872 -5.8120246 -0.56865185
-3.2199535 -6.4315529 -0.56907374
-3.614912 -7.2204452 -0.57138854
-4.0930662 -8.1755133 -0.57064307
-4.7478428 -9.483367 -0.57348752
-5.6273274 -11.240054 -0.57498831
-6.9223418 -13.826723 -0.57857502
-8.9486866 -17.874155 -0.58162272
-12.704715 -25.376467 -0.58973783
-21.835882 -43.615112 -0.60810149
-0.92267948 -1.9010013 -0.56619948
-0.95092386 -1.9591933 -0.56417507
-0.98743856 -2.0344248 -0.56582558
-1.0282263 -2.1184599 -0.56844431
-1.063747 -2.1916437 -0.56669712
-1.1097724 -2.2864699 -0.56899285
-1.1464241 -2.3619835 -0.5649122
-1.1936821 -2.4593494 -0.56446886
-1.2446206 -2.5642982 -0.56389856
-1.309243 -2.6974399 -0.56732374
-1.3652498 -2.8128312 -0.56471831
-1.4375057 -2.9617004 -0.56639409
-1.5105023 -3.1120958 -0.56559569
-1.5989641 -3.294354 -0.56751329
-1.6892728 -3.4804175 -0.56668234
-1.7930391 -3.6942077 -0.5666728
-1.915818 -3.9471695 -0.56835794
-2.0413883 -4.2058825 -0.5661447
-2.1991453 -4.5309105 -0.56746584
-2.3784301 -4.9002919 -0.5679251
-2.5887086 -5.3335299 -0.56836921
-2.8453848 -5.862361 -0.57011044
-3.1467347 -6.4832339 -0.57017976
-3.5228055 -7.2580543 -0.57089359
-3.9962454 -8.2334852 -0.5712164
-4.6226044 -9.5239754 -0.57246256
-5.4862318 -11.303311 -0.57472986
-6.7381916 -13.88273 -0.5774079
-8.7230062 -17.972055 -0.58127415
-12.377489 -25.501406 -0.58905971
-21.2598 -43.801674 -0.60701191
-0.90121663 -1.9164144 -0.56744665
-0.92711788 -1.9714928 -0.56439137
-0.95756501 -2.036238 -0.56301248
-0.99708909 -2.1202848 -0.56560135
-1.0329168 -2.1964715 -0.56461859
-1.0797545 -2.2960706 -0.56803501
-1.1190991 -2.3797362 -0.56582409
-1.1668774 -2.4813354 -0.56617898
-1.2203649 -2.5950751 -0.56732374
-1.2748584 -2.710954 -0.56682616
-1.3319379 -2.8323324 -0.56530255
-1.3974504 -2.9716432 -0.56496662
-1.4740075 -3.1344397 -0.56631958
-1.5613868 -3.3202498 -0.56862384
-1.6439697 -3.4958599 -0.56586248
-1.7509816 -3.7234182 -0.56780785
-1.8616654 -3.9587843 -0.56669128
-1.9926729 -4.2373686 -0.56704181
-2.1420128 -4.5549359 -0.56713325
-2.3239202 -4.9417577 -0.56937593
-2.5242021 -5.3676519 -0.56865478
-2.7692373 -5.8887134 -0.56931859
-3.0666559 -6.5211663 -0.57015628
-3.4297972 -7.2933769 -0.57031155
-3.8908777 -8.2738533 -0.57065463
-4.5066276 -9.5832291 -0.57265002
-5.3451066 -11.366234 -0.57454383
-6.5564198 -13.942061 -0.57647878
-8.4970779 -18.068821 -0.58098066
-12.049589 -25.623146 -0.58840483
-20.674976 -43.964817 -0.60570377
-0.87651342 -1.9249967 -0.56675369
-0.9049238 -1.9873916 -0.56571454
-0.93956238 -2.0634646 -0.56730324
-0.97443759 -2.1400576 -0.56763667
-1.0064371 -2.2103348 -0.56495833
-1.0491248 -2.3040857 -0.56678349
-1.089288 -2.3922918 -0.56558192
-1.1350169 -2.4927216 -0.56554973
-1.187108 -2.6071239 -0.56672376
-1.2349496 -2.7121935 -0.56386763
-1.3026407 -2.8608563 -0.5677557
-1.3588486 -2.9843001 -0.56415355
-1.4318943 -3.1447229 -0.56495357
-1.5160441 -3.3295326 -0.56697816
-1.600412 -3.5148211 -0.56570345
-1.7032474 -3.7406681 -0.56720167
-1.8175025 -3.9915948 -0.56814587
-1.940967 -4.2627473 -0.56720114
-2.0908272 -4.5918698 -0.56848776
-2.2576985 -4.9583521 -0.56804633
-2.4619689 -5.4069705 -0.56957
-2.6934812 -5.9154172 -0.56865525
-2.9834654 -6.5522799 -0.56962603
-3.3452153 -7.3467546 -0.5712257
-3.7986515 -8.3425894 -0.5721305
-4.3830929 -9.6261387 -0.5719502
-5.2003131 -11.420916 -0.57403219
-6.3812327 -14.014448 -0.57618386
-8.2701349 -18.162851 -0.58069032
-11.717841 -25.734695 -0.58761317
-20.093441 -44.129166 -0.60451835
-0.8511495 -1.9319314 -0.56567121
-0.88621199 -2.0115159 -0.56943661
-0.9145875 -2.0759225 -0.5675934
-0.94536185 -2.1457739 -0.56602669
-0.97786874 -2.2195575 -0.56419963
-1.0205196 -2.3163662 -0.56667471
-1.0603329 -2.406734 -0.565871
-1.1080881 -2.5151284 -0.5674991
-1.1513524 -2.6133294 -0.56495249
-1.2087508 -2.7436118 -0.56726646
-1.2692282 -2.8808827 -0.56858981
-1.3236479 -3.0044038 -0.56483442
-1.3996543 -3.1769226 -0.56760347
-1.4743543 -3.3464758 -0.56673336
-1.5677943 -3.5585654 -0.56959814
-1.6561483 -3.7591105 -0.56686729
-1.7707976 -4.0193405 -0.5689528
-1.8904066 -4.2908278 -0.56780165
-2.0241981 -4.5945067 -0.56568992
-2.1960752 -4.9846315 -0.56792033
-2.3909476 -5.4269514 -0.56853479
-2.62203 -5.9514604 -0.56897771
-2.8990998 -6.5803509 -0.56892425
-3.2527497 -7.3830619 -0.57089567
-3.6856728 -8.3657064 -0.57056469
-4.2679629 -9.6873837 -0.57242769
-5.0617137 -11.489033 -0.57428408
-6.2100115 -14.095428 -0.57633018
-8.0394249 -18.247814 -0.58020228
-11.392567 -25.858746 -0.58720255
-19.511667 -44.287403 -0.60335368
-0.82947791 -1.9472908 -0.56713909
-0.85906357 -2.0167463 -0.56788397
-0.88686639 -2.0820167 -0.56623518
-0.9148621 -2.1477396 -0.56353515
-0.95468593 -2.2412305 -0.5666818
-0.98800933 -2.3194609 -0.56441694
-1.0314174 -2.421366 -0.5662865
-1.0683254 -2.5080116 -0.56288666
-1.1221755 -2.6344304 -0.56648827
-1.1706717 -2.7482808 -0.56521279
-1.2301474 -2.8879066 -0.56694776
-1.2930114 -3.0354867 -0.56764603
-1.3510667 -3.171778 -0.56367344
-1.433885 -3.3662031 -0.56704533
-1.5197181 -3.5677056 -0.56802708
-1.6087859 -3.7768023 -0.56650919
-1.7224586 -4.0436616 -0.56935436
-1.8396761 -4.3188424 -0.56847233
-1.9766843 -4.6404843 -0.56831521
-2.1384053 -5.0201426 -0.56892735
-2.3248997 -5.4579587 -0.5687452
-2.5482924 -5.9823971 -0.56889665
-2.8201702 -6.6206603 -0.56936806
-3.1530454 -7.4021215 -0.56932843
-3.5856235 -8.4176464 -0.57105684
-4.1459203 -9.7330046 -0.57206774
-4.9228888 -11.557025 -0.57461345
-6.0365601 -14.17149 -0.57636154
-7.8074107 -18.328758 -0.57967961
-11.053942 -25.950346 -0.58615178
-18.926754 -44.43264 -0.60211617
-0.80608392 -1.9588289 -0.56756979
-0.83472544 -2.0284295 -0.56824058
-0.85328501 -2.0735302 -0.56103116
-0.89013457 -2.1630766 -0.56464475
-0.92511332 -2.2480772 -0.56549394
-0.96363288 -2.3416817 -0.56689793
-0.99989378 -2.4297976 -0.56534022
-1.0418952 -2.5318635 -0.56532174
-1.0885271 -2.6451817 -0.56587911
-1.1389047 -2.767602 -0.56626344
-1.2015291 -2.9197829 -0.57026201
-1.2520392 -3.0425253 -0.5660404
-1.3115637 -3.1871734 -0.5635007
-1.3917456 -3.3820198 -0.56678402
-1.4680065 -3.567338 -0.56505179
-1.5640399 -3.8007045 -0.56716681
-1.6680254 -4.0533948 -0.56779391
-1.7819208 -4.3301673 -0.56703597
-1.9141021 -4.6513753 -0.56672364
-2.0777919 -5.0491509 -0.56927633
-2.2577629 -5.4864902 -0.56878233
-2.4767118 -6.018548 -0.56939524
-2.7447102 -6.6697993 -0.57064831
-3.0690351 -7.4579268 -0.5706749
-3.4790061 -8.4541798 -0.57058996
-4.0235596 -9.7774754 -0.57173038
-4.7671242 -11.584378 -0.57301563
-5.8542061 -14.226048 -0.57560921
-7.5731621 -18.403206 -0.57904524
-10.721462 -26.053753 -0.58546537
-18.343599 -44.57597 -0.60095644
-0.7736215 -1.9476544 -0.56153315
-0.80644274 -2.0302844 -0.56593943
-0.83233041 -2.0954587 -0.56415254
-0.8613252 -2.1684556 -0.56324154
-0.89834899 -2.2616658 -0.56609064
-0.92930472 -2.3395994 -0.5635848
-0.96774292 -2.4363706 -0.56405818
-1.01526 -2.5559988 -0.56788039
-1.0590116 -2.6661468 -0.56753546
-1.1023598 -2.7752795 -0.56501812
-1.1560791 -2.910522 -0.56563407
-1.2161131 -3.0616624 -0.56677586
-1.2795091 -3.2212672 -0.56670403
-1.3443049 -3.3843958 -0.56436932
-1.4294554 -3.5987689 -0.56720328
-1.5148644 -3.8137932 -0.56629747
-1.6145508 -4.0647616 -0.56656235
-1.7339171 -4.3652759 -0.56879848
-1.8573736 -4.6760874 -0.56690902
-2.0131874 -5.0683613 -0.56860822
-2.1919689 -5.5184584 -0.56925917
-2.4032223 -6.0503058 -0.56956095
-2.6561396 -6.6870451 -0.56928641
-2.9796333 -7.5014663 -0.57115972
-3.3734019 -8.4928102 -0.57035446
-3.9012032 -9.8215933 -0.57146186
-4.621922 -11.636061 -0.57271755
-5.6788039 -14.296846 -0.57560492
-7.3397384 -18.478382 -0.57852709
-10.391499 -26.161434 -0.58496952
-17.759777 -44.711666 -0.5997963
-0.75271899 -1.9651213 -0.56385791
-0.77780479 -2.0306129 -0.56332237
-0.80951887 -2.1134088 -0.56626236
-0.8375814 -2.1866715 -0.56525511
-0.86580318 -2.26035 -0.56305397
-0.90016395 -2.3500557 -0.56339461
-0.94406027 -2.4646556 -0.5678761
-0.97691429 -2.5504274 -0.56393099
-1.0237151 -2.6726103 -0.56618893
-1.068126 -2.7885535 -0.56500387
-1.1224908 -2.9304833 -0.56678808
-1.1757715 -3.0695832 -0.56552297
-1.2418818 -3.2421777 -0.5676533
-1.3064954 -3.4108639 -0.56606126
-1.3844839 -3.6144683 -0.56695157
-1.4716263 -3.8419704 -0.56775153
-1.5684184 -4.0946655 -0.56799936
-1.6745399 -4.3717165 -0.56691182
-1.7984663 -4.695251 -0.56650841
-1.946203 -5.0809464 -0.56729245
-2.1208842 -5.5369864 -0.56843722
-2.3255343 -6.0712662 -0.56879914
-2.574765 -6.7219319 -0.56951803
-2.8827407 -7.5259633 -0.57028282
-3.2685459 -8.5331831 -0.57032353
-3.7807751 -9.8704586 -0.57155687
-4.4752102 -11.683418 -0.57229668
-5.4967957 -14.35047 -0.57499909
-7.1038265 -18.54594 -0.57786369
-10.056111 -26.253462 -0.58421814
-17.169191 -44.823563 -0.59841996
-0.730977 -1.9809409 -0.56577522
-0.75240606 -2.0390134 -0.56304365
-0.78042567 -2.1149464 -0.56406045
-0.8108567 -2.1974142 -0.56541198
-0.83512819 -2.2631898 -0.56116086
-0.87568414 -2.373096 -0.56629401
-0.91286224 -2.4738483 -0.56736493
-0.95391238 -2.5850937 -0.56895953
-0.98891902 -2.6799614 -0.56512743
-1.0324906 -2.7980399 -0.56431091
-1.0825485 -2.9336965 -0.56479222
-1.1392759 -3.0874274 -0.56618667
-1.1972865 -3.2446356 -0.56546324
-1.2626673 -3.4218166 -0.56525946
-1.3417093 -3.6360197 -0.56770128
-1.4200894 -3.8484292 -0.56608272
-1.5135782 -4.1017828 -0.56636208
-1.6203065 -4.3910155 -0.56678796
-1.7451575 -4.7293606 -0.56799179
-1.8871561 -5.1141758 -0.56836861
-2.0476289 -5.5490556 -0.56704855
-2.2536783 -6.1074471 -0.56954956
-2.4906693 -6.7496905 -0.56923199
-2.7855241 -7.5487452 -0.56937063
-3.1639271 -8.574213 -0.57042241
-3.6548321 -9.904562 -0.57088608
-4.3307877 -11.736395 -0.57223988
-5.3147635 -14.40296 -0.5744403
-6.8732719 -18.626503 -0.5776968
-9.7178259 -26.335218 -0.58333427
-16.582893 -44.939487 -0.59720016
-0.71057707 -2.0010774 -0.56898785
-0.73107839 -2.0588119 -0.5659855
-0.75873864 -2.1367068 -0.5673328
-0.78525984 -2.2113938 -0.56648165
-0.81756926 -2.3023815 -0.5683428
-0.84754187 -2.3867881 -0.56703156
-0.87960827 -2.4770913 -0.56558532
-0.9195807 -2.589659 -0.5674327
-0.96291798 -2.7117023 -0.5692808
-0.99823922 -2.8111715 -0.56444103
-1.0462718 -2.9464376 -0.56472558
-1.1043808 -3.1100802 -0.56780756
-1.1587168 -3.2630973 -0.56615478
-1.2208019 -3.437937 -0.56539989
-1.2934258 -3.6424553 -0.56618011
-1.3716824 -3.8628361 -0.56567806
-1.4649365 -4.1254516 -0.56710005
-1.565695 -4.4092011 -0.56660736
-1.6796901 -4.730226 -0.56557238
-1.8207492 -5.1274667 -0.56731462
-1.9828513 -5.5839672 -0.56808162
-2.1703405 -6.1119614 -0.56743884
-2.4048204 -6.7722869 -0.56860083
-2.6948779 -7.5891271 -0.56987393
-3.0534012 -8.5987749 -0.56951559
-3.5350773 -9.9552383 -0.57125831
-4.1911297 -11.802767 -0.57291991
-5.1355166 -14.462283 -0.57424432
-6.642262 -18.705473 -0.57756919
-9.385582 -26.431019 -0.58285588
-16.004404 -45.070488 -0.59628069
-0.67876571 -1.9887048 -0.56305403
-0.70458901 -2.064364 -0.56508732
-0.72488022 -2.1238148 -0.56150067
-0.75787723 -2.2204924 -0.56638229
-0.78404748 -2.297168 -0.56463337
-0.81648552 -2.3922079 -0.56589115
-0.84957123 -2.489145 -0.5659095
-0.88390672 -2.5897441 -0.56502712
-0.91947538 -2.6939561 -0.56313914
-0.96603268 -2.8303635 -0.56586665
-1.0133826 -2.9690931 -0.56663668
-1.0610615 -3.1087871 -0.56514668
-1.1218827 -3.2869861 -0.56786311
-1.1820581 -3.4632928 -0.56713659
-1.2491602 -3.6598942 -0.56646037
-1.3217375 -3.8725376 -0.56467605
-1.4096376 -4.1300745 -0.56531006
-1.5104424 -4.4254208 -0.56626213
-1.6203603 -4.7474675 -0.56520885
-1.760184 -5.157135 -0.56815952
-1.9115387 -5.6005869 -0.56733817
-2.1011951 -6.1562576 -0.56910956
-2.3233001 -6.8069997 -0.56907368
-2.5952137 -7.6036749 -0.5685271
-2.9477193 -8.6364756 -0.56956881
-3.4073617 -9.9831743 -0.57041401
-4.0378861 -11.830539 -0.5718146
-4.953269 -14.512504 -0.5737766
-6.3987808 -18.747686 -0.57639956
-9.0468578 -26.506245 -0.5820176
-15.418299 -45.173824 -0.59509462
-0.65732372 -2.0062444 -0.56568873
-0.67919147 -2.0729878 -0.56511909
-0.70159352 -2.1413622 -0.56381637
-0.73181987 -2.2336171 -0.56739181
-0.75674748 -2.3096998 -0.56538361
-0.78487003 -2.3955338 -0.56435221
-0.82295829 -2.5117846 -0.56871289
-0.85086471 -2.5969586 -0.5642758
-0.88784301 -2.7098217 -0.56413084
-0.93228459 -2.8454635 -0.56655079
-0.97526658 -2.9766507 -0.56574756
-1.0221108 -3.119626 -0.56478965
-1.0777107 -3.2893248 -0.56593496
-1.1389621 -3.4762728 -0.56692582
-1.1999593 -3.6624444 -0.56452864
-1.2791877 -3.9042606 -0.56696528
-1.3590909 -4.1481366 -0.56545204
-1.4587471 -4.452301 -0.56736356
-1.571144 -4.7953525 -0.56856668
-1.6928108 -5.1666965 -0.56687683
-1.8431752 -5.6256299 -0.56753623
-2.0171692 -6.1566839 -0.56681317
-2.2403319 -6.8378081 -0.56930321
-2.5032067 -7.6401391 -0.56890905
-2.8408725 -8.670742 -0.56948185
-3.2841251 -10.023612 -0.57037395
-3.8908763 -11.875502 -0.57163215
-4.7723804 -14.565975 -0.57352716
-6.1718516 -18.837358 -0.57677966
-8.7122345 -26.590963 -0.58148158
-14.827538 -45.25573 -0.59372681
-0.63193864 -2.0120494 -0.56509179
-0.65866643 -2.0971491 -0.56945473
-0.67938787 -2.1631246 -0.5673039
-0.70753324 -2.2527375 -0.5699957
-0.72699118 -2.3146904 -0.56437433
-0.75961757 -2.4185705 -0.56753594
-0.78596419 -2.5024564 -0.56436998
-0.82172388 -2.6163127 -0.56624281
-0.85498184 -2.722204 -0.56447721
-0.89615315 -2.8532906 -0.56587237
-0.93777472 -2.9858108 -0.56525415
-0.98759872 -3.1444468 -0.56704187
-1.0342478 -3.2929742 -0.56433207
-1.0942903 -3.4841456 -0.56597251
-1.1578343 -3.6864655 -0.56599391
-1.22975 -3.9154401 -0.56634998
-1.3106525 -4.1730285 -0.56660545
-1.4027841 -4.4663687 -0.56691521
-1.5071691 -4.7987237 -0.56672621
-1.6327367 -5.1985221 -0.56812286
-1.7683134 -5.6301889 -0.56575978
-1.9447744 -6.192029 -0.56782264
-2.1556573 -6.8634658 -0.56918949
-2.40698 -7.66366 -0.56841362
-2.7328694 -8.7012701 -0.5692367
-3.1600301 -10.06132 -0.57026553
-3.7441363 -11.921075 -0.57156646
-4.5884838 -14.60942 -0.57297283
-5.9282541 -18.875158 -0.57566148
-8.374403 -26.663528 -0.58077264
-14.239439 -45.337402 -0.5924564
-0.60662502 -2.0179157 -0.56460166
-0.62681609 -2.0850806 -0.56404215
-0.64793843 -2.1553433 -0.56313109
-0.67509687 -2.2456849 -0.56606793
-0.6966306 -2.3173161 -0.56288338
-0.72406679 -2.4085815 -0.5630601
-0.75486535 -2.5110316 -0.56416792
-0.78841764 -2.622642 -0.56547171
-0.8213349 -2.7321403 -0.56440073
-0.86062193 -2.8628271 -0.56562215
-0.89962292 -2.9925623 -0.56439543
-0.94881356 -3.1561933 -0.56701326
-0.99754381 -3.3182926 -0.56652606
-1.0520682 -3.499666 -0.56634945
-1.1179994 -3.7189837 -0.56883287
-1.1831286 -3.9356334 -0.56712365
-1.2611152 -4.1950531 -0.56744748
-1.348542 -4.4858751 -0.56724346
-1.4493952 -4.8213592 -0.56725174
-1.5669308 -5.2123375 -0.56748408
-1.7050583 -5.6718135 -0.56779277
-1.8689506 -6.2169952 -0.56796169
-2.0694602 -6.8839827 -0.56873757
-2.3150363 -7.7008829 -0.56902003
-2.6276126 -8.7406559 -0.56965655
-3.0314512 -10.08401 -0.56939572
-3.591511 -11.947028 -0.57065028
-4.4082394 -14.663846 -0.5729382
-5.6946845 -18.943157 -0.57555622
-8.0302916 -26.712469 -0.57964396
-13.656313 -45.427219 -0.59139103
-0.58118147 -2.023181 -0.56403267
-0.60210991 -2.096036 -0.56496018
-0.61995059 -2.1581421 -0.56182814
-0.64924717 -2.2601278 -0.5676533
-0.67285383 -2.3423064 -0.56690103
-0.70135123 -2.44151 -0.56869882
-0.72163516 -2.5121214 -0.56237656
-0.75271511 -2.6203156 -0.56293184
-0.78699654 -2.7396543 -0.56391126
-0.82741892 -2.8803709 -0.56703532
-0.86607897 -3.0149522 -0.56656677
-0.90584254 -3.1533751 -0.56446326
-0.95660585 -3.33009 -0.5664891
-1.0079659 -3.5088823 -0.56579232
-1.0647608 -3.7065938 -0.56489247
-1.1331415 -3.9446375 -0.56637049
-1.2061454 -4.1987753 -0.56590199
-1.2933998 -4.502521 -0.56729436
-1.3891062 -4.8356895 -0.56688523
-1.4971154 -5.2116857 -0.56536615
-1.6332674 -5.6856518 -0.56712466
-1.7923591 -6.2394743 -0.56795889
-1.979751 -6.8918138 -0.56733048
-2.2159007 -7.7138863 -0.56792462
-2.5141764 -8.7522297 -0.568353
-2.909308 -10.127743 -0.56980199
-3.4492238 -12.007271 -0.5714587
-4.223537 -14.702773 -0.57238668
-5.451221 -18.976528 -0.57449001
-7.6979127 -26.797602 -0.57939357
-13.071292 -45.503151 -0.59024245
-0.55725545 -2.0338016 -0.56504059
-0.57346499 -2.0929613 -0.56218827
-0.59686273 -2.1783555 -0.56513685
-0.62156349 -2.2685051 -0.5677948
-0.64204097 -2.3432415 -0.56517386
-0.66998708 -2.4452355 -0.56760466
-0.69693327 -2.5435803 -0.56745774
-0.72457522 -2.6444647 -0.566163
-0.75507087 -2.7557638 -0.56527323
-0.78944218 -2.8812079 -0.56524634
-0.82678294 -3.0174897 -0.56509042
-0.86856997 -3.1699989 -0.5654844
-0.91647029 -3.3448193 -0.56703484
-0.96894795 -3.536346 -0.56825656
-1.0225097 -3.7318287 -0.56677932
-1.0830578 -3.9528098 -0.56558895
-1.1535033 -4.2099133 -0.5654487
-1.2331742 -4.5006862 -0.56510991
-1.3266159 -4.8417182 -0.56563687
-1.4358795 -5.2404943 -0.56653315
-1.5633671 -5.7057834 -0.56717235
-1.7149297 -6.2589374 -0.5677681
-1.8971579 -6.9240112 -0.5680176
-2.123421 -7.7497978 -0.56860316
-2.4076438 -8.7871189 -0.56865317
-2.7825193 -10.155293 -0.56938404
-3.2934721 -12.020105 -0.570099
-4.0395494 -14.743045 -0.5719775
-5.2139783 -19.029329 -0.57410419
-7.3581724 -26.854942 -0.57863331
-12.484973 -45.566105 -0.58902311
-0.53181589 -2.0390017 -0.56462574
-0.55135518 -2.1139159 -0.56595296
-0.57278115 -2.196064 -0.5678609
-0.5896309 -2.2606664 -0.56397545
-0.60894352 -2.3347116 -0.56126809
-0.63453496 -2.4328303 -0.5628714
-0.66288561 -2.5415277 -0.56513858
-0.6929915 -2.6569548 -0.56696981
-0.71992195 -2.7602072 -0.56432617
-0.75380391 -2.8901117 -0.56513196
-0.79377902 -3.0433776 -0.56806767
-0.82866889 -3.1771469 -0.56489909
-0.87192476 -3.3429916 -0.5648647
-0.91826427 -3.5206587 -0.56387877
-0.97495395 -3.7380092 -0.56585443
-1.0342269 -3.9652638 -0.56550848
-1.0993986 -4.2151346 -0.5642916
-1.180339 -4.5254626 -0.56635571
-1.2671225 -4.8581939 -0.56569862
-1.3700138 -5.2526832 -0.56598687
-1.4919897 -5.7203436 -0.56675315
-1.6396539 -6.2864933 -0.56839585
-1.8077395 -6.9309397 -0.56671959
-2.0261757 -7.7684321 -0.56809944
-2.2975562 -8.8089151 -0.56819236
-2.659837 -10.197912 -0.5698967
-3.1471014 -12.066102 -0.57040203
-3.8529017 -14.772166 -0.57122606
-4.9758344 -19.077532 -0.57366914
-7.0189419 -26.910879 -0.57793522
-11.896928 -45.613255 -0.58769715
-0.50644255 -2.0443268 -0.5643332
-0.52695256 -2.1271183 -0.56770992
-0.54158944 -2.1862023 -0.56354618
-0.56069291 -2.2633159 -0.5628739
-0.58360177 -2.3557909 -0.56456769
-0.60766411 -2.4529219 -0.56574827
-0.63108432 -2.5474608 -0.56468964
-0.6565336 -2.6501906 -0.56376106
-0.68371487 -2.7599115 -0.56250429
-0.71610034 -2.89064 -0.56347084
-0.75253123 -3.0376985 -0.56523764
-0.79273832 -3.1999998 -0.5671863
-0.83431357 -3.3678243 -0.56728429
-0.87571257 -3.5349371 -0.56439829
-0.93169248 -3.7609081 -0.56754363
-0.98804414 -3.9883795 -0.5670296
-1.0507784 -4.2416148 -0.56606412
-1.120702 -4.5238719 -0.56438929
-1.2073507 -4.8736415 -0.56572586
-1.3070364 -5.2760367 -0.56672859
-1.4202107 -5.7328806 -0.56622225
-1.5623078 -6.3064756 -0.56842268
-1.7240206 -6.9592524 -0.56725836
-1.9306068 -7.7931666 -0.56812924
-2.1863186 -8.8253841 -0.5674777
-2.5309365 -10.216482 -0.56915224
-2.9979279 -12.101559 -0.57029241
-3.6695368 -14.812602 -0.57100165
-4.7369308 -19.12129 -0.57319009
-6.6799316 -26.964485 -0.57727879
-11.316471 -45.680534 -0.58672673
-0.48278186 -2.056848 -0.56610817
-0.49837157 -2.1232667 -0.56500369
-0.51748437 -2.204695 -0.56663001
-0.53364503 -2.273546 -0.56374353
-0.55791527 -2.3769474 -0.56795084
-0.57971114 -2.4698067 -0.56795561
-0.60245013 -2.566684 -0.56726581
-0.62421221 -2.6593993 -0.56404454
-0.65418726 -2.7871053 -0.56636441
-0.68254524 -2.9079218 -0.56516081
-0.71841377 -3.0607367 -0.56783772
-0.75170517 -3.2025714 -0.565961
-0.78860033 -3.3597598 -0.56424987
-0.83233529 -3.5460887 -0.564502
-0.88383961 -3.7655182 -0.56655645
-0.93583703 -3.9870486 -0.56516165
-1.002247 -4.2699823 -0.5681622
-1.0673125 -4.5471873 -0.56561804
-1.1476147 -4.889308 -0.56586361
-1.2445302 -5.3022079 -0.56785303
-1.3501513 -5.7521968 -0.5664475
-1.4838839 -6.3219523 -0.56813002
-1.6401808 -6.9878416 -0.56790179
-1.8317286 -7.8039131 -0.56722778
-2.0757549 -8.843565 -0.56696266
-2.4043987 -10.243722 -0.56897962
-2.8464322 -12.126966 -0.56979716
-3.4857156 -14.850574 -0.57077003
-4.498198 -19.164162 -0.57277393
-6.3402648 -27.012121 -0.57658589
-10.729441 -45.711807 -0.58538955
-0.45639411 -2.0578439 -0.5647949
-0.47069025 -2.1223042 -0.56316483
-0.48883009 -2.2040951 -0.5648883
-0.50918925 -2.295893 -0.56768918
-0.52602959 -2.3718245 -0.56513852
-0.54910481 -2.4758689 -0.56775403
-0.56686568 -2.5559514 -0.56331062
-0.59241861 -2.6711674 -0.56495273
-0.62051219 -2.7978392 -0.56695229
-0.64743119 -2.9192147 -0.56576556
-0.67989737 -3.0656018 -0.56714648
-0.71161532 -3.2086155 -0.56544
-0.74603009 -3.3637891 -0.56334329
-0.79018128 -3.5628631 -0.56558281
-0.83468693 -3.7635355 -0.56467116
-0.88786018 -4.0032892 -0.56587338
-0.94501209 -4.2609825 -0.56537575
-1.0119298 -4.5627089 -0.56595814
-1.0898225 -4.9139214 -0.56711841
-1.1756428 -5.300878 -0.56611961
-1.282365 -5.7820797 -0.56779444
-1.4000661 -6.3127842 -0.56571621
-1.5519655 -6.9976864 -0.56710809
-1.7392249 -7.8420234 -0.56840038
-1.9676085 -8.8717861 -0.56717795
-2.274653 -10.256226 -0.56807762
-2.6932666 -12.143721 -0.56898534
-3.2993698 -14.876591 -0.57016754
-4.2607665 -19.211451 -0.57257807
-5.9989338 -27.048704 -0.57574868
-10.14622 -45.748482 -0.58421731
-0.43087682 -2.0624361 -0.56455845
-0.4449057 -2.1295867 -0.56360298
-0.46118504 -2.2075095 -0.56426728
-0.47791246 -2.2875769 -0.56413722
-0.49616271 -2.3749337 -0.56438297
-0.51655096 -2.4725242 -0.56548774
-0.5378468 -2.5744588 -0.56588918
-0.56151628 -2.6877553 -0.56695795
-0.58381629 -2.7944965 -0.56477755
-0.61119437 -2.9255445 -0.56549299
-0.63724464 -3.0502369 -0.56281167
-0.67291355 -3.2209697 -0.56611615
-0.70393378 -3.369451 -0.56279939
-0.74799067 -3.5803342 -0.56685328
-0.79156536 -3.788909 -0.56697488
-0.83814847 -4.0118837 -0.56558865
-0.89341301 -4.276413 -0.56592268
-0.95774066 -4.5843239 -0.56713557
-1.0260028 -4.9110675 -0.56529027
-1.1079967 -5.3035398 -0.56490612
-1.207469 -5.7796745 -0.56605744
-1.3228645 -6.332027 -0.56594014
-1.4659401 -7.0168724 -0.56715924
-1.6376761 -7.8389044 -0.56667191
-1.8601568 -8.9038305 -0.56772131
-2.1504655 -10.293423 -0.56863028
-2.545053 -12.182158 -0.56927693
-3.114507 -14.907907 -0.56985688
-4.0202174 -19.243183 -0.57200724
-5.6586022 -27.08548 -0.57500696
-9.5649319 -45.783527 -0.5831188
-0.40468583 -2.0635006 -0.56344509
-0.41818827 -2.1323497 -0.56293076
-0.43478468 -2.2169752 -0.56527752
-0.45086333 -2.2989607 -0.56553453
-0.46604502 -2.3763723 -0.5633204
-0.48409706 -2.46842 -0.5631451
-0.505283 -2.5764475 -0.56491786
-0.52573228 -2.6807189 -0.5640673
-0.54924035 -2.8005867 -0.56460071
-0.57393831 -2.9265223 -0.56427521
-0.60447711 -3.0822399 -0.56730229
-0.63455075 -3.2355862 -0.56727082
-0.66466886 -3.389159 -0.56468332
-0.7024231 -3.5816684 -0.56565428
-0.74068367 -3.7767601 -0.5637514
-0.78806394 -4.0183525 -0.56509179
-0.83940697 -4.2801518 -0.56500882
-0.89705825 -4.5741167 -0.56446552
-0.96756679 -4.933641 -0.56647629
-1.0427029 -5.3167615 -0.564906
-1.1368024 -5.796577 -0.56630105
-1.2450511 -6.3485389 -0.56600481
-1.3765979 -7.0192981 -0.56594431
-1.5437176 -7.8714452 -0.56760907
-1.7502484 -8.9245501 -0.56762719
-2.0227377 -10.313977 -0.56834877
-2.3913231 -12.1934 -0.56838524
-2.9296176 -14.938175 -0.56959379
-3.7803221 -19.275932 -0.57155579
-5.3178773 -27.115955 -0.57422233
-8.9841261 -45.81023 -0.58200788
-0.37922618 -2.0680084 -0.5633601
-0.39235014 -2.1395767 -0.56352234
-0.40784216 -2.2240582 -0.56576198
-0.42342409 -2.3090301 -0.56668794
-0.4379926 -2.3884757 -0.56487006
-0.45465523 -2.4793408 -0.56431842
-0.47283015 -2.5784526 -0.56404006
-0.49343961 -2.690841 -0.56487775
-0.51524782 -2.8097661 -0.56513125
-0.5393281 -2.9410813 -0.56576091
-0.56102526 -3.059401 -0.56178647
-0.59444827 -3.2416646 -0.56701213
-0.62250829 -3.3946826 -0.56428564
-0.65835881 -3.5901835 -0.56567776
-0.69600272 -3.7954645 -0.56522316
-0.7409336 -4.040483 -0.56687987
-0.78597033 -4.2860789 -0.56447279
-0.84307808 -4.5975008 -0.56602913
-0.9050554 -4.9354773 -0.56536657
-0.97859192 -5.3364892 -0.5656808
-1.0642021 -5.8033414 -0.56564069
-1.1683348 -6.3712015 -0.56670165
-1.2924012 -7.0477643 -0.56691527
-1.4457507 -7.8840151 -0.56719071
-1.6383532 -8.9343214 -0.56692451
-1.8925496 -10.320513 -0.56738365
-2.2411046 -12.221264 -0.56835651
-2.7428603 -14.957456 -0.56899989
-3.5386653 -19.297165 -0.57085192
-4.9795327 -27.154551 -0.57369959
-8.4021358 -45.818798 -0.58076024
-0.35546589 -2.0824487 -0.56606036
-0.36740714 -2.152405 -0.56566846
-0.38012022 -2.2268829 -0.56524885
-0.39351428 -2.3053501 -0.56455457
-0.40758309 -2.3877704 -0.56347543
-0.424761 -2.4884048 -0.5651499
-0.44012001 -2.5783834 -0.5627985
-0.46191227 -2.7060506 -0.56683546
-0.47850263 -2.8032429 -0.56259328
-0.50181097 -2.9397917 -0.56428313
-0.52658457 -3.0849245 -0.56524152
-0.55117661 -3.2289934 -0.56356764
-0.58224344 -3.4109943 -0.56576419
-0.61355257 -3.5944147 -0.56511301
-0.64946347 -3.8047938 -0.56538045
-0.68612331 -4.0195603 -0.56271815
-0.73200214 -4.2883353 -0.56354189
-0.7844761 -4.595747 -0.56458294
-0.84352022 -4.941649 -0.5648427
-0.91288418 -5.3480082 -0.56566918
-0.9925465 -5.8146992 -0.56551534
-1.0902386 -6.3870149 -0.56687289
-1.2039934 -7.0534329 -0.56613755
-1.3467782 -7.8899174 -0.5663811
-1.5285922 -8.9550505 -0.56700432
-1.765952 -10.345591 -0.56752563
-2.091444 -12.252442 -0.56856751
-2.5562069 -14.975192 -0.56843597
-3.30035 -19.334654 -0.57071728
-4.641315 -27.190517 -0.57321036
-7.8232608 -45.831512 -0.57965827
-0.32830024 -2.0769577 -0.56342781
-0.3400251 -2.1511338 -0.56419283
-0.35258833 -2.2306137 -0.56505263
-0.36438811 -2.3052638 -0.56339359
-0.37843814 -2.39415 -0.56384015
-0.39231539 -2.4819429 -0.56254423
-0.41040027 -2.596355 -0.56557697
-0.4275538 -2.7048752 -0.56544524
-0.44711894 -2.8286519 -0.5665465
-0.46637705 -2.9504864 -0.56519246
-0.48896745 -3.0934021 -0.56565046
-0.51454663 -3.2552264 -0.56699902
-0.53800344 -3.4036233 -0.5634017
-0.56900281 -3.5997379 -0.56480718
-0.60335088 -3.8170371 -0.56605452
-0.6400016 -4.0489044 -0.56568164
-0.67962664 -4.2995877 -0.56387979
-0.72976047 -4.6167545 -0.56601846
-0.78318965 -4.9547687 -0.56519878
-0.84727794 -5.3602171 -0.56581575
-0.92102635 -5.8267784 -0.56554592
-1.009909 -6.3890858 -0.56591171
-1.1177846 -7.0715494 -0.56644565
-1.2500511 -7.90832 -0.56655586
-1.4167356 -8.9628325 -0.56635112
-1.6362606 -10.351635 -0.56671059
-1.935981 -12.247785 -0.56720382
-2.3732862 -15.014351 -0.5687716
-3.0563509 -19.33569 -0.56959546
-4.3000588 -27.20388 -0.57233411
-7.2417231 -45.814014 -0.57826698
-0.30369437 -2.08741 -0.56520748
-0.31347865 -2.1546612 -0.56406438
-0.324615 -2.2312057 -0.56414878
-0.33682075 -2.3151007 -0.56474274
-0.34908086 -2.3993692 -0.56401575
-0.36323041 -2.4966247 -0.56481683
-0.37862125 -2.602412 -0.56583941
-0.39461416 -2.7123373 -0.56594801
-0.40926144 -2.8130138 -0.56236392
-0.42858031 -2.9458001 -0.56324267
-0.45200661 -3.1068182 -0.56704444
-0.47452894 -3.2616229 -0.56705397
-0.49740633 -3.4188681 -0.56487006
-0.52558172 -3.6125286 -0.56575727
-0.55520642 -3.8161509 -0.56486797
-0.59004778 -4.0556293 -0.56556475
-0.62627345 -4.3046227 -0.56348753
-0.66985571 -4.6041803 -0.56342441
-0.72348237 -4.9727769 -0.56619537
-0.78169745 -5.3729124 -0.56609839
-0.8490603 -5.8359232 -0.56537747
-0.93125916 -6.400908 -0.56590182
-1.0291721 -7.0739021 -0.56557763
-1.1518438 -7.9170728 -0.56612545
-1.3043108 -8.9650373 -0.56543434
-1.5085294 -10.368712 -0.56658715
-1.7870476 -12.283077 -0.56777763
-2.1852212 -15.01988 -0.56792021
-2.8188779 -19.37525 -0.56969666
-3.9622786 -27.234289 -0.57190561
-6.6674542 -45.828018 -0.57736528
-0.27717042 -2.0847049 -0.56350958
-0.28806004 -2.1666098 -0.56622231
-0.29715154 -2.2349906 -0.56413925
-0.308108 -2.3173983 -0.56433636
-0.31915826 -2.4005115 -0.56331915
-0.332349 -2.4997241 -0.56455082
-0.34672731 -2.6078689 -0.56605613
-0.35914806 -2.7012901 -0.56267887
-0.37372509 -2.8109295 -0.5609861
-0.39359915 -2.9604101 -0.56506801
-0.41177586 -3.0971239 -0.56430829
-0.4328168 -3.2553809 -0.56500077
-0.45609877 -3.4304936 -0.56582141
-0.48232433 -3.6277459 -0.56716877
-0.50986528 -3.834892 -0.56667119
-0.54164344 -4.0739079 -0.56714207
-0.57368928 -4.3149366 -0.56387162
-0.61246687 -4.6065979 -0.56275612
-0.66275775 -4.9848547 -0.56659985
-0.71508753 -5.3784471 -0.56571233
-0.77754307 -5.8481989 -0.56559771
-0.85245454 -6.4116368 -0.56588084
-0.942693 -7.0903549 -0.56592351
-1.0539778 -7.927371 -0.56589228
-1.1957992 -8.9940634 -0.56629479
-1.37988 -10.378605 -0.56615782
-1.632704 -12.280192 -0.56667346
-2.0002539 -15.044676 -0.56788486
-2.577383 -19.385485 -0.56902272
-3.6201677 -27.228668 -0.5708096
-6.088624 -45.794872 -0.57596087
-0.25052324 -2.0797064 -0.56128335
-0.26015157 -2.1596358 -0.56352109
-0.27130482 -2.2522237 -0.56760412
-0.28023756 -2.3263783 -0.56564128
-0.2917634 -2.4220598 -0.56749099
-0.30236784 -2.5100918 -0.56600982
-0.31350839 -2.6025746 -0.56402755
-0.32738259 -2.7177508 -0.56522638
-0.34256738 -2.8438065 -0.56666392
-0.35637331 -2.9584155 -0.56380826
-0.37489071 -3.1121371 -0.56616104
-0.39317796 -3.2639477 -0.56560576
-0.41094345 -3.411427 -0.56180066
-0.43560016 -3.6161137 -0.56447005
-0.46143249 -3.8305593 -0.56514978
-0.48942161 -4.0629096 -0.56473053
-0.52067316 -4.3223429 -0.56396013
-0.55703396 -4.6241903 -0.56402588
-0.60021597 -4.9826636 -0.56546909
-0.64957196 -5.3923903 -0.56629592
-0.70722985 -5.8710341 -0.56692219
-0.77300131 -6.4170332 -0.56547546
-0.85571605 -7.1036849 -0.56610483
-0.9549607 -7.9275599 -0.56502485
-1.0810866 -8.9745884 -0.5641889
-1.2502649 -10.379013 -0.56529868
-1.4823402 -12.305575 -0.56696075
-1.8127452 -15.048416 -0.56714177
