# .PCD v0.7 - Point Cloud Data file format
VERSION 0.7
FIELDS x y z
SIZE 4 4 4
TYPE F F F
COUNT 1 1 1
WIDTH 1461
HEIGHT 1
VIEWPOINT 0 0 0 1 0 0 0
POINTS 1461
DATA ascii
16.853363 38.89978 -0.52853394
0.80728495 1.927966 -0.56005538
0.83346909 1.9904991 -0.55904037
0.87381667 2.0868578 -0.56608063
0.89448404 2.1362159 -0.55905861
0.94015765 2.2452939 -0.56623775
0.96820641 2.3122802 -0.56121117
1.0047734 2.3996098 -0.55974376
1.0491081 2.5054905 -0.56086332
1.1003417 2.6278472 -0.56360793
1.145694 2.7361579 -0.561261
1.2008113 2.8677895 -0.56153905
1.2606665 3.0107362 -0.56155825
1.3247924 3.1638825 -0.56081289
1.3967079 3.3356318 -0.56043911
1.479202 3.532645 -0.56098706
1.5659047 3.7397094 -0.5594914
1.6734285 3.9964988 -0.56125516
1.7836926 4.2598324 -0.55925173
1.9188863 4.5827036 -0.55978405
2.0768971 4.9600663 -0.56066197
2.2501829 5.373909 -0.55853534
2.4666073 5.8907762 -0.55873191
2.7282298 6.5155854 -0.55887938
3.0372963 7.2537017 -0.5564667
3.4457133 8.2290869 -0.55681783
3.9719048 9.4857426 -0.55608952
4.6764908 11.168442 -0.55385381
5.6976953 13.607293 -0.55198091
7.2764549 17.377703 -0.54817617
10.087661 24.091452 -0.54275364
16.400974 39.168972 -0.52941126
0.78891605 1.9510951 -0.56391346
0.8140806 2.0133302 -0.56259859
0.84397519 2.0872636 -0.56333309
0.88139492 2.1798077 -0.56758755
0.90307009 2.2334132 -0.56039876
0.9402138 2.3252747 -0.56151658
0.98118913 2.4266121 -0.56318545
1.0179428 2.517509 -0.5607093
1.0599618 2.6214275 -0.55939341
1.1068174 2.7373073 -0.55866283
1.1676048 2.8876431 -0.56257278
1.2163041 3.0080829 -0.55823147
1.2864034 3.181448 -0.56108022
1.3556718 3.3527577 -0.56047332
1.4330733 3.5441821 -0.55997849
1.5244027 3.770052 -0.56118411
1.6258743 4.0210047 -0.56184655
1.7355657 4.2922864 -0.56066823
1.8662117 4.6153913 -0.56093144
2.0153623 4.9842606 -0.56055319
2.1874306 5.4098086 -0.55942863
2.3948696 5.9228334 -0.55893707
2.64692 6.5461874 -0.55867022
2.9566147 7.3121042 -0.55811578
3.3418438 8.2648268 -0.55641359
3.8556015 9.5354195 -0.5561803
4.5399704 11.227954 -0.55399477
5.5310497 13.679027 -0.55209011
7.0705619 17.486446 -0.5488224
9.8012228 24.239737 -0.54333806
15.948606 39.443039 -0.53042483
0.76487988 1.9606816 -0.56392324
0.79305601 2.032908 -0.56530154
0.81574959 2.0910802 -0.56161344
0.8457197 2.1679053 -0.56173807
0.88103175 2.2584236 -0.56391329
0.9164573 2.3492329 -0.56453806
0.94704199 2.4276333 -0.56067735
0.9899925 2.5377321 -0.56245965
1.0332149 2.6485279 -0.56242275
1.0816067 2.7725744 -0.56310356
1.1304367 2.8977444 -0.56179011
1.1868396 3.0423267 -0.56183565
1.2462704 3.1946709 -0.56066716
1.316535 3.3747861 -0.56140709
1.3937078 3.5726094 -0.56171978
1.4801962 3.7943127 -0.56204361
1.5678254 4.0189404 -0.55882204
1.6728055 4.2880449 -0.55738521
1.8082427 4.6352224 -0.56059688
1.9513206 5.001986 -0.55980587
2.1265714 5.451221 -0.56096458
2.3178959 5.9416599 -0.55798185
2.5664406 6.5787754 -0.55871588
2.867027 7.3492942 -0.55822134
3.2432699 8.3137493 -0.55698019
3.7370856 9.5795889 -0.55603427
4.4068046 11.296337 -0.55465323
5.3714299 13.769043 -0.55301565
6.8600268 17.58489 -0.54922307
9.5183935 24.399307 -0.54425019
15.48659 39.698093 -0.53125376
0.73823929 1.9633554 -0.5620389
0.76454401 2.033313 -0.56275743
0.79009378 2.101263 -0.56169653
0.82088798 2.1831605 -0.56303281
0.85108358 2.2634659 -0.56251669
0.88425595 2.3516884 -0.5624727
0.91474128 2.4327643 -0.55922228
0.95607698 2.5426972 -0.56091201
1.0006763 2.6613092 -0.56248146
1.0495548 2.7913024 -0.56424338
1.098328 2.9210153 -0.56364071
1.1494005 3.056843 -0.56186384
1.2083323 3.2135727 -0.56133437
1.2772952 3.3969805 -0.56244391
1.3527514 3.597657 -0.56300002
1.4331836 3.8115673 -0.56194651
1.5206825 4.0442715 -0.55970192
1.6289723 4.3322692 -0.56048769
1.7528019 4.6615958 -0.56113744
1.8905962 5.0280609 -0.56007993
2.0552852 5.4660535 -0.55984789
2.2543037 5.9953451 -0.5603779
2.4884982 6.6181879 -0.55942202
2.777513 7.3868256 -0.55843568
3.1416652 8.3552923 -0.55713314
3.626235 9.6440115 -0.55714333
4.270709 11.357997 -0.55506027
5.2031045 13.837713 -0.55316216
6.6466455 17.676826 -0.54950029
9.2216501 24.525078 -0.54448509
15.026313 39.962643 -0.5322811
0.71538645 1.9759949 -0.56309634
0.73795825 2.0383413 -0.56159514
0.77075547 2.1289318 -0.56651646
0.79749131 2.2027798 -0.56552082
0.82765931 2.2861078 -0.56557161
0.85412306 2.3592043 -0.5617159
0.88901573 2.4555826 -0.56191224
0.92225552 2.5473955 -0.55940449
0.96773273 2.6730099 -0.56239682
1.0058233 2.7782211 -0.55905664
1.0632762 2.9369137 -0.564143
1.1099588 3.0658574 -0.56096959
1.1672657 3.2241471 -0.56063187
1.2326444 3.4047322 -0.56117529
1.3022432 3.5969732 -0.56034482
1.3862973 3.8291423 -0.56198192
1.4758754 4.0765691 -0.56161767
1.5753814 4.3514185 -0.56041652
1.6924784 4.6748562 -0.56018609
1.8298345 5.0542521 -0.56044871
1.9850831 5.4830704 -0.55904847
2.174042 6.0050006 -0.55873942
2.4038987 6.6398959 -0.55871612
2.6853242 7.4172316 -0.55819583
3.039571 8.395709 -0.55729377
3.5047824 9.680687 -0.55673027
4.1336141 11.417605 -0.55544734
5.03297 13.90175 -0.55320626
6.4377227 17.781868 -0.55026323
8.9221611 24.644226 -0.54465342
14.564716 40.229733 -0.53341281
0.68809772 1.9762017 -0.56070173
0.71642172 2.0575476 -0.56441694
0.74306065 2.1340539 -0.56540531
0.76685375 2.2023873 -0.56295663
0.79011834 2.2692025 -0.55894351
0.82323718 2.3643193 -0.56048113
0.85638851 2.4595292 -0.56036323
0.89247364 2.5631647 -0.56041509
0.93335199 2.6805665 -0.56152958
0.97548467 2.8015707 -0.56129909
1.0244926 2.9423203 -0.56271917
1.0740868 3.0847538 -0.56196803
1.1313677 3.2492635 -0.56253767
1.1856148 3.4050598 -0.55878419
1.2612553 3.6222975 -0.56183136
1.3361865 3.8374987 -0.5607546
1.4223796 4.0850434 -0.56033319
1.5193096 4.3634243 -0.5595144
1.6346834 4.6947751 -0.56012195
1.770398 5.0845447 -0.5613513
1.9204627 5.5155272 -0.55990762
2.1050277 6.0455933 -0.56006563
2.3280358 6.6860681 -0.56015015
2.5940993 7.4501963 -0.55823392
2.9409556 8.4463606 -0.55821323
3.3807135 9.7093353 -0.5559451
3.988801 11.45575 -0.55487496
4.8647723 13.97152 -0.55356038
6.2220669 17.86964 -0.55057013
8.6360102 24.802431 -0.5457617
14.094746 40.479801 -0.53439009
0.66398627 1.9852275 -0.56090361
0.69154847 2.0676346 -0.56480867
0.7124719 2.1301928 -0.56201875
0.73595315 2.2003987 -0.56009281
0.76907903 2.2994401 -0.5640195
0.79957235 2.3906112 -0.56434041
0.8266443 2.4715526 -0.56074429
0.86193526 2.5770676 -0.56109512
0.9065724 2.7105267 -0.56542766
0.94367576 2.8214605 -0.56291664
0.98859346 2.9557583 -0.56292176
1.037372 3.1015992 -0.56267053
1.0900195 3.2590079 -0.56186175
1.1507952 3.4407191 -0.5622713
1.2185395 3.6432652 -0.56271696
1.2919912 3.8628757 -0.5620988
1.3752279 4.111742 -0.56163341
1.4685261 4.3906908 -0.56065285
1.5775213 4.7165718 -0.5603658
1.700626 5.0846372 -0.55901057
1.8520831 5.5374732 -0.55978125
2.0261593 6.0579376 -0.55885881
2.2401457 6.6977267 -0.55877692
2.5004902 7.4761209 -0.55783039
2.8374119 8.48347 -0.55831772
3.2687371 9.7730742 -0.5572511
3.8534701 11.521345 -0.55571502
4.6924715 14.029844 -0.55354321
6.0113978 17.973251 -0.55144328
8.3429003 24.944122 -0.54658079
13.622612 40.729733 -0.5354377
0.64020598 1.9953589 -0.56149948
0.66592771 2.075527 -0.56468505
0.68346739 2.1301937 -0.55975932
0.70986658 2.2124732 -0.560902
0.73456156 2.2894411 -0.55930907
0.76714885 2.3910074 -0.5621646
0.80041051 2.4946754 -0.56371474
0.83017123 2.5874321 -0.56108671
0.86625582 2.6998987 -0.56094623
0.90266597 2.8133798 -0.55904764
0.95269382 2.9693038 -0.56322783
0.99819732 3.1111267 -0.56212968
1.0491928 3.2700663 -0.56150156
1.1087154 3.4555833 -0.5624299
1.1665814 3.635937 -0.55932719
1.2462428 3.8842208 -0.56293237
1.3181237 4.1082554 -0.55890095
1.414705 4.4092751 -0.56076217
1.5255728 4.7548213 -0.56263888
1.6414789 5.1160712 -0.56020498
1.7857834 5.5658317 -0.56038588
1.9547303 6.0923963 -0.55977803
2.1622727 6.7392526 -0.55998075
2.4157913 7.5294051 -0.55954742
2.7324271 8.5162792 -0.55822349
3.1488564 9.8141823 -0.55734515
3.7097452 11.56233 -0.5554496
4.5295539 14.117465 -0.55476081
5.7924652 18.053638 -0.55168259
8.0432415 25.068733 -0.54710275
13.148302 40.979908 -0.53656054
0.61646235 2.0058088 -0.5622645
0.64016008 2.0829151 -0.56451076
0.65823603 2.1417296 -0.56062138
0.68567497 2.2310088 -0.56342101
0.70918971 2.3075197 -0.56155276
0.73977727 2.4070437 -0.5637536
0.7675873 2.4975305 -0.56218457
0.79925555 2.6005704 -0.56176209
0.83369875 2.7126398 -0.56142104
0.87056756 2.8326013 -0.56069762
0.91507375 2.9774129 -0.56258911
0.96133536 3.1279364 -0.56298852
1.0090903 3.2833188 -0.56160402
1.0624573 3.4569612 -0.56048542
1.1265527 3.6655109 -0.56170321
1.1934167 3.8830688 -0.56059623
1.2734436 4.143456 -0.561517
1.3608527 4.4278622 -0.56095552
1.4604315 4.7518659 -0.56012183
1.5788298 5.1371031 -0.56033975
1.7136513 5.5757775 -0.55922341
1.8773047 6.1082635 -0.55907261
2.0728855 6.7446327 -0.55826765
2.3207471 7.5511098 -0.55899739
2.6235051 8.5362062 -0.55737299
3.0292602 9.8564281 -0.55758679
3.5711081 11.619461 -0.55604261
4.3558044 14.172661 -0.55478311
5.5778313 18.148819 -0.55245346
7.744112 25.197336 -0.54778975
12.663595 41.20406 -0.53741598
0.59421968 2.0216281 -0.56460804
0.61334652 2.0867007 -0.56345016
0.63238347 2.1514673 -0.56109244
0.65696096 2.2350838 -0.56236756
0.68460596 2.3291364 -0.564722
0.70458382 2.3971043 -0.55935425
0.73709857 2.5077245 -0.56239653
0.76275337 2.5950062 -0.55849189
0.80472541 2.7378016 -0.564538
0.84101111 2.8612511 -0.56427902
0.8762216 2.9810429 -0.56119668
0.91856909 3.1251154 -0.56040543
0.96969211 3.2990441 -0.56221181
1.0202765 3.4711401 -0.56070781
1.0798396 3.6737828 -0.5608936
1.1433635 3.8899012 -0.55951059
1.2242831 4.1652026 -0.56238139
1.3069636 4.4464946 -0.56123757
1.4035817 4.7752042 -0.56079602
1.5158418 5.1571307 -0.56044877
1.6522547 5.6212282 -0.56170171
1.8011636 6.12784 -0.55879503
1.9954271 6.7887549 -0.55984646
2.2278645 7.5795431 -0.55903202
2.5272543 8.598114 -0.55934387
2.9110065 9.9036989 -0.55819374
3.4337947 11.682306 -0.55698735
4.1814599 14.225981 -0.55481565
5.3578734 18.228323 -0.55282629
7.4362106 25.29915 -0.54797393
12.18154 41.443501 -0.53854454
0.57244027 2.0399089 -0.56770474
0.58314508 2.0780559 -0.55913734
0.60368204 2.1512399 -0.55905491
0.63041127 2.2464902 -0.56324446
0.65732366 2.3423934 -0.56593376
0.67693418 2.412276 -0.56090981
0.70374399 2.5078137 -0.56043345
0.73337346 2.6133993 -0.56046718
0.76923841 2.7412052 -0.56324679
0.80048418 2.8525503 -0.56057948
0.84144264 2.9985073 -0.5624941
0.880319 3.1370442 -0.560561
0.92825407 3.3078625 -0.56172693
0.97690648 3.4812367 -0.56035602
1.0370702 3.695632 -0.56223994
1.1004907 3.921633 -0.56208587
1.1716362 4.1751623 -0.56173855
1.2546691 4.4710526 -0.56234747
1.3439081 4.7890582 -0.56043994
1.4495546 5.1655331 -0.55938256
1.5777937 5.6225171 -0.5598495
1.7304362 6.1664634 -0.56033438
1.9106208 6.808557 -0.55949968
2.1389697 7.6222849 -0.56020218
2.4207997 8.6265955 -0.55921793
2.7892528 9.9395895 -0.55824131
3.2902348 11.724855 -0.55704492
4.0086942 14.285108 -0.55515724
5.1393166 18.314116 -0.55346978
7.1398797 25.443186 -0.54915053
11.69308 41.668655 -0.53956115
0.5455547 2.0402093 -0.56587863
0.55938214 2.0919199 -0.56097454
0.58142376 2.1743486 -0.56315982
0.60304213 2.2551949 -0.56352514
0.62537056 2.3386965 -0.56314009
0.64737892 2.4210012 -0.56104511
0.67541075 2.5258315 -0.56256145
0.70153761 2.6235383 -0.56074917
0.73168117 2.7362659 -0.56034088
0.76878113 2.8750086 -0.56309265
0.80537784 3.0118692 -0.56310034
0.844666 3.1587949 -0.56254917
0.88852435 3.3228118 -0.56236768
0.93551856 3.4985561 -0.56124967
0.99209207 3.7101238 -0.56254625
1.0491668 3.9235661 -0.56047148
1.1201322 4.1889553 -0.56169862
1.19778 4.4793344 -0.56149417
1.2880012 4.8167343 -0.56178278
1.3902214 5.1990066 -0.56111383
1.5083497 5.6407704 -0.55977792
1.6560209 6.1930161 -0.56085443
1.8300742 6.8439231 -0.56051433
2.043597 7.6424332 -0.55979383
2.3102896 8.6397829 -0.55818903
2.667716 9.97645 -0.55842692
3.1452544 11.762298 -0.55694425
3.8372326 14.350087 -0.55580676
4.9164925 18.386192 -0.55377913
6.8387346 25.574797 -0.55013454
11.198492 41.878967 -0.54046047
0.51671672 2.0321672 -0.56184328
0.53397292 2.100033 -0.56134701
0.55585551 2.186094 -0.56438887
0.57585669 2.2647555 -0.56410211
0.59502357 2.3401358 -0.5616824
0.62137192 2.4437599 -0.56450593
0.64701188 2.5445979 -0.56492645
0.67083436 2.638288 -0.56209618
0.70076913 2.7560167 -0.56257838
0.72900921 2.8670809 -0.55974191
0.7699734 3.0281866 -0.56433827
0.80599898 3.1698697 -0.56271392
0.84350169 3.3173618 -0.55964762
0.89611185 3.5242696 -0.56356442
0.94413626 3.7131422 -0.56120116
1.0045775 3.9508486 -0.56256163
1.0664811 4.1943059 -0.56061524
1.1439781 4.4990892 -0.56216466
1.2279855 4.8294773 -0.5614655
1.3306011 5.2330489 -0.56297946
1.437223 5.6523762 -0.55913353
1.5784422 6.2077694 -0.56039041
1.7465934 6.869082 -0.56077349
1.9459674 7.6531897 -0.55878675
2.2079275 8.6834383 -0.5592131
2.546077 10.013328 -0.55869651
3.0029535 11.810153 -0.5574196
3.6636441 14.408546 -0.55628407
4.694406 18.462376 -0.55429316
6.5276613 25.672283 -0.55046338
10.708825 42.116158 -0.54178113
0.49293005 2.0435033 -0.56325901
0.50757456 2.1042137 -0.56075382
0.52873445 2.1919348 -0.56417567
0.54959232 2.2784038 -0.56577551
0.56556237 2.3446095 -0.56104457
0.59078634 2.4491787 -0.56403691
0.6142419 2.5464165 -0.56361079
0.64027661 2.6543467 -0.56379753
0.66794336 2.7690427 -0.56351811
0.69554389 2.8834641 -0.56122822
0.73183066 3.0338955 -0.56368256
0.76228201 3.1601353 -0.55927962
0.80548579 3.339242 -0.56162542
0.85054642 3.5260465 -0.56213361
0.90297413 3.7433922 -0.56405234
0.95553958 3.961309 -0.56233549
1.0138067 4.2028627 -0.56005037
1.088084 4.5107884 -0.56191218
1.1684234 4.8438454 -0.56142312
1.2623484 5.2332234 -0.56128591
1.3728896 5.6914854 -0.56128991
1.5031325 6.2314239 -0.5608148
1.661531 6.8880844 -0.56061447
1.8544043 7.687665 -0.55959672
2.099376 8.7032261 -0.5587827
2.4222617 10.041789 -0.5585804
2.8593657 11.853859 -0.5577808
3.4888263 14.463366 -0.55670214
4.469243 18.527807 -0.55456573
6.2177205 25.776339 -0.55101347
10.209145 42.323288 -0.54278976
0.46442795 2.0347812 -0.55923855
0.48348019 2.1182539 -0.56286854
0.50120288 2.1959016 -0.56356776
0.52051991 2.2805347 -0.56467259
0.53677773 2.3517647 -0.56113487
0.55782485 2.4439776 -0.56121707
0.57984382 2.5404484 -0.56066936
0.60869581 2.6668568 -0.5648222
0.63220197 2.7698431 -0.56205654
0.66023475 2.8926623 -0.56139588
0.69153088 3.029779 -0.56129539
0.7245186 3.1743066 -0.56016862
0.76505661 3.3519144 -0.56213206
0.80594969 3.5310779 -0.56131339
0.85601121 3.7504103 -0.56348121
0.9042455 3.9617376 -0.56077558
0.96338826 4.2208576 -0.56082731
1.031839 4.5207586 -0.56153119
1.1106899 4.8662248 -0.56239152
1.2011746 5.2626624 -0.56281662
1.3041589 5.7138634 -0.56187278
1.4280696 6.2567492 -0.56147122
1.5775915 6.9118438 -0.56092697
1.760702 7.7140994 -0.55990261
1.9926573 8.7303562 -0.55890918
2.3047924 10.097902 -0.56008291
2.7127929 11.88546 -0.55765593
3.3113918 14.50808 -0.55681384
4.2451429 18.599091 -0.55509496
5.9099493 25.893045 -0.55191308
9.7047873 42.51923 -0.54373109
0.44321498 2.0581737 -0.56412727
0.46023378 2.1372044 -0.56635749
0.4711085 2.1877038 -0.55993479
0.49043959 2.2774723 -0.56237859
0.50835735 2.3606777 -0.56172758
0.53144497 2.4678905 -0.56516486
0.54992592 2.5537112 -0.56206149
0.57403606 2.6656723 -0.56303382
0.59986246 2.7856033 -0.56371516
0.62609261 2.9074092 -0.56272125
0.65485448 3.040972 -0.56183469
0.68719417 3.191149 -0.56160712
0.72504443 3.3669155 -0.56311005
0.76322943 3.5442364 -0.56187075
0.8093341 3.7583346 -0.56313396
0.85796714 3.9841735 -0.56241548
0.90871662 4.219841 -0.55916524
0.97731549 4.5383959 -0.56218672
1.0472075 4.862956 -0.56048316
1.1336459 5.2643533 -0.56146425
1.2323468 5.7226944 -0.56120861
1.3501185 6.2695947 -0.56109172
1.4924453 6.9305234 -0.56091118
1.6648215 7.7309933 -0.55960065
1.8889333 8.7717085 -0.56002724
2.1781108 10.114573 -0.55947977
2.5695529 11.932327 -0.55833024
3.1365502 14.565313 -0.55748808
4.0188251 18.662367 -0.55546659
5.5948286 25.980911 -0.5522778
9.2021742 42.732475 -0.54496986
0.41850433 2.0665748 -0.56497663
0.43114755 2.1290071 -0.5627377
0.44519672 2.1983819 -0.56122422
0.46208453 2.2817738 -0.56199521
0.48175421 2.3789027 -0.56461197
0.49815863 2.4599078 -0.5618915
0.51651651 2.5505588 -0.55992746
0.537561 2.6544766 -0.55923063
0.56724334 2.801048 -0.56538641
0.59200776 2.9233348 -0.56435198
0.61906284 3.0569327 -0.56333452
0.6512152 3.2157011 -0.56447607
0.68407571 3.3779664 -0.56350887
0.72117144 3.5611453 -0.5631029
0.76049167 3.7553086 -0.56123698
0.8114025 4.0067062 -0.56414515
0.8609224 4.2512355 -0.56188005
0.91874135 4.5367455 -0.56054056
0.99014407 4.8893323 -0.5620774
1.0714592 5.2908664 -0.56284422
1.1614835 5.7354069 -0.56101227
1.2738403 6.2902246 -0.56149369
1.4071232 6.9483752 -0.56091321
1.5736724 7.7707958 -0.56103861
1.7830222 8.8045645 -0.56068271
2.0496373 10.121111 -0.55840504
2.4234874 11.967183 -0.55852461
2.9574192 14.603739 -0.55752474
3.7926214 18.727968 -0.55598909
5.2816544 26.080814 -0.55297905
8.693428 42.928158 -0.54606086
0.39090297 2.0601799 -0.56187183
0.40629518 2.1413016 -0.56462425
0.41980848 2.2125211 -0.56347334
0.4369019 2.3026087 -0.56576085
0.45063537 2.3749883 -0.56232524
0.47047418 2.4795451 -0.56501287
0.48784992 2.5711205 -0.56308186
0.50793529 2.6769767 -0.56261247
0.52866673 2.786238 -0.56104243
0.55358738 2.9175773 -0.56188393
0.5799188 3.0563521 -0.56187099
0.6088804 3.2089889 -0.56194109
0.64247113 3.3860223 -0.56349224
0.67693472 3.5676563 -0.5627737
0.71619976 3.7745953 -0.56276065
0.75938481 4.0021939 -0.56215256
0.80709106 4.2536206 -0.5608412
0.86625534 4.5654345 -0.56272656
0.92947567 4.8986254 -0.56178939
1.0022967 5.2824149 -0.5605917
1.0888859 5.7387671 -0.55998892
1.1958157 6.30232 -0.56121838
1.3230971 6.9731326 -0.56155598
1.4776295 7.7875667 -0.56089526
1.6728511 8.8164444 -0.56008697
1.9308174 10.176007 -0.56008154
2.2821062 12.027409 -0.55998337
2.7789977 14.646181 -0.55779833
3.5646765 18.786953 -0.55639684
4.96523 26.168303 -0.55349767
8.1782274 43.101799 -0.54694909
0.36545625 2.0643442 -0.56173944
0.37930509 2.1425717 -0.56368667
0.39283162 2.2189789 -0.56384516
0.4065761 2.2966168 -0.56301767
0.42343327 2.3918376 -0.5650391
0.43969452 2.4836922 -0.56468314
0.45693702 2.5810893 -0.5639919
0.47533712 2.6850255 -0.5630331
0.49776521 2.8117146 -0.5648973
0.51612413 2.9154181 -0.56020349
0.54353273 3.0702405 -0.56315291
0.57125115 3.2268128 -0.56378967
0.5999375 3.3888528 -0.56269306
0.6337688 3.5799549 -0.56344181
0.66960829 3.7824004 -0.56265426
0.70914364 4.005723 -0.56138098
0.75680989 4.2749743 -0.56238717
0.80947411 4.5724573 -0.5623228
0.86839747 4.9052963 -0.56128734
0.94091851 5.3149443 -0.56277341
1.0220269 5.7730989 -0.56207025
1.1161771 6.3049231 -0.56018561
1.2362864 6.9833822 -0.56111473
1.3841789 7.8187785 -0.56187487
1.5642573 8.8359833 -0.56006396
1.8067185 10.205568 -0.56044346
2.1319439 12.042662 -0.55943066
2.60215 14.698703 -0.55853778
3.3367722 18.848347 -0.55695778
4.6486359 26.25864 -0.5541575
7.6672721 43.309937 -0.54835248
0.33791426 2.0557106 -0.55821729
0.35226956 2.1430416 -0.56262809
0.36504239 2.2207453 -0.56311089
0.37956026 2.3090651 -0.56488246
0.39463153 2.4007518 -0.56595582
0.40696833 2.4758029 -0.56170928
0.42298043 2.5732131 -0.56109196
0.44180986 2.6877623 -0.56242526
0.46274668 2.8151319 -0.56439799
0.48456427 2.94786 -0.56524962
0.50454122 3.0693901 -0.56181651
0.53037518 3.2265518 -0.56256205
0.55727845 3.3902185 -0.56173956
0.59088928 3.5946913 -0.5645749
0.6209622 3.7776403 -0.56076789
0.66104633 4.0214934 -0.56240946
0.70171201 4.2688842 -0.56040847
0.75282431 4.5798273 -0.5620482
0.80903977 4.9218159 -0.56199676
0.87612319 5.3299193 -0.56317574
0.95264441 5.7954383 -0.56306213
1.041345 6.3350506 -0.56168228
1.1512259 7.0035148 -0.56155246
1.2876853 7.8336682 -0.56176454
1.454971 8.8513556 -0.55986196
1.681213 10.227705 -0.56048143
1.9820688 12.057969 -0.55896735
2.423003 14.740404 -0.55894798
3.1098981 18.919149 -0.55787784
4.3317199 26.352137 -0.5549646
7.1464906 43.475872 -0.54929924
0.31447616 2.0719881 -0.56154484
0.32447299 2.1378543 -0.56017643
0.34042263 2.2429416 -0.56763482
0.34969571 2.3040392 -0.56255847
0.36450076 2.4015851 -0.56505299
0.37611386 2.4781003 -0.56113881
0.39308214 2.5898993 -0.5636338
0.40871477 2.692898 -0.56240577
0.43028721 2.835032 -0.56728405
0.44711751 2.9459219 -0.56378108
0.46804658 3.0838172 -0.56336123
0.48957363 3.2256525 -0.56131315
0.51606041 3.4001658 -0.56229383
0.54331821 3.5797594 -0.56113803
0.57907319 3.8153381 -0.56526417
0.61018115 4.020299 -0.56115067
0.6504944 4.2859106 -0.56155115
0.69496381 4.5789061 -0.56084406
0.75012094 4.9423199 -0.5632422
0.80860209 5.3276343 -0.56184125
0.8797645 5.7965021 -0.56207192
0.96489775 6.3574195 -0.56257105
1.0673282 7.0323024 -0.56276584
1.1910642 7.8475614 -0.5616681
1.3475186 8.8783922 -0.56048167
1.5579239 10.264689 -0.56141597
1.8367553 12.101825 -0.55991101
2.2440314 14.785244 -0.55955964
2.8789067 18.968245 -0.55823946
4.0112643 26.429005 -0.55550265
6.6246767 43.647987 -0.55040306
0.28858516 2.0728896 -0.560785
0.29967329 2.152535 -0.56301504
0.31007808 2.227272 -0.56266171
0.32218692 2.314249 -0.56404138
0.33347896 2.395359 -0.56258076
0.34841022 2.5026095 -0.56567574
0.36104822 2.5933874 -0.56338418
0.37600234 2.7008021 -0.5630483
0.39238596 2.8184843 -0.56296486
0.40918314 2.9391377 -0.56147742
0.43031055 3.0908945 -0.56364483
0.45009005 3.2329695 -0.5615809
0.47410032 3.4054337 -0.56215841
0.50190401 3.6051459 -0.56410742
0.52831954 3.7948868 -0.56122929
0.56303674 4.0442586 -0.56348598
0.59801704 4.2955198 -0.56180429
0.63919991 4.5913339 -0.56136107
0.68837261 4.9445386 -0.5624879
0.74310476 5.337676 -0.56189412
0.80716389 5.7978091 -0.56119388
0.88623828 6.3657956 -0.56230539
0.98013759 7.0402684 -0.56239635
1.0958662 7.8715401 -0.56237733
1.2416866 8.9189596 -0.56203622
1.4291848 10.265748 -0.56047028
1.6897292 12.137221 -0.56054503
2.0604675 14.800212 -0.55912501
2.6460981 19.006762 -0.55837321
3.690706 26.510117 -0.55621159
6.1037183 43.84264 -0.55186939
0.263978 2.0833998 -0.56270772
0.27437645 2.1654677 -0.56547248
0.28377298 2.2396281 -0.56485897
0.29298449 2.3123283 -0.56265265
0.30436909 2.4021792 -0.56326097
0.31548133 2.4898808 -0.56187928
0.32877481 2.5947971 -0.56276965
0.34269249 2.7046399 -0.56292737
0.35848555 2.829284 -0.56419885
0.37362599 2.9487772 -0.56239873
0.39084873 3.0847046 -0.56159723
0.41039699 3.238986 -0.56170696
0.4324269 3.412853 -0.56246287
0.45598963 3.5988176 -0.56219733
0.48173058 3.8019736 -0.56135881
0.51374078 4.0546083 -0.5640052
0.54539686 4.3044486 -0.56205243
0.58387482 4.608129 -0.56249422
0.62786543 4.9553175 -0.56279325
0.67755157 5.3474565 -0.56200415
0.7391175 5.8333545 -0.56371206
0.80650073 6.3651648 -0.56133127
0.89321065 7.0495071 -0.56221449
0.9963001 7.8631225 -0.56085831
1.1318843 8.933197 -0.56201386
1.3044803 10.295381 -0.56116998
1.5423352 12.172608 -0.56126094
1.8824978 14.857282 -0.56036413
2.4148672 19.058914 -0.55899072
3.3709772 26.604843 -0.55728722
5.5725431 43.980316 -0.55269808
0.23879367 2.0904462 -0.56377518
0.24693048 2.1616774 -0.56364727
0.25522524 2.2342916 -0.56267893
0.26400205 2.3111255 -0.56152755
0.27388066 2.3976047 -0.56135625
0.28477681 2.4929917 -0.56174862
0.29527 2.584851 -0.55978274
0.30932158 2.7078614 -0.56276363
0.32369643 2.8337016 -0.56424338
0.33955353 2.9725177 -0.56608742
0.35305199 3.0906858 -0.56185329
0.37340617 3.2688701 -0.56605041
0.39093184 3.4222937 -0.5631839
0.41295561 3.6150939 -0.56390411
0.43640506 3.820375 -0.56324089
0.46207163 4.0450649 -0.56184483
0.49315581 4.3171821 -0.56288069
0.52596045 4.6043601 -0.56120229
0.56759232 4.9688139 -0.56349087
0.61096913 5.3485427 -0.56128633
0.66595185 5.8298721 -0.56254166
0.7292425 6.3839307 -0.56215292
0.80514413 7.0483885 -0.56129324
0.90129453 7.8901076 -0.56195009
1.0228189 8.9539557 -0.56248611
1.1783478 10.315486 -0.56143361
1.391414 12.18071 -0.56080323
1.7007085 14.888333 -0.56070411
2.181159 19.09429 -0.55919939
3.046484 26.669514 -0.55781502
5.0403824 44.124489 -0.55368918
0.21365817 2.0989785 -0.56532496
0.21944241 2.155803 -0.56136942
0.22865957 2.2463522 -0.56496549
0.23665243 2.3248742 -0.56411839
0.24627149 2.4193718 -0.56570083
0.25520739 2.5071583 -0.56419104
0.26540619 2.6073513 -0.56390601
0.2755211 2.7067199 -0.56177992
0.28876507 2.8368289 -0.56411642
0.30081508 2.9552081 -0.56204408
0.31619608 3.1063111 -0.56394434
0.33160621 3.2577002 -0.56336749
0.34986317 3.4370568 -0.56486273
0.36873096 3.6224139 -0.56429601
0.38910261 3.8225453 -0.56281292
0.41388398 4.0659971 -0.56400275
0.44018486 4.3243775 -0.5630706
0.46977079 4.6150298 -0.56175619
0.50662798 4.9771147 -0.56368309
0.54542506 5.3582568 -0.56155944
0.5948233 5.8435459 -0.56311274
0.65059221 6.3914199 -0.56206542
0.71967584 7.0700974 -0.56227475
0.80472809 7.9056506 -0.56230986
0.91080862 8.9477863 -0.56135255
1.0510595 10.325612 -0.56123888
1.2432666 12.213855 -0.56158292
1.5183443 14.916219 -0.56100875
1.9487332 19.144361 -0.55992168
2.7198339 26.719656 -0.55812204
4.5071006 44.277767 -0.5548752
0.18796799 2.1029465 -0.56572843
0.19404042 2.1708837 -0.56463248
0.20122136 2.2512224 -0.56552529
0.20813291 2.3285475 -0.56434602
0.21500295 2.4054081 -0.56177515
0.22404872 2.5066102 -0.56340516
0.23301636 2.6069381 -0.56315446
0.24365027 2.7259083 -0.56509787
0.2527954 2.8282218 -0.56174427
0.26497167 2.9644477 -0.56313908
0.27653477 3.0938129 -0.56101561
0.29190013 3.2657177 -0.56409061
0.30647355 3.428762 -0.5628376
0.32271343 3.6104505 -0.56177169
0.34128812 3.81826 -0.56152165
0.36423817 4.0750203 -0.56459045
0.38752261 4.3355222 -0.56385863
0.41423762 4.6344037 -0.56345189
0.4446252 4.9743738 -0.56271094
0.47865021 5.3550386 -0.56056291
0.52326661 5.8541975 -0.56347656
0.57252443 6.4052835 -0.56262296
0.63332391 7.085495 -0.56283742
0.7084341 7.9258122 -0.56308174
0.8022486 8.9753895 -0.56242287
0.92598742 10.359754 -0.56243318
1.0922976 12.220396 -0.56122375
1.3346382 14.931653 -0.5609296
1.7135159 19.170458 -0.56002629
2.394346 26.787441 -0.55888075
3.9724627 44.443081 -0.55629265
0.16096424 2.090389 -0.56177527
0.16817628 2.1840494 -0.56747603
0.17328314 2.2503705 -0.56473333
0.1792625 2.3280225 -0.56364197
0.18677895 2.4256361 -0.56592017
0.19379167 2.5167079 -0.56509644
0.20191763 2.6222372 -0.56588018
0.20847179 2.7073538 -0.56067765
0.21888706 2.8426135 -0.56402552
0.22775286 2.9577508 -0.56129247
0.23864593 3.0992153 -0.56142068
0.2515336 3.2665832 -0.5636633
0.2653935 3.4465771 -0.56518364
0.27854809 3.6174116 -0.56227934
0.29545775 3.8370116 -0.5637024
0.31318957 4.0672889 -0.5629431
0.33326456 4.3279958 -0.56230432
0.35704768 4.6368594 -0.56317407
0.38312265 4.9754868 -0.5622614
0.41626444 5.4058881 -0.56530732
0.45040551 5.8492665 -0.56242639
0.49411541 6.4169126 -0.56306821
0.54632711 7.0949683 -0.56301373
0.60980093 7.919282 -0.56204253
0.69265991 8.9953442 -0.56309694
0.79822397 10.366269 -0.56221157
0.94396913 12.259013 -0.56242162
1.1528687 14.971924 -0.56186742
1.4816005 19.241055 -0.56151396
2.0676103 26.851368 -0.55964172
3.432368 44.575024 -0.55737376
0.13505083 2.0891352 -0.56094968
0.14089271 2.1795049 -0.56580228
0.14572033 2.2541845 -0.56519806
0.15019216 2.3233602 -0.56202358
0.1563549 2.4186933 -0.56380916
0.16318816 2.5243986 -0.5663299
0.16968638 2.6249213 -0.56596637
0.17562369 2.7167668 -0.56213725
0.18343715 2.8376355 -0.56254768
0.19161278 2.9641063 -0.56200898
0.20168358 3.119894 -0.56467462
0.21177621 3.2760196 -0.56479949
0.22214432 3.4364064 -0.5630253
0.23458596 3.6288693 -0.56356937
0.24923903 3.8555412 -0.56593156
0.26322603 4.0719099 -0.56309211
0.2800788 4.3326097 -0.56241381
0.30084932 4.653914 -0.56475341
0.32272631 4.9923344 -0.56367427
0.34839109 5.3893495 -0.56308728
0.37928405 5.8672404 -0.5636636
0.41499051 6.4195929 -0.56281304
0.4591673 7.1029744 -0.56315845
0.51313531 7.9378195 -0.56286782
0.58064854 8.9821987 -0.56178463
0.67108655 10.381207 -0.56253159
0.79273027 12.262944 -0.56211221
0.96857697 14.983161 -0.56179971
1.2449611 19.258617 -0.56153738
1.7406063 26.925877 -0.5607062
2.8901722 44.708801 -0.55855989
0.11005671 2.1040804 -0.56455654
0.1132707 2.1655262 -0.56176937
0.1173219 2.2429776 -0.56198394
0.12192639 2.3310068 -0.56346798
0.12566648 2.4025106 -0.55963439
0.13149865 2.5140107 -0.5635941
0.13679041 2.6151795 -0.56346065
0.14283933 2.7308235 -0.56463963
0.14869596 2.8427916 -0.56316477
0.15563005 2.9753585 -0.56373698
0.16346218 3.1250944 -0.56520933
0.17121468 3.2733078 -0.5639264
0.17962942 3.4341817 -0.5622564
0.18896599 3.61268 -0.5606519
0.20120139 3.8465981 -0.5642131
0.21376382 4.0867686 -0.56474072
0.22807103 4.3602958 -0.56560093
0.24304371 4.6465459 -0.56345403
0.2617951 5.0050378 -0.56470239
0.28216073 5.3943911 -0.56320888
0.30641207 5.8580313 -0.56237435
0.33555025 6.4150996 -0.56201494
0.37161145 7.1045227 -0.56287634
0.41561264 7.945744 -0.56302482
0.47081509 9.0011129 -0.562563
0.54392153 10.398772 -0.56307846
0.64282703 12.289662 -0.56293207
0.78472853 15.002558 -0.56212264
1.0092981 19.295912 -0.56222039
1.4109684 26.975103 -0.56132752
2.3450518 44.83305 -0.55970961
0.08465299 2.1171649 -0.56774497
0.086351916 2.1596546 -0.55992848
0.089883991 2.2479916 -0.56292075
0.093358219 2.3348818 -0.56408453
0.097063847 2.4275594 -0.56514841
0.10048534 2.5131307 -0.56307721
0.10428233 2.6080928 -0.56161505
0.10896295 2.7251549 -0.56314802
0.11375824 2.8450844 -0.56329936
0.11891896 2.974154 -0.56318909
0.12497967 3.1257317 -0.56500399
0.13045348 3.2626314 -0.56176823
0.13814421 3.4549758 -0.56533998
0.14551611 3.6393466 -0.56446993
0.15318012 3.831023 -0.5616098
0.16279832 4.0715733 -0.56232172
0.17387527 4.3486071 -0.56376475
0.18591325 4.6496758 -0.56351382
0.19944528 4.9881105 -0.56247336
0.21590705 5.3998184 -0.56345582
0.23477457 5.8716936 -0.56336623
0.25741574 6.4379478 -0.56369668
0.28481498 7.1232009 -0.56403607
0.31817934 7.9576406 -0.56354797
0.36054233 9.0171356 -0.56324476
0.41574073 10.397643 -0.56269795
0.49159494 12.294751 -0.56284571
0.60087043 15.027722 -0.56274617
0.77212423 19.310766 -0.56233406
1.0807071 27.0284 -0.56211758
1.797953 44.966663 -0.56105924
0.058015063 2.0963702 -0.56193489
0.06021028 2.1756942 -0.56385243
0.062199488 2.2475741 -0.56258214
0.064463004 2.3293662 -0.562518
0.066886663 2.416945 -0.56244338
0.06929329 2.5039082 -0.5607776
0.072250269 2.6107585 -0.56195527
0.075347297 2.7226694 -0.56240034
0.078584507 2.8396459 -0.56198871
0.082581528 2.9840779 -0.56483328
0.086436391 3.123373 -0.5643428
0.090702713 3.2775362 -0.56409991
0.095273606 3.4427052 -0.56309789
0.10035419 3.6262918 -0.56221122
0.10607605 3.833051 -0.5616734
0.11267582 4.0715332 -0.56208235
0.11994085 4.3340545 -0.56164443
0.12859702 4.6468444 -0.56293643
0.13800165 4.98668 -0.56207818
0.15010476 5.4240251 -0.56574631
0.16261764 5.8761768 -0.56356192
0.17798121 6.4313388 -0.56288385
0.19701384 7.119081 -0.56347543
0.22026312 7.9591928 -0.56342345
0.24964723 9.0209856 -0.5632509
0.28796944 10.405755 -0.56290281
0.34072152 12.311949 -0.56339866
0.41640815 15.04688 -0.56322926
0.53547883 19.349491 -0.56322736
0.74899817 27.064997 -0.5626446
1.2474458 45.076366 -0.56219417
0.032275636 2.0995901 -0.56264907
0.033328768 2.1680982 -0.56173509
0.03471534 2.2582974 -0.56511664
0.036148008 2.351495 -0.56771159
0.037319604 2.4277096 -0.56479889
0.038583722 2.5099428 -0.56198037
0.040375058 2.6264725 -0.56518805
0.041919328 2.7269301 -0.56313145
0.04363903 2.8388 -0.56167263
0.045668881 2.9708455 -0.56217986
0.04827778 3.1405592 -0.56729794
0.050137516 3.2615385 -0.56119794
0.05294564 3.4442122 -0.56319529
0.056011796 3.6436713 -0.56475616
0.059059493 3.8419297 -0.56282544
0.062721282 4.0801358 -0.56312096
0.066601679 4.3325629 -0.5613026
0.071886517 4.6763515 -0.56636113
0.077064656 5.0131989 -0.56491774
0.083393946 5.424931 -0.56569105
0.090296559 5.8739586 -0.56320012
0.099172242 6.4513383 -0.56448483
0.10969304 7.135736 -0.56464422
0.12231115 7.9565673 -0.5630886
0.13897771 9.0407581 -0.56433606
0.16017073 10.419404 -0.56349194
0.18944615 12.323824 -0.56379282
0.23157001 15.064058 -0.56372309
0.29777426 19.370768 -0.56369752
0.41679505 27.113291 -0.56349945
0.69440734 45.172485 -0.56324393
0.0064792344 2.106863 -0.56453407
0.0066535091 2.1635323 -0.56048858
0.0069179591 2.2495239 -0.56285733
0.0071999049 2.3412046 -0.56516314
0.0074575203 2.4249737 -0.56409842
0.0077281562 2.5129769 -0.5625959
0.0080375466 2.6135821 -0.56235039
0.0084005119 2.7316079 -0.56403345
0.0087734796 2.8528862 -0.56439573
0.0091757048 2.9836786 -0.56454426
0.009634316 3.1328061 -0.56583327
0.010083866 3.2789872 -0.56413627
0.010632887 3.4575131 -0.56530613
0.011216183 3.6471841 -0.56523657
0.011870675 3.8600063 -0.56540948
0.012553499 4.0820417 -0.56332004
0.013393243 4.3551021 -0.56415868
0.014318635 4.6560135 -0.56383401
0.015360127 4.9946771 -0.56276679
0.016644228 5.4122305 -0.56430274
0.018096616 5.8845057 -0.56414735
0.019845469 6.4531827 -0.56458217
0.02193938 7.1340632 -0.56444782
0.024530947 7.9767675 -0.56445414
0.027764896 9.0283556 -0.56349802
0.03206389 10.426267 -0.56379914
0.037920795 12.330766 -0.56404644
0.046330582 15.06539 -0.56370896
0.059624594 19.388226 -0.56414157
0.083512381 27.155855 -0.56432003
0.13917576 45.256004 -0.56422126
-0.019473154 2.1118672 -0.56589627
-0.019998059 2.1687932 -0.56187272
-0.020816991 2.2576065 -0.56490105
-0.02134596 2.3149734 -0.55885208
-0.022343948 2.4232054 -0.56370836
-0.023101062 2.5053146 -0.5609017
-0.024044901 2.6076741 -0.56110036
-0.025128968 2.7252414 -0.56274015
-0.026279302 2.8499954 -0.5638451
-0.027423104 2.9740407 -0.56274194
-0.028909076 3.1351948 -0.56628609
-0.030270902 3.2828851 -0.56482828
-0.03179013 3.4476457 -0.56371415
-0.033561833 3.6397874 -0.56411153
-0.035608459 3.8617442 -0.56568545
-0.037715204 4.0902209 -0.56447011
-0.040045135 4.3429027 -0.5625996
-0.043007914 4.6642165 -0.56484872
-0.046088275 4.998282 -0.56319422
-0.049801365 5.4009676 -0.56314969
-0.05417813 5.8756285 -0.5633176
-0.059477121 6.450305 -0.56435174
-0.065714084 7.1267052 -0.56388694
-0.073394217 7.9596167 -0.56326175
-0.083468921 9.0522203 -0.56500888
-0.096092075 10.421204 -0.56354672
-0.11353599 12.313 -0.56325507
-0.13897586 15.071959 -0.56397605
-0.17895545 19.407753 -0.56473112
-0.25068122 27.186428 -0.56497669
-0.41809809 45.342819 -0.56532496
-0.045345441 2.107156 -0.5647406
-0.046822105 2.1757753 -0.56378812
-0.048463844 2.2520652 -0.56362098
-0.050308891 2.3378026 -0.56446987
-0.052114803 2.4217217 -0.56346965
-0.054056175 2.511935 -0.56249022
-0.05622847 2.6128793 -0.56232667
-0.058712348 2.7283027 -0.56347877
-0.061509691 2.8582923 -0.56559348
-0.063970171 2.9726281 -0.56258094
-0.067020647 3.1143808 -0.56263292
-0.070527129 3.2773237 -0.56397796
-0.07384599 3.4315476 -0.56118804
-0.07835865 3.6412461 -0.56444424
-0.08289057 3.85184 -0.56434125
-0.087737158 4.0770559 -0.56275964
-0.093679622 4.3531961 -0.56403965
-0.10022596 4.6573977 -0.56412959
-0.10753483 4.9970331 -0.56315994
-0.11641246 5.4095678 -0.56415302
-0.12655425 5.880846 -0.56392437
-0.13887909 6.4535694 -0.56474406
-0.153339 7.1255059 -0.56389862
-0.17136596 7.9632006 -0.56362188
-0.19458163 9.0420094 -0.56447816
-0.22454786 10.434509 -0.56437284
-0.2656326 12.343675 -0.56476498
-0.32479635 15.092954 -0.56486839
-0.41801301 19.424637 -0.56532919
-0.58593762 27.227921 -0.56594592
-0.97802275 45.447716 -0.56673986
-0.070928179 2.0969062 -0.56218481
-0.073376864 2.1692986 -0.56230116
-0.076160714 2.2515998 -0.56369632
-0.078883879 2.3321071 -0.5632863
-0.08210291 2.4272738 -0.56495368
-0.085170485 2.5179629 -0.5640319
-0.08858826 2.6190052 -0.56383687
-0.092370614 2.7308261 -0.56419188
-0.096399464 2.8499341 -0.56413144
-0.10093065 2.9838932 -0.56490505
-0.10567407 3.1241267 -0.56458569
-0.11085488 3.2772911 -0.56416428
-0.11696689 3.4579852 -0.56570399
-0.12252399 3.6222742 -0.56169438
-0.13053854 3.8592145 -0.56561416
-0.13818362 4.0852327 -0.56408018
-0.14701729 4.3463888 -0.56334931
-0.15734491 4.6517124 -0.56363267
-0.16928196 5.0046172 -0.5642066
-0.18289526 5.4070783 -0.5640853
-0.1994874 5.8976045 -0.56572384
-0.21826258 6.4526706 -0.56485754
-0.24076937 7.1180568 -0.56350082
-0.2702716 7.9902539 -0.56572914
-0.3061246 9.0502052 -0.56518215
-0.3528882 10.432714 -0.56446779
-0.41721791 12.334545 -0.56453931
-0.51066929 15.097322 -0.56522417
-0.65740049 19.435253 -0.56583071
-0.92094469 27.226622 -0.56611151
-1.5402521 45.535698 -0.5680303
-0.097642854 2.1161926 -0.56763446
-0.10025496 2.1728041 -0.56348681
-0.10399293 2.2538164 -0.56452864
-0.10770369 2.3342388 -0.56407839
-0.11159056 2.418478 -0.56318331
-0.11639602 2.5226259 -0.56535429
-0.12104031 2.6232805 -0.56503499
-0.12575741 2.7255135 -0.56337112
-0.13155499 2.8511631 -0.56465226
-0.13731039 2.9758985 -0.56366861
-0.14435388 3.1285505 -0.56566316
-0.15188324 3.2917328 -0.56692898
-0.15891023 3.4440272 -0.56369758
-0.16783892 3.6375368 -0.56433851
-0.17744391 3.8457036 -0.56391108
-0.18885615 4.0930386 -0.56543595
-0.20067915 4.3492761 -0.56400067
-0.21423542 4.6430783 -0.56286311
-0.23136203 5.0142593 -0.56557161
-0.24917161 5.4002428 -0.56364918
-0.27177536 5.8901291 -0.56528461
-0.29775029 6.4530783 -0.565171
-0.3289299 7.1288271 -0.56463099
-0.36776331 7.9704552 -0.56460482
-0.41690597 9.0355129 -0.56454206
-0.4821305 10.449111 -0.56563294
-0.56933457 12.339065 -0.5650239
-0.69619137 15.088406 -0.56516814
-0.89698637 19.440193 -0.56625283
-1.257524 27.254045 -0.56696039
-2.1044765 45.609863 -0.56923527
-0.12235541 2.092602 -0.5616678
-0.12711449 2.173995 -0.56415832
-0.13125029 2.2447281 -0.56261402
-0.13609634 2.3276083 -0.56283802
-0.14198731 2.4283595 -0.56584817
-0.14685741 2.5116513 -0.56325686
-0.15338549 2.6232986 -0.56540239
-0.15987378 2.7342656 -0.56554383
-0.16633952 2.844847 -0.56376386
-0.17412429 2.9779871 -0.56442708
-0.18197617 3.1122754 -0.56308252
-0.19130233 3.2717772 -0.56385458
-0.20074084 3.4332008 -0.56228709
-0.21287188 3.6406736 -0.56518859
-0.22375228 3.8267574 -0.56149393
-0.23804523 4.0712047 -0.56278151
-0.2544575 4.3518982 -0.56470376
-0.27280185 4.6656351 -0.56596148
-0.29285046 5.0085196 -0.56528765
-0.3156738 5.398859 -0.56386733
-0.34356523 5.8758764 -0.56427956
-0.37663838 6.441515 -0.56452125
-0.41693088 7.1306238 -0.56513661
-0.46596572 7.9692497 -0.56488264
-0.52809125 9.0317612 -0.56467068
-0.61014926 10.435171 -0.56524175
-0.72069269 12.325757 -0.56477761
-0.88259852 15.094775 -0.56577045
-1.1366819 19.440277 -0.56661952
-1.5954454 27.286346 -0.56799752
-2.6704786 45.672264 -0.57038075
-0.1490981 2.1053746 -0.56554538
-0.15421633 2.1776478 -0.56555557
-0.1597908 2.2563634 -0.5659799
-0.16470973 2.3258224 -0.56285334
-0.17158063 2.4228444 -0.56501192
-0.17818858 2.5161533 -0.56471515
-0.18592675 2.6254222 -0.56631005
-0.19340619 2.7310374 -0.56532532
-0.20115304 2.8404286 -0.56333584
-0.2107811 2.9763837 -0.56457174
-0.2203306 3.1112297 -0.5633409
-0.23200537 3.2760861 -0.56504607
-0.24362858 3.4402142 -0.56388378
-0.25767252 3.6385248 -0.5653041
-0.27225992 3.8445098 -0.56454724
-0.28929323 4.0850329 -0.56514204
-0.30765125 4.3442612 -0.56416106
-0.32969883 4.6555891 -0.56519192
-0.3534953 4.9916129 -0.5638274
-0.38213018 5.3959584 -0.56401247
-0.41616589 5.8765678 -0.56479466
-0.45636025 6.4441414 -0.56520045
-0.50476748 7.127687 -0.56535304
-0.56399351 7.9640021 -0.56495953
-0.64021015 9.0402365 -0.56564999
-0.73904127 10.435804 -0.56572556
-0.87406301 12.342411 -0.56599039
-1.0678276 15.078509 -0.56561017
-1.375851 19.428026 -0.56671274
-1.9318835 27.279612 -0.56830889
-3.2386153 45.731625 -0.57157618
-0.17463793 2.0993476 -0.56446064
-0.18054631 2.1703732 -0.56420016
-0.18648028 2.2417061 -0.56283599
-0.19389214 2.3308053 -0.56459349
-0.20090479 2.4151053 -0.56374067
-0.20943204 2.5176127 -0.56557792
-0.21628164 2.5999527 -0.56134742
-0.22678475 2.726212 -0.564861
-0.23659334 2.8441224 -0.56460273
-0.24531926 2.949018 -0.55991077
-0.25861725 3.108875 -0.56344777
-0.27100834 3.2578301 -0.56242967
-0.28485298 3.4242587 -0.56180018
-0.3008759 3.6168723 -0.56247234
-0.31934872 3.8389366 -0.56426287
-0.33767194 4.0592027 -0.56210053
-0.36141789 4.344656 -0.5647468
-0.38701409 4.6523519 -0.5653339
-0.41411224 4.9781027 -0.56283402
-0.44928533 5.4009237 -0.56506622
-0.48860186 5.8735533 -0.56503963
-0.53583431 6.4413409 -0.56549001
-0.59156156 7.1112461 -0.56458324
-0.66216666 7.9600005 -0.56521052
-0.75111508 9.0292616 -0.56549847
-0.86805975 10.435071 -0.56622159
-1.0252981 12.325256 -0.5657391
-1.2551222 15.088004 -0.56650245
-1.6172187 19.440819 -0.56762308
-2.2719724 27.311707 -0.56951648
-3.810787 45.810017 -0.5730983
-0.19958955 2.0881717 -0.56207311
-0.2075738 2.1717055 -0.56516737
-0.21543016 2.2539012 -0.56652015
-0.22288784 2.3319263 -0.56548619
-0.2310788 2.4176228 -0.56494886
-0.2389289 2.499753 -0.56218326
-0.25143272 2.6305721 -0.56858289
-0.2600725 2.7209644 -0.56439364
-0.27106822 2.8360052 -0.56361043
-0.28469017 2.9785223 -0.56613445
-0.29765356 3.1141496 -0.56502438
-0.311349 3.257436 -0.56298
-0.32746094 3.4260044 -0.56270468
-0.3451927 3.6115201 -0.56225753
-0.36751491 3.8450623 -0.56578469
-0.38887212 4.0685086 -0.56400865
-0.41433239 4.3348823 -0.56409591
-0.44371837 4.6423283 -0.56473619
-0.47806481 5.0016718 -0.56612062
-0.51614851 5.400116 -0.56560302
-0.5615949 5.8755913 -0.56585729
-0.61501211 6.4344602 -0.56550705
-0.67948687 7.1090159 -0.56502682
-0.76022947 7.9537716 -0.56538928
-0.86130971 9.0113068 -0.56499451
-0.9969874 10.430811 -0.56661284
-1.1797155 12.342573 -0.56715697
-1.4413409 15.079785 -0.56681645
-1.8569131 19.427639 -0.56786197
-2.6095736 27.302221 -0.56994468
-4.3808889 45.834305 -0.57403266
-0.22537613 2.0867307 -0.56238866
-0.23416369 2.1680937 -0.56493402
-0.24176249 2.2384501 -0.56334108
-0.25114936 2.325362 -0.56460065
-0.26118127 2.418246 -0.56580222
-0.27102569 2.5093946 -0.56505841
-0.28181475 2.6092892 -0.56468904
-0.29348856 2.7173755 -0.56435513
-0.30620065 2.8350754 -0.56413126
-0.32077384 2.9700067 -0.5652228
-0.33631104 3.1138639 -0.56568009
-0.3528913 3.2673786 -0.56540555
-0.37093195 3.4344146 -0.56479251
-0.39033276 3.6140447 -0.56335527
-0.41520709 3.844353 -0.56638879
-0.43733245 4.0492091 -0.56203622
-0.46917865 4.344069 -0.56599939
-0.50135642 4.6419992 -0.5654034
-0.53725851 4.9744129 -0.56374037
-0.58264625 5.3946524 -0.56573832
-0.63349164 5.8654237 -0.56558549
-0.69428241 6.4282784 -0.56567132
-0.7673015 7.1043534 -0.56536341
-0.85827041 7.9466238 -0.56558859
-0.97471666 9.024785 -0.56654829
-1.1261092 10.426511 -0.5670886
-1.3313152 12.326488 -0.56712717
-1.6288224 15.081074 -0.5675748
-2.0970433 19.416273 -0.56824058
-2.9490857 27.305233 -0.57072145
-4.9557557 45.884754 -0.5753842
-0.25208741 2.0926914 -0.56478781
-0.26106659 2.1672316 -0.56550312
-0.27076277 2.2477241 -0.56647009
-0.27915293 2.3173745 -0.56345201
-0.29039145 2.4106705 -0.56482249
-0.30181426 2.5054963 -0.56497359
-0.31438416 2.6098449 -0.56560314
-0.32692772 2.7139747 -0.56444103
-0.33921653 2.8159895 -0.56112105
-0.35757545 2.9683952 -0.56571013
-0.37473878 3.1108758 -0.56593156
-0.39119768 3.2475083 -0.56275702
-0.41265786 3.4256592 -0.56414443
-0.43623939 3.6214199 -0.56529838
-0.46006608 3.8192163 -0.56347626
-0.490226 4.0695872 -0.56565869
-0.52093166 4.3244891 -0.56424016
-0.5589357 4.6399779 -0.56595153
-0.60004598 4.9812522 -0.56530893
-0.6478315 5.3779416 -0.56477857
-0.70520222 5.8542023 -0.56529689
-0.77453035 6.4297261 -0.566594
-0.85456079 7.0940952 -0.56534058
-0.95514679 7.9291043 -0.56513494
-1.0839272 8.9981689 -0.56567132
-1.252767 10.399784 -0.56642997
-1.4841264 12.320403 -0.56764394
-1.8153112 15.069717 -0.56794459
-2.3407116 19.431303 -0.5694797
-3.2874277 27.290422 -0.5712136
-5.5324516 45.92738 -0.57672822
-0.27802742 2.0911508 -0.56525195
-0.28836614 2.1689122 -0.56682402
-0.29883987 2.247689 -0.56734449
-0.30863607 2.3213701 -0.56530356
-0.31913254 2.4003181 -0.56327379
-0.33272046 2.5025179 -0.56518179
-0.34540066 2.5978906 -0.56389028
-0.36144936 2.7185988 -0.56628436
-0.37601829 2.8281775 -0.56442833
-0.39222121 2.9500461 -0.56308979
-0.41055357 3.0879304 -0.56263322
-0.43227243 3.2512865 -0.56429017
-0.45506647 3.4227293 -0.5645408
-0.48105586 3.6182053 -0.56567717
-0.50678867 3.8117516 -0.56325173
-0.54158169 4.0734434 -0.56707746
-0.5742836 4.319407 -0.56445581
-0.61540484 4.6286955 -0.56545562
-0.66075975 4.9698272 -0.5648917
-0.71586019 5.3842587 -0.56632358
-0.77897501 5.8589697 -0.5666393
-0.85597157 6.4380903 -0.56821555
-0.94128484 7.0797634 -0.56507814
-1.0545235 7.9314747 -0.56618524
-1.1967756 9.0014076 -0.5667572
-1.3813405 10.389591 -0.56675708
-1.6345729 12.294249 -0.56732208
-2.0016942 15.055509 -0.56829375
-2.5830693 19.428253 -0.57027811
-3.628211 27.289164 -0.57207781
-6.1095638 45.95237 -0.57794172
-0.30297297 2.0824518 -0.56386495
-0.31325871 2.1531494 -0.56366867
-0.3247804 2.2323427 -0.56443626
-0.33658156 2.3134565 -0.56434166
-0.3488355 2.3976827 -0.56361932
-0.36219576 2.4895129 -0.56320798
-0.37958056 2.6090055 -0.56727308
-0.39386401 2.7071812 -0.56487215
-0.41215262 2.832886 -0.56633663
-0.43062979 2.9598868 -0.56593609
-0.45076722 3.0982993 -0.56548965
-0.47144556 3.2404296 -0.56336939
-0.49686086 3.4151189 -0.56425059
-0.52431053 3.603791 -0.56438887
-0.55574757 3.8198705 -0.56541854
-0.5892939 4.0504475 -0.56484216
-0.62732762 4.3118682 -0.56443596
-0.67171091 4.6169314 -0.5649848
-0.72162503 4.960011 -0.56474185
-0.78287733 5.3810215 -0.56695282
-0.84985369 5.8413768 -0.56590575
-0.9315412 6.4028468 -0.56607324
-1.0299519 7.0792627 -0.56600618
-1.1535871 7.9290552 -0.56698227
-1.308144 8.9913845 -0.56709605
-1.5115397 10.389403 -0.56771785
-1.7873654 12.285261 -0.5678786
-2.1889834 15.045738 -0.56889796
-2.822324 19.398937 -0.57039315
-3.9681759 27.274824 -0.57275683
-6.6877732 45.967678 -0.57912475
-0.32798621 2.074971 -0.56288886
-0.34017503 2.1520822 -0.56444168
-0.35355079 2.2367027 -0.56659508
-0.36455235 2.3063028 -0.56364751
-0.37974715 2.4024312 -0.56579041
-0.39213774 2.480819 -0.56228948
-0.40994266 2.5934601 -0.56494635
-0.42631325 2.697027 -0.56380457
-0.44543785 2.8180168 -0.56441635
-0.464598 2.9392316 -0.5630365
-0.48799556 3.0872538 -0.5645262
-0.51421654 3.2531381 -0.56663531
-0.54051656 3.4195223 -0.56603348
-0.56750458 3.5902596 -0.56331998
-0.60003734 3.7960746 -0.56294584
-0.63966477 4.0467734 -0.56538397
-0.67971736 4.3001623 -0.56395513
-0.72732973 4.6013765 -0.56413311
-0.78498048 4.9660978 -0.56649113
-0.84660381 5.3559523 -0.56536555
-0.92149276 5.8297291 -0.56583232
-1.0099972 6.3896441 -0.56596118
-1.1189357 7.0788312 -0.56702894
-1.2516011 7.9181256 -0.56725836
-1.4162704 8.9598885 -0.56616515
-1.6375539 10.359817 -0.56715852
-1.940038 12.27345 -0.5683924
-2.3756323 15.029193 -0.56933385
-3.0634747 19.380756 -0.57092303
-4.3102937 27.268629 -0.57369632
-7.26752 45.977219 -0.58032691
-0.35338324 2.0702479 -0.56274384
-0.3659941 2.1441269 -0.56349289
-0.38056991 2.2295172 -0.56591749
-0.39272669 2.3007362 -0.56342471
-0.4082056 2.3914173 -0.564336
-0.42463437 2.487663 -0.56498146
-0.43868017 2.5699484 -0.56095731
-0.46052206 2.697906 -0.56512946
-0.48258674 2.8271689 -0.56739515
-0.50220597 2.9421055 -0.56472731
-0.5251469 3.0765018 -0.56369829
-0.55210888 3.2344551 -0.5645209
-0.58097243 3.4035482 -0.56452912
-0.61327595 3.5927942 -0.5648582
-0.64716607 3.7913349 -0.56338048
-0.68931615 4.0382652 -0.56533676
-0.73122638 4.2837906 -0.56294471
-0.7864204 4.6071377 -0.56598222
-0.8460716 4.9565959 -0.56655115
-0.91263378 5.3465414 -0.56551403
-0.99218982 5.8126097 -0.56531215
-1.0883164 6.3757548 -0.5658735
-1.2053894 7.0616107 -0.56679398
-1.3494282 7.9054422 -0.56749558
-1.5295823 8.9608507 -0.56737155
-1.7657588 10.344459 -0.56746352
-2.0905013 12.246919 -0.56831121
-2.5621495 15.010006 -0.56975746
-3.3047898 19.360664 -0.57148504
-4.6504669 27.244129 -0.57434058
-7.8479171 45.97596 -0.58148515
-0.37896433 2.0665805 -0.56297112
-0.39557084 2.1571398 -0.5681482
-0.4074055 2.2216771 -0.56515628
