# .PCD v0.7 - Point Cloud Data file format
VERSION 0.7
FIELDS x y z
SIZE 4 4 4
TYPE F F F
COUNT 1 1 1
WIDTH 1474
HEIGHT 1
VIEWPOINT 0 0 0 1 0 0 0
POINTS 1474
DATA ascii
1.9699283 3.54498 -0.55966187
2.086607 3.7549491 -0.55646914
2.2429852 4.0363593 -0.559192
2.4109473 4.3386145 -0.5592503
2.6014597 4.6814513 -0.55840653
2.8321743 5.096633 -0.55898488
3.0908718 5.5621715 -0.5567134
3.418787 6.1522708 -0.55687332
3.8126364 6.861021 -0.55542392
4.3209982 7.7758427 -0.55522025
4.9725957 8.9484234 -0.55357468
5.8605204 10.546286 -0.55189753
7.12252 12.817315 -0.54866308
9.0967932 16.370113 -0.5449239
12.558746 22.600063 -0.53728628
20.301365 36.533276 -0.52106988
0.9982667 1.8496325 -0.563182
1.0320272 1.9121855 -0.56291509
1.061103 1.9660584 -0.55900228
1.1052667 2.0478868 -0.56175882
1.1479336 2.1269419 -0.56222862
1.1900622 2.2049997 -0.56095248
1.2423743 2.3019259 -0.56282276
1.2957062 2.4007413 -0.5633021
1.3523166 2.5056319 -0.56328213
1.408908 2.610487 -0.56127661
1.4760932 2.7349706 -0.56132847
1.5546229 2.8804739 -0.56314176
1.6255691 3.0119262 -0.55959481
1.7160388 3.1795523 -0.55994838
1.8167375 3.3661313 -0.56029356
1.9267738 3.5700114 -0.5598309
2.0463002 3.7914753 -0.55811101
2.1938195 4.064806 -0.55935341
2.3481882 4.3508267 -0.55706036
2.5464742 4.7182198 -0.55901504
2.7595427 5.1130023 -0.55701643
3.0236897 5.6024261 -0.55697894
3.3378339 6.1844859 -0.55603218
3.7287169 6.908731 -0.55553252
4.2191648 7.8174548 -0.55444509
4.859735 9.0043316 -0.55329472
5.727376 10.611935 -0.55160582
6.9642906 12.903745 -0.54865557
8.8964596 16.483751 -0.54502392
12.29985 22.789705 -0.53815848
19.885859 36.845398 -0.52199453
0.97448283 1.859923 -0.56262416
1.0023348 1.913082 -0.55950838
1.0382944 1.9817154 -0.55978155
1.0796584 2.0606637 -0.56157941
1.1158054 2.1296546 -0.55927658
1.1620245 2.2178698 -0.5605492
1.2148027 2.3186035 -0.5632056
1.262408 2.4094644 -0.56166404
1.3162196 2.5121706 -0.56107122
1.3726505 2.6198759 -0.55962396
1.4464474 2.7607265 -0.56292164
1.5059752 2.8743429 -0.55828059
1.5913389 3.0372701 -0.56062555
1.6797172 3.2059512 -0.56091762
1.7810677 3.3993914 -0.56214178
1.8840628 3.5959706 -0.56022638
2.0051343 3.8270509 -0.55967605
2.1372385 4.0791879 -0.55767393
2.3025191 4.3946471 -0.55900365
2.4874616 4.747633 -0.55883372
2.6982865 5.1500187 -0.55739236
2.9580235 5.6457596 -0.55762875
3.2697525 6.2407331 -0.55743223
3.6437485 6.9545522 -0.55557215
4.1296797 7.8820124 -0.55538028
4.7551188 9.0757418 -0.55404794
5.6039591 10.69586 -0.55234462
6.8155193 13.008275 -0.54949516
8.7083092 16.620903 -0.54597688
12.026757 22.954576 -0.53851885
19.46081 37.143398 -0.52278668
0.95771378 1.8839077 -0.56627434
0.98221892 1.9321114 -0.561499
1.0147313 1.9960662 -0.56026834
1.0566137 2.0784526 -0.56284398
1.0960422 2.1560118 -0.56261647
1.1346062 2.2318707 -0.56051928
1.1818261 2.3247564 -0.56112778
1.2268838 2.4133887 -0.55901986
1.2854834 2.5286593 -0.56118107
1.3390672 2.6340635 -0.55909503
1.4004956 2.7548988 -0.55817968
1.4714404 2.8944533 -0.55863005
1.5503725 3.0497196 -0.55936235
1.6428714 3.2316732 -0.56184101
1.729964 3.402992 -0.55917722
1.8334062 3.606472 -0.55830795
1.9622139 3.8598483 -0.56090146
2.0923941 4.1159239 -0.55913645
2.2459145 4.417912 -0.5584079
2.4280288 4.7761474 -0.55863357
2.6343153 5.181931 -0.55729824
2.8817778 5.6687117 -0.55635369
3.1880956 6.2712655 -0.55661577
3.5609441 7.0046916 -0.5560376
4.0298676 7.9271064 -0.55502409
4.6435132 9.134201 -0.55408913
5.4709749 10.761891 -0.5522387
6.6596227 13.100066 -0.54987186
8.5016642 16.723526 -0.54587263
11.758989 23.130972 -0.53922409
19.02944 37.43259 -0.52352399
0.92490304 1.876119 -0.56047225
0.9537735 1.9346814 -0.55879527
0.98529035 1.9986118 -0.55754
1.0304713 2.0902591 -0.56256729
1.0650749 2.1604507 -0.56031483
1.1058054 2.2430704 -0.55987477
1.1547799 2.3424127 -0.56191957
1.2006832 2.4355254 -0.56068516
1.2514133 2.5384288 -0.55989182
1.3041134 2.645328 -0.55804008
1.376833 2.7928362 -0.56239355
1.4417765 2.9245708 -0.56097871
1.5090357 3.0610027 -0.55798626
1.5986998 3.2428818 -0.56032962
1.6898048 3.4276838 -0.55977786
1.7920514 3.6350858 -0.55928397
1.9186534 3.8918915 -0.562087
2.0437107 4.1455636 -0.55970675
2.1947005 4.451839 -0.55924278
2.3750105 4.8175888 -0.56002253
2.5675554 5.2081566 -0.55668116
2.8218663 5.7240133 -0.55833352
3.1170089 6.3226953 -0.55773646
3.4753342 7.04954 -0.55616337
3.9322734 7.976418 -0.5550493
4.5329247 9.194809 -0.55434257
5.3443599 10.840764 -0.552872
6.4994574 13.183821 -0.54999119
8.2973061 16.830666 -0.54599822
11.484559 23.295849 -0.53973484
18.600777 37.730736 -0.52445525
0.90438962 1.8928422 -0.56210339
0.93191165 1.9504445 -0.55999601
0.97211248 2.0345829 -0.56419736
0.99675906 2.0861669 -0.55812502
1.0409237 2.1786013 -0.56166011
1.0819753 2.2645202 -0.56186533
1.1179395 2.3397913 -0.55795085
1.166218 2.440836 -0.55856419
1.2240951 2.5619698 -0.56172174
1.2788633 2.6765971 -0.56127661
1.3318098 2.7874112 -0.55796117
1.4078202 2.9464972 -0.56182146
1.4796695 3.096874 -0.56116605
1.5562583 3.2571707 -0.55944973
1.6438317 3.4404573 -0.55852067
1.7459824 3.6542537 -0.5588876
1.8614632 3.8959494 -0.55932492
1.9941608 4.1736789 -0.56014961
2.140893 4.4807816 -0.55952924
2.3083885 4.8313413 -0.5582794
2.5080657 5.2492561 -0.5577355
2.7469454 5.7492194 -0.5574553
3.0432346 6.369338 -0.55850762
3.3915579 7.098361 -0.55668277
3.8403344 8.0376282 -0.55598056
4.4211745 9.2532969 -0.55454922
5.2087941 10.901746 -0.55267376
6.3425951 13.274734 -0.55048865
8.1011829 16.955372 -0.54677081
11.20926 23.460419 -0.54031342
18.176332 38.042152 -0.52563751
0.87891668 1.8992143 -0.56074381
0.91048825 1.9674358 -0.56161755
0.94352341 2.0388203 -0.56211263
0.97609031 2.1091926 -0.5610317
1.0125058 2.1878812 -0.56080037
1.0469421 2.2622933 -0.55807644
1.0950774 2.3663068 -0.56102031
1.1441536 2.4723535 -0.5625146
1.188964 2.5691826 -0.56005532
1.2438586 2.6878018 -0.56037652
1.3071904 2.8246529 -0.56215584
1.3759692 2.973274 -0.56365842
1.4446779 3.1217442 -0.56241113
1.5193908 3.2831879 -0.56066698
1.6076422 3.4738865 -0.56069595
1.701216 3.6760864 -0.55898505
1.8154182 3.9228613 -0.55994141
1.9367111 4.1849575 -0.55842495
2.0847564 4.5048628 -0.55929291
2.2512863 4.8647099 -0.5588941
2.448143 5.2900891 -0.55883336
2.674001 5.7781367 -0.55702889
2.959806 6.3957205 -0.5575875
3.3095119 7.1513853 -0.55760753
3.7424588 8.0869217 -0.55616504
4.3061638 9.3050079 -0.55443305
5.0737514 10.963657 -0.55260772
6.1831532 13.360917 -0.55086797
7.8948531 17.059656 -0.54696184
10.922163 23.601244 -0.54042274
17.737492 38.328201 -0.52653641
0.85195303 1.9019624 -0.55842
0.885939 1.9778353 -0.56143397
0.9190008 2.0516448 -0.56249034
0.95378399 2.1292973 -0.56321728
0.9845134 2.1979001 -0.56022304
1.0304087 2.3003602 -0.56429875
1.0668132 2.3816321 -0.5615012
1.1100602 2.4781799 -0.56069225
1.160473 2.5907249 -0.56159824
1.2154002 2.7133486 -0.56254435
1.2761761 2.8490293 -0.56384152
1.3297868 2.9687138 -0.55965167
1.4046766 3.1359031 -0.56180769
1.4783669 3.3004148 -0.56046212
1.5644643 3.492625 -0.56057304
1.6588488 3.7033358 -0.55998456
1.7731977 3.9586167 -0.5618903
1.8904412 4.2203598 -0.56000471
2.0296845 4.5312166 -0.55942392
2.1849244 4.8777857 -0.55726755
2.3816092 5.3168793 -0.55852753
2.6122127 5.8316956 -0.55905324
2.889924 6.4516788 -0.5593257
3.2173386 7.1826229 -0.55691636
3.6442909 8.1357822 -0.55640143
4.1974859 9.3707752 -0.55523431
4.9444108 11.038266 -0.553262
6.018714 13.436619 -0.55089617
7.690093 17.167929 -0.54736006
10.655318 23.787714 -0.54165143
17.292978 38.606113 -0.52739316
0.83067912 1.9173168 -0.55988675
0.85732567 1.9788206 -0.55867887
0.89569807 2.067389 -0.5637446
0.92034781 2.124284 -0.55885547
0.95800376 2.2111988 -0.56056774
0.99920517 2.3062971 -0.56269854
1.0400949 2.4006758 -0.56293315
1.0866493 2.5081296 -0.56440258
1.1312273 2.6110213 -0.56294006
1.1780319 2.7190528 -0.56068128
1.2356595 2.8520648 -0.56139278
1.2951491 2.9893744 -0.56050193
1.3614612 3.1424315 -0.55993575
1.4390743 3.321573 -0.56100768
1.5227865 3.5147915 -0.56108302
1.6179668 3.7344804 -0.56164312
1.7164426 3.9617753 -0.55930054
1.8412621 4.2498751 -0.56087446
1.9712738 4.5499597 -0.55870306
2.1344728 4.9266443 -0.55980861
2.3164871 5.3467569 -0.5586316
2.5326445 5.8456769 -0.55736601
2.8040559 6.4721303 -0.55806732
3.1354148 7.2369504 -0.55809712
3.5462058 8.1851101 -0.55675066
4.0853014 9.4294138 -0.55569023
4.8119698 11.10666 -0.55368245
5.8557281 13.515791 -0.55114836
7.4857244 17.278038 -0.54789448
10.374064 23.944708 -0.5422805
16.847237 38.885639 -0.52834177
0.81052148 1.9356955 -0.56230074
0.83895391 2.0035982 -0.56271923
0.86430073 2.0641317 -0.55991602
0.90136939 2.1526594 -0.563362
0.93050396 2.2222388 -0.56042349
0.96708137 2.3095934 -0.56055903
1.0163727 2.4273112 -0.5662055
1.0497342 2.5069859 -0.56119806
1.0965021 2.6186774 -0.56164128
1.1430267 2.7297878 -0.55995435
1.1939564 2.8514185 -0.55833352
1.2574102 3.0029595 -0.56010777
1.3251169 3.1646574 -0.56095022
1.3979112 3.3385055 -0.56092191
1.4735702 3.5191953 -0.55885124
1.5716476 3.7534246 -0.56154329
1.6684736 3.9846654 -0.55959332
1.7895508 4.2738233 -0.56108844
1.9198073 4.5849028 -0.56005275
2.0686898 4.9404659 -0.55844641
2.253619 5.3821149 -0.55938822
2.4543419 5.8614836 -0.55595356
2.7254515 6.5089502 -0.55831021
3.0430503 7.2674432 -0.55752087
3.4433286 8.2233925 -0.55643249
3.9728937 9.4881048 -0.55622798
4.6787882 11.173928 -0.55412591
5.6961446 13.603589 -0.55183065
7.2753096 17.374968 -0.54808992
10.084995 24.085087 -0.54261023
16.395279 39.155373 -0.52922744
0.79040039 1.9547659 -0.56497449
0.80634511 1.9941994 -0.55725271
0.84747648 2.0959227 -0.56567007
0.87110162 2.154351 -0.56095904
0.90780461 2.2451222 -0.56333673
0.93927354 2.3229492 -0.56095499
0.98249286 2.4298363 -0.56393379
1.0219104 2.5273213 -0.56289476
1.0663351 2.6371894 -0.56275684
1.1155187 2.758827 -0.5630548
1.1595504 2.8677235 -0.55869198
1.2211541 3.0200777 -0.56045747
1.2925491 3.1966472 -0.5637607
1.3624651 3.3695586 -0.56328189
1.4336985 3.5457282 -0.5602228
1.5205302 3.7604747 -0.55975848
1.618641 4.0031161 -0.55934697
1.7305779 4.2799511 -0.55905694
1.8596898 4.5992622 -0.55897117
2.0135098 4.9796796 -0.56003797
2.187026 5.4088082 -0.55932522
2.39027 5.911458 -0.55786359
2.6443639 6.539866 -0.55813074
2.9521239 7.3009977 -0.55726802
3.3415141 8.2640114 -0.5563587
3.8511865 9.5244999 -0.55554342
4.5432043 11.235952 -0.55438942
5.532124 13.681684 -0.55219734
7.0783973 17.505823 -0.54943055
9.7980299 24.231838 -0.54316103
15.944314 39.432423 -0.53028208
0.75533235 1.9362077 -0.55688411
0.79433215 2.0361791 -0.56621116
0.81538337 2.0901415 -0.56136131
0.84336251 2.1618629 -0.56017238
0.88019824 2.2562871 -0.56337982
0.90846694 2.3287506 -0.55961603
0.95226097 2.4410114 -0.56376714
0.98806149 2.5327821 -0.5613625
1.0336394 2.649616 -0.56265378
1.0799949 2.7684429 -0.56226444
1.1279633 2.8914042 -0.56056094
1.1817946 3.0293946 -0.55944741
1.2509925 3.2067757 -0.56279153
1.3182255 3.3791196 -0.56212795
1.3906971 3.5648921 -0.5605064
1.472177 3.7737565 -0.55899864
1.5725392 4.0310235 -0.56050217
1.6823233 4.3124423 -0.56055653
1.8061447 4.6298442 -0.55994648
1.9505907 5.0001149 -0.55959642
2.1255808 5.4486818 -0.56070328
2.3205957 5.9485807 -0.55863178
2.5641086 6.5727978 -0.55820823
2.8637826 7.3409777 -0.55758965
3.2421098 8.3107758 -0.55678093
3.7345026 9.5729685 -0.55565
4.4049177 11.291501 -0.55441576
5.3694696 13.764018 -0.55281377
6.8653207 17.598459 -0.54964691
9.5128193 24.385019 -0.54393148
15.491851 39.711578 -0.53143418
0.74066025 1.9697939 -0.56388199
0.76031452 2.0220647 -0.55964422
0.79292583 2.1087949 -0.56370986
0.82184917 2.1857169 -0.56369209
0.85140872 2.2643306 -0.56273162
0.88108796 2.3432629 -0.56045753
0.92092103 2.4491994 -0.56300026
0.9534359 2.5356731 -0.55936253
1.0011591 2.6625936 -0.5627529
1.0452628 2.7798879 -0.56193596
1.0967393 2.91679 -0.56282544
1.1510404 3.0612044 -0.56266546
1.2088349 3.2149093 -0.56156784
1.2741259 3.388552 -0.56104833
1.3474272 3.5834975 -0.56078422
1.4320319 3.8085043 -0.56149495
1.5245069 4.0544424 -0.56110954
1.6320776 4.340528 -0.56155616
1.7522755 4.6601954 -0.56096888
1.8897488 5.0258074 -0.55982888
2.0548773 5.4649687 -0.55973679
2.2447066 5.9698219 -0.55799222
2.4891748 6.6199875 -0.55957413
2.7772002 7.385994 -0.5583728
3.1366553 8.3419695 -0.55624473
3.6194174 9.6258802 -0.55609584
4.2670016 11.348137 -0.55457842
5.1981955 13.824656 -0.55264026
6.6518822 17.690752 -0.5499332
9.2260942 24.536898 -0.54474747
15.029254 39.970463 -0.53238523
0.71240532 1.9677606 -0.56074983
0.73843652 2.0396624 -0.56195909
0.76464975 2.1120667 -0.56202865
0.79147005 2.1861482 -0.56125098
0.82304132 2.2733524 -0.56241596
0.85682625 2.3666708 -0.56349367
0.89103949 2.4611726 -0.56319135
0.92881322 2.5655088 -0.56338215
0.96765727 2.6728013 -0.56235296
1.0110599 2.792685 -0.56196725
1.0617666 2.932744 -0.56334209
1.1087027 3.0623879 -0.5603348
1.1689993 3.2289352 -0.56146449
1.231878 3.4026151 -0.56082636
1.3038151 3.6013153 -0.56102121
1.3793778 3.8100297 -0.55917692
1.4759631 4.0768113 -0.56165105
1.5792555 4.3621187 -0.56179464
1.6959181 4.6843567 -0.5613246
1.8264196 5.0448198 -0.55940276
1.9862219 5.4862161 -0.55936921
2.1791933 6.0192289 -0.5600633
2.4006991 6.6310582 -0.55797249
2.6865258 7.4205508 -0.55844563
3.0400681 8.3970833 -0.55738497
3.503118 9.6760893 -0.55646592
4.1355662 11.422997 -0.55570966
5.0322461 13.89975 -0.55312669
6.4377365 17.781906 -0.55026442
8.9295883 24.664742 -0.54510683
14.566835 40.235584 -0.53349042
0.69319344 1.9908365 -0.56485403
0.70921171 2.0368407 -0.55873674
0.73848897 2.1209242 -0.56192666
0.76506674 2.1972549 -0.56164479
0.79373699 2.2795954 -0.56150341
0.82004243 2.355144 -0.55830604
0.85975343 2.469193 -0.56256497
0.89492917 2.5702171 -0.56195706
0.93766415 2.692951 -0.56412387
0.97605968 2.8032222 -0.56162995
1.0227032 2.9371812 -0.56173635
1.0749377 3.0871975 -0.56241328
1.1320316 3.2511702 -0.56286776
1.1921597 3.4238567 -0.56186879
1.2603146 3.6195962 -0.56141239
1.3400236 3.8485186 -0.56236488
1.4207424 4.0803413 -0.55968827
1.524269 4.3776674 -0.56134075
1.634629 4.6946187 -0.56010336
1.7671849 5.0753164 -0.56033242
1.9206641 5.5161052 -0.55996633
2.1015861 6.0357094 -0.55914998
2.3212044 6.6664486 -0.55850643
2.596997 7.458519 -0.55885756
2.942795 8.4516439 -0.5585624
3.3852139 9.7222605 -0.55668521
3.9920154 11.464981 -0.55532205
4.8689179 13.983426 -0.55403209
6.2264323 17.882177 -0.55095643
8.6327629 24.793106 -0.54555649
14.090276 40.466965 -0.53422064
0.66547579 1.9896809 -0.56216192
0.68678373 2.0533888 -0.56091714
0.71026284 2.1235881 -0.56027615
0.74005467 2.2126615 -0.56321418
0.76429582 2.2851393 -0.56051165
0.79599231 2.3799074 -0.56181365
0.82963699 2.4805005 -0.56277436
0.86266792 2.5792582 -0.56157202
0.90518385 2.7063749 -0.56456167
0.9443956 2.8236127 -0.56334603
0.98558116 2.9467518 -0.56120646
1.0341004 3.0918179 -0.56089604
1.087111 3.2503121 -0.56036252
1.147398 3.430562 -0.56061143
1.2156882 3.6347404 -0.56140029
1.2886773 3.8529677 -0.56065708
1.3750639 4.1112518 -0.56156641
1.4640305 4.3772497 -0.55893654
1.5810714 4.7271857 -0.56162679
1.706053 5.1008635 -0.56079447
1.8499266 5.5310254 -0.55912948
2.0258636 6.0570531 -0.55877721
2.238374 6.69243 -0.55833501
2.5027909 7.4830003 -0.55834371
2.8330443 8.4704123 -0.55745834
3.270287 9.7777071 -0.55751532
3.8558047 11.528325 -0.55605167
4.6982074 14.046993 -0.55421984
6.0075045 17.961611 -0.55108613
8.3388186 24.931919 -0.54631341
13.622031 40.727997 -0.53541487
0.63892812 1.991376 -0.56037873
0.66309541 2.0666993 -0.56228334
0.68822563 2.1450238 -0.56365627
0.70860034 2.2085266 -0.55990148
0.73884642 2.3027961 -0.56257164
0.76630843 2.3883882 -0.56154877
0.79558951 2.4796498 -0.56031942
0.83184111 2.5926366 -0.56221533
0.8667798 2.7015316 -0.5612855
0.90580076 2.8231499 -0.56098908
0.94896346 2.9576771 -0.56102246
0.99852008 3.1121325 -0.56231141
1.0497919 3.271934 -0.56182224
1.108642 3.4553545 -0.56239271
1.1702933 3.647506 -0.56110692
1.2425771 3.8727958 -0.56127656
1.3175502 4.1064682 -0.55865777
1.4166801 4.4154305 -0.56154507
1.5191624 4.7348418 -0.56027472
1.6406451 5.1134725 -0.55992043
1.7866745 5.5686092 -0.56066549
1.9550767 6.0934758 -0.55987722
2.1571162 6.7231812 -0.55864537
2.4061818 7.499455 -0.55732167
2.7283359 8.5035276 -0.55738771
3.1468923 9.8080606 -0.55699754
3.7141414 11.576032 -0.55610782
4.5251307 14.10368 -0.55421913
5.7922988 18.053118 -0.55166674
8.0450239 25.074289 -0.54722399
13.140493 40.95557 -0.53624183
0.61888301 2.013685 -0.56447232
0.63791996 2.0756264 -0.56253541
0.65710461 2.1380482 -0.55965775
0.68458176 2.2274518 -0.56252271
0.71233553 2.3177552 -0.56404364
0.73660243 2.3967135 -0.56133419
0.76876187 2.5013521 -0.56304485
0.79991311 2.6027102 -0.56222433
0.838296 2.7275982 -0.5645169
0.87549764 2.8486426 -0.56387293
0.91230702 2.9684107 -0.56088811
0.95548576 3.1089034 -0.5595628
1.0105177 3.2879629 -0.56239843
1.0642668 3.4628487 -0.56143999
1.1291094 3.6738296 -0.56297791
1.1929694 3.8816135 -0.56038612
1.2665612 4.1210618 -0.55848223
1.3648775 4.4409575 -0.56261456
1.4615175 4.7553997 -0.56053835
1.5754639 5.1261516 -0.55914521
1.71524 5.5809469 -0.5597418
1.8786743 6.1127195 -0.55948049
2.0764256 6.7561512 -0.55922103
2.3216128 7.5539269 -0.55920595
2.626251 8.5451403 -0.5579564
3.02825 9.8531408 -0.55740082
3.5737166 11.627949 -0.55644876
4.3550639 14.17025 -0.55468875
5.5706272 18.125378 -0.55173993
7.7426286 25.192509 -0.54768485
12.663387 41.203381 -0.5374071
0.5906862 2.0096066 -0.56125063
0.61600667 2.0957508 -0.56589383
0.63607287 2.1640191 -0.56436592
0.65649158 2.2334869 -0.5619657
0.68092591 2.3166163 -0.5616864
0.70565051 2.4007332 -0.56020105
0.73796737 2.5106802 -0.56305939
0.77167463 2.6253576 -0.56502402
0.80179942 2.7278469 -0.56248528
0.83507627 2.8410599 -0.56029701
0.8727231 2.9691403 -0.55895597
0.92215598 3.1373186 -0.56259376
0.96649396 3.2881634 -0.56035751
1.0233936 3.4817452 -0.5624209
1.0810305 3.6778345 -0.56151223
1.1471148 3.9026635 -0.56134629
1.2253133 4.1687069 -0.56285459
1.3050876 4.4401116 -0.56043196
1.400794 4.7657204 -0.55968225
1.5176474 5.1632738 -0.5611164
1.6471628 5.6039052 -0.55997068
1.8017648 6.1298857 -0.5589816
1.9936033 6.7825499 -0.55933475
2.2305241 7.5885911 -0.55969936
2.5254445 8.5919561 -0.55894327
2.9093347 9.8980103 -0.55787313
3.4344466 11.684525 -0.55709308
4.1777501 14.213359 -0.55432343
5.3551826 18.219168 -0.55254865
7.4409542 25.315289 -0.54832345
12.17594 41.42445 -0.53829694
0.56707215 2.0207794 -0.56238103
0.58749235 2.0935473 -0.56330568
0.60781276 2.1659598 -0.56288028
0.63064355 2.247318 -0.56345201
0.65299124 2.3269546 -0.56220371
0.67937148 2.4209614 -0.56292933
0.70536321 2.5135839 -0.56172293
0.73982888 2.6364033 -0.56540066
0.76764977 2.735544 -0.56208354
0.80390298 2.8647335 -0.56297368
0.84302133 3.0041327 -0.5635494
0.87862408 3.1310043 -0.55948174
0.93073249 3.3166943 -0.5632267
0.97986048 3.4917636 -0.56205046
1.03775 3.6980543 -0.56260854
1.1003761 3.9212251 -0.56202739
1.1703806 4.1706877 -0.56113648
1.2546929 4.4711375 -0.56235814
1.3495808 4.8092732 -0.56280559
1.451887 5.1738448 -0.56028265
1.5831192 5.6414948 -0.56173915
1.7317759 6.1712379 -0.56076819
1.9103876 6.8077259 -0.55943137
2.1363485 7.6129441 -0.55951571
2.4185936 8.6187344 -0.55870831
2.7873569 9.9328327 -0.55786186
3.2909362 11.727354 -0.55716366
4.0104399 14.291328 -0.555399
5.1357865 18.301537 -0.55308962
7.1378398 25.435917 -0.54899365
11.693807 41.671246 -0.53959465
0.54323465 2.031533 -0.56347215
0.56088227 2.0975299 -0.56247896
0.57527739 2.1513631 -0.55720651
0.60132325 2.2487667 -0.56191885
0.62210941 2.3265007 -0.56020343
0.64881343 2.4263659 -0.56228834
0.67506105 2.5245237 -0.56227016
0.70522499 2.6373277 -0.5636965
0.73294538 2.7409937 -0.56130904
0.76633859 2.8658741 -0.56130356
0.80284441 3.0023949 -0.56132901
0.84247047 3.1505845 -0.56108695
0.88755399 3.3191829 -0.56175351
0.93371171 3.4917989 -0.5601657
0.99312598 3.7139902 -0.56313246
1.0502881 3.9277592 -0.56107044
1.1199039 4.1881013 -0.56158412
1.1994597 4.4856157 -0.56228155
1.2868246 4.8123341 -0.56126964
1.3910463 5.2020917 -0.56144679
1.508222 5.6402931 -0.55973053
1.6526661 6.1804705 -0.55971825
1.831196 6.8481178 -0.56085789
2.04495 7.6474934 -0.56016451
2.3112833 8.6434994 -0.55842912
2.6691599 9.9818487 -0.55872917
3.1522689 11.78853 -0.55818635
3.8391724 14.357342 -0.55608773
4.9164133 18.385897 -0.55377018
6.8335619 25.55545 -0.54971844
11.205822 41.90638 -0.54081422
0.51913798 2.0416894 -0.56447595
0.53792179 2.1155634 -0.56549835
0.55355942 2.1770637 -0.56205755
0.57358992 2.2558408 -0.5618816
0.59790468 2.3514669 -0.5644021
0.62284768 2.4495637 -0.56584662
0.64197338 2.5247822 -0.56052721
0.67548817 2.6565907 -0.56599563
0.69832754 2.7464144 -0.56061822
0.73441112 2.8883257 -0.5638895
0.76500458 3.0086448 -0.56069642
0.80828571 3.1788628 -0.56431037
0.84752142 3.3331709 -0.56231463
0.89428353 3.5170791 -0.56241459
0.94491345 3.7161987 -0.56166315
1.0018665 3.940186 -0.56104338
1.0706044 4.2105217 -0.5627827
1.1409278 4.487093 -0.56066573
1.225857 4.8211064 -0.56049234
1.3269377 5.2186408 -0.56142944
1.4433327 5.6764045 -0.56151044
1.581383 6.2193351 -0.56143445
1.7427887 6.8541193 -0.55955195
1.9530261 7.6809502 -0.56081367
2.2067122 8.6786585 -0.5589053
2.5449312 10.008821 -0.5584451
3.0041468 11.814846 -0.55764109
3.6624157 14.403716 -0.55609757
4.692286 18.454037 -0.55404282
6.5219865 25.649967 -0.54998481
10.710848 42.124111 -0.54188347
0.48862928 2.0256739 -0.5583446
0.5092085 2.1109877 -0.56255895
0.52397174 2.1721904 -0.55909365
0.54834116 2.2732167 -0.56448746
0.56804615 2.3549063 -0.56350851
0.59168351 2.452898 -0.56489348
0.61290956 2.5408931 -0.56238824
0.64072531 2.6562068 -0.56419265
0.66565996 2.7595766 -0.56159174
0.69504553 2.8813982 -0.56082612
0.72825873 3.0190876 -0.56093127
0.7684778 3.1858208 -0.56382543
0.80705428 3.3457446 -0.56271911
0.8512401 3.5289223 -0.56259209
0.90153593 3.7374299 -0.56315392
0.95345992 3.9526873 -0.56111163
1.0158426 4.2113028 -0.56117505
1.0847776 4.4970813 -0.56020468
1.1652117 4.8305306 -0.5598799
1.2635351 5.238143 -0.56181353
1.3744656 5.698019 -0.56193423
1.5005816 6.220849 -0.55986309
1.6599144 6.8813829 -0.56006902
1.8550038 7.6901503 -0.55977762
2.1075821 8.7372456 -0.56096691
2.4222898 10.041905 -0.55858684
2.8622348 11.865752 -0.55834043
3.4880686 14.460224 -0.55658126
4.4685493 18.524929 -0.5544796
6.2155471 25.767328 -0.55082089
10.210649 42.329521 -0.54286969
0.46831661 2.0518184 -0.56392103
0.48466372 2.1234393 -0.56424642
0.50190473 2.1989768 -0.56435698
0.51833171 2.2709477 -0.56229877
0.53897399 2.361387 -0.56343079
0.56200677 2.4622998 -0.56542444
0.58371526 2.5574102 -0.56441271
0.60653925 2.657408 -0.56282103
0.63228393 2.7702024 -0.56212938
0.66258281 2.9029498 -0.56339246
0.69329333 3.0375006 -0.56272584
0.7276628 3.1880825 -0.5625996
0.76603127 3.3561847 -0.56284821
0.80615342 3.5319703 -0.56145525
0.8540042 3.7416172 -0.56216007
0.90791297 3.9778056 -0.56304997
0.96551704 4.2301846 -0.56206656
1.0318942 4.5210004 -0.56156129
1.1087576 4.857759 -0.56141311
1.202617 5.2689824 -0.56349254
1.3022602 5.7055445 -0.56105477
1.4288214 6.2600431 -0.5617668
1.5776451 6.9120784 -0.56094599
1.7611705 7.7161517 -0.56005162
1.9946876 8.7392511 -0.55947864
2.303056 10.090295 -0.55966097
2.715719 11.89828 -0.55825746
3.3090208 14.497691 -0.55641514
4.2463861 18.604536 -0.5552575
5.9099154 25.892897 -0.55190992
9.7030163 42.511467 -0.54363185
0.44262788 2.0554473 -0.56337994
0.45725766 2.1233842 -0.56269515
0.47388956 2.2006183 -0.56324017
0.49567124 2.3017666 -0.56837761
0.50935084 2.3652914 -0.56282538
0.53166485 2.4689116 -0.56539875
0.5499559 2.5538507 -0.56209219
0.5742144 2.6665003 -0.5632087
0.59767699 2.7754548 -0.56166142
0.6276195 2.9145 -0.56409365
0.65303928 3.0325425 -0.56027734
0.68625343 3.1867802 -0.56083828
0.72420579 3.3630211 -0.56245875
0.76605207 3.5573442 -0.56394875
0.80877918 3.7557576 -0.56274784
0.85537571 3.9721396 -0.56071675
0.91231024 4.2365289 -0.56137651
0.9757241 4.5310059 -0.56127137
1.0502522 4.8770947 -0.56211275
1.133985 5.2659278 -0.56163216
1.2314746 5.7186441 -0.5608114
1.3472488 6.256269 -0.55989915
1.4945261 6.9401865 -0.56169325
1.6682763 7.7470365 -0.56076193
1.8903263 8.7781773 -0.56044018
2.1779053 10.11362 -0.55942702
2.5724909 11.945971 -0.55896866
3.1353366 14.559678 -0.55727237
4.017962 18.658358 -0.55534726
5.5930386 25.972601 -0.55210114
9.2002001 42.723309 -0.54485297
0.41974345 2.0726936 -0.5666495
0.43172804 2.1318734 -0.5634954
0.44709417 2.2077515 -0.56361616
0.46257299 2.2841859 -0.56258929
0.47916359 2.3661101 -0.56157577
0.49837762 2.4609892 -0.5621385
0.5182519 2.5591283 -0.56180871
0.5409416 2.6711702 -0.5627476
0.56290233 2.7796123 -0.56105965
0.59196264 2.9231119 -0.564309
0.6157518 3.0405829 -0.56032157
0.64697033 3.1947401 -0.56079662
0.68188363 3.367142 -0.56170315
0.72145373 3.5625391 -0.56332332
0.76224905 3.7639866 -0.56253392
0.80842978 3.992027 -0.5620783
0.85884058 4.2409558 -0.56052136
0.91816425 4.533896 -0.56018841
0.99054879 4.8913307 -0.56230718
1.0690827 5.2791314 -0.56159586
1.1603417 5.7297688 -0.56046081
1.2733927 6.2880144 -0.5612964
1.4082308 6.953845 -0.56135476
1.5710531 7.7578616 -0.56010485
1.7785189 8.7823286 -0.55926669
2.052901 10.137227 -0.55929422
2.4236674 11.968073 -0.55856609
2.9598234 14.615611 -0.55797803
3.7902358 18.716188 -0.55563939
5.28159 26.080496 -0.55297232
8.6923332 42.922749 -0.54599208
0.39238653 2.0679989 -0.56400424
0.40468174 2.1327984 -0.56238204
0.42095092 2.2185421 -0.56500673
0.43347573 2.2845516 -0.56132412
0.4530769 2.387856 -0.56537187
0.46727058 2.462661 -0.56116551
0.48822546 2.5730999 -0.56351537
0.50511372 2.662106 -0.55948716
0.52983731 2.7924073 -0.56228471
0.55742687 2.9378128 -0.56578094
0.58079445 3.060967 -0.5627194
0.60888124 3.2089932 -0.56194186
0.64331418 3.3904655 -0.56423169
0.67615598 3.5635519 -0.56212628
0.71321809 3.7588806 -0.56041777
0.75944793 4.0025268 -0.56219929
0.80810159 4.2589464 -0.56154341
0.86328709 4.5497913 -0.56079841
0.93135589 4.908535 -0.56292582
1.005314 5.298317 -0.56227922
1.0915562 5.7528405 -0.56136221
1.1974686 6.3110318 -0.56199419
1.3218414 6.9665146 -0.561023
1.4785353 7.7923403 -0.56123906
1.6738157 8.8215284 -0.56040996
1.9312003 10.178025 -0.56019264
2.2787375 12.009654 -0.55915672
2.7805328 14.654272 -0.55810648
3.5651066 18.789219 -0.55646396
4.9681911 26.183908 -0.55382776
8.1796961 43.109539 -0.54704732
0.36759904 2.076448 -0.56503314
0.37959874 2.1442304 -0.56412303
0.39188966 2.2136579 -0.56249315
0.40429986 2.2837591 -0.55986553
0.4240309 2.3952134 -0.56583661
0.43842751 2.4765351 -0.56305599
0.45453793 2.5675375 -0.56103075
0.47678727 2.693217 -0.56475079
0.49764872 2.8110566 -0.5647651
0.51740217 2.9226375 -0.56159073
0.54287219 3.0665092 -0.56246853
0.57018399 3.2207849 -0.56273645
0.59990072 3.3886449 -0.56265855
0.62959528 3.5563798 -0.55973142
0.66991425 3.7841289 -0.56291133
0.709032 4.0050921 -0.56129259
0.75766683 4.2798147 -0.56302392
0.80924684 4.5711737 -0.5621649
0.86945212 4.9112535 -0.56196904
0.93906897 5.3044968 -0.56166714
1.0213979 5.7695465 -0.56172436
1.1196339 6.32445 -0.56192058
1.2394042 7.0009928 -0.56252974
1.379326 7.7913661 -0.55990499
1.5681167 8.8577833 -0.56144571
1.8049669 10.195674 -0.5599001
2.1306884 12.03557 -0.55910122
2.5992508 14.682326 -0.55791545
3.338156 18.856163 -0.55718881
4.6492915 26.262342 -0.55423564
7.6656041 43.300518 -0.54823315
0.33957693 2.0658255 -0.56096393
0.35468805 2.1577544 -0.56649077
0.36435372 2.2165556 -0.56204849
0.37821001 2.3008509 -0.56287295
0.39205346 2.3850679 -0.56225854
0.40721664 2.4773135 -0.56205201
0.42376095 2.5779612 -0.56212729
0.44393644 2.7006993 -0.56513238
0.45944095 2.7950215 -0.56036609
0.48248473 2.935209 -0.56282377
0.50436509 3.0683186 -0.56162041
0.53045356 3.2270288 -0.5626452
0.5566653 3.3864887 -0.56112152
0.58902931 3.5833759 -0.56279778
0.62261218 3.7876782 -0.56225795
0.65981555 4.0140061 -0.56136233
0.70316738 4.2777381 -0.56157082
0.75339442 4.5832953 -0.56247383
0.80965441 4.9255548 -0.56242371
0.87460911 5.3207083 -0.56220251
0.94999814 5.7793398 -0.56149805
1.0405686 6.3303275 -0.5612635
1.1481519 6.9848132 -0.56005293
1.2864996 7.8264551 -0.56124729
1.4571556 8.864646 -0.56070256
1.680079 10.220806 -0.56010336
1.9851108 12.076475 -0.55982518
2.424464 14.749292 -0.55928499
3.1078074 18.906431 -0.55750275
4.3299122 26.341139 -0.55473298
7.1470051 43.479 -0.54933876
0.31513777 2.0763474 -0.56272626
0.32488829 2.1405907 -0.56089342
0.33670878 2.2184722 -0.5614422
0.34884885 2.2984593 -0.56119609
0.3613615 2.3809016 -0.56018645
0.37706396 2.4843602 -0.56255627
0.39478058 2.6010897 -0.56606919
0.41047984 2.7045274 -0.56483454
0.42891496 2.8259907 -0.56547487
0.44621778 2.9399939 -0.56264663
0.46775424 3.0818911 -0.56300932
0.4912923 3.2369761 -0.56328368
0.51448637 3.3897951 -0.56057876
0.54354173 3.5812321 -0.56136888
0.57629275 3.7970185 -0.56255001
0.61522752 4.0535479 -0.56579149
0.65127122 4.291029 -0.56222183
0.69722301 4.5937915 -0.56266725
0.74965477 4.9392486 -0.5628922
0.80996299 5.3366013 -0.56278682
0.87921053 5.7928524 -0.56171805
0.96225786 6.3400259 -0.56103188
1.0642476 7.0120058 -0.56114155
1.1921209 7.8545237 -0.56216645
1.348421 8.8843374 -0.560857
1.5562098 10.253395 -0.56079823
1.8370382 12.103688 -0.5599972
2.2443371 14.787257 -0.55963582
2.8752937 18.944441 -0.55753887
4.0140934 26.447647 -0.55589449
6.624907 43.649506 -0.55042213
0.28976023 2.0813301 -0.56306845
0.29955685 2.1516986 -0.56279629
0.30954859 2.2234688 -0.56170094
0.31972668 2.2965772 -0.55973428
0.33258107 2.3889096 -0.56106597
0.34848759 2.503165 -0.56580132
0.36281163 2.6060538 -0.56613582
0.37457275 2.6905332 -0.56090754
0.3928085 2.8215196 -0.5635711
0.40907994 2.9383965 -0.5613358
0.4313688 3.098496 -0.56503099
0.44998789 3.2322357 -0.5614534
0.47332036 3.3998313 -0.56123358
0.50069571 3.596467 -0.56274939
0.53029281 3.8090611 -0.56332552
0.56043261 4.0255532 -0.56087977
0.6003992 4.3126311 -0.56404221
0.64116043 4.6054163 -0.56308287
0.68945694 4.9523273 -0.56337392
0.74472636 5.3493242 -0.56312031
0.808887 5.8101864 -0.56239188
0.88543528 6.3600278 -0.56179595
0.97885382 7.0310473 -0.56165975
1.0930282 7.8511553 -0.56092095
1.2388306 8.8984442 -0.56074345
1.4293061 10.266619 -0.56051785
1.6881552 12.125916 -0.56002283
2.062341 14.81367 -0.55963343
2.6465073 19.009701 -0.55845952
3.6908374 26.511061 -0.55623138
6.1004276 43.819 -0.55157185
0.26446638 2.0872543 -0.56374872
0.27275214 2.152648 -0.56212491
0.28294161 2.2330668 -0.56320411
0.29223529 2.3064153 -0.56121385
0.30581367 2.4135804 -0.5659343
0.31740326 2.5050492 -0.56530231
0.32974786 2.6024766 -0.56443518
0.34380332 2.713407 -0.5647521
0.35720712 2.8191943 -0.56218678
0.37565833 2.964817 -0.56545788
0.39181668 3.0923438 -0.56298798
0.41102722 3.2439599 -0.5625695
0.43156371 3.4060404 -0.56134009
0.45785907 3.6135719 -0.56450224
0.48318797 3.8134756 -0.56305712
0.51290458 4.0480089 -0.56308722
0.54531527 4.3038044 -0.56196833
0.58291841 4.6005807 -0.56157279
0.62850928 4.9603987 -0.56337041
0.67943925 5.3623543 -0.56356984
0.73520809 5.8025002 -0.56073046
0.80779791 6.3754025 -0.5622341
0.89205694 7.0404019 -0.56148827
0.99849868 7.8804746 -0.562096
1.1339576 8.9495602 -0.56304336
1.306621 10.312275 -0.56209081
1.5404036 12.157364 -0.56055808
1.8819503 14.852961 -0.56020111
2.4166055 19.072632 -0.55939305
3.3716226 26.609936 -0.55739391
5.5729246 43.983326 -0.55273592
0.23823951 2.0855951 -0.56246686
0.24593338 2.1529486 -0.56137127
0.2558338 2.239619 -0.56402057
0.26457912 2.3161771 -0.56275493
0.27415299 2.3999887 -0.56191438
0.28495926 2.4945889 -0.56210852
0.29778895 2.6069024 -0.56455821
0.30967948 2.7109942 -0.56341475
0.32439536 2.8398201 -0.5654617
0.33724034 2.9522676 -0.562231
0.35363141 3.0957582 -0.56277543
0.37059391 3.2442513 -0.56178731
0.39067462 3.4200418 -0.56281334
0.41218206 3.6083221 -0.56284779
0.43540862 3.8116517 -0.56195486
0.46269155 4.0504918 -0.56259865
0.49187255 4.3059478 -0.56141603
0.5267545 4.6113114 -0.56204957
0.5678885 4.9714065 -0.56378484
0.61317575 5.3678598 -0.56331348
0.66495985 5.821188 -0.56170374
0.72865671 6.3788028 -0.56170136
0.80573958 7.0536013 -0.56170833
0.90221614 7.8981757 -0.56252474
1.0217489 8.9445887 -0.56189764
1.1772186 10.3056 -0.56089556
1.3913727 12.180347 -0.56078655
1.6991196 14.874424 -0.56018025
2.1830974 19.111259 -0.55969632
3.0483294 26.685669 -0.55815291
5.0413165 44.132668 -0.55379182
0.21371906 2.0995767 -0.56548607
0.22168629 2.1778467 -0.56710964
0.22674081 2.2275023 -0.56022471
0.23664105 2.3247623 -0.56409127
0.24540766 2.4108856 -0.56371653
0.25497079 2.5048337 -0.56366789
0.26537558 2.6070504 -0.56384093
0.27654704 2.716799 -0.5638718
0.28763551 2.8257322 -0.56190979
0.30260357 2.9727786 -0.56538576
0.31764805 3.1205752 -0.56653398
0.33103308 3.25207 -0.56239384
0.34972617 3.4357109 -0.56464154
0.36679307 3.6033762 -0.56133032
0.39080107 3.8392308 -0.56526959
0.41300583 4.0573702 -0.56280613
0.44035965 4.3260946 -0.56329417
0.47148597 4.6318793 -0.56380719
0.50545579 4.9655995 -0.56237894
0.54642767 5.3681068 -0.56259173
0.59404582 5.8359079 -0.56237674
0.65089303 6.3943753 -0.56232536
0.71890485 7.0625234 -0.56167239
0.80498034 7.9081287 -0.56248611
0.91187334 8.9582462 -0.56200874
1.052327 10.338064 -0.5619157
1.2429382 12.210628 -0.56143457
1.5186394 14.919118 -0.56111783
1.9477209 19.134417 -0.55963081
2.7209041 26.730169 -0.55834168
4.5075493 44.282177 -0.55493045
0.18707108 2.0929122 -0.56302899
0.19321518 2.1616511 -0.56223112
0.19970118 2.234215 -0.56125289
0.20723373 2.3184876 -0.56190795
0.21550487 2.4110234 -0.56308657
0.22429459 2.509361 -0.56402344
0.23364279 2.6139467 -0.56466842
0.24368943 2.7263465 -0.56518871
0.25326994 2.8335311 -0.5627988
0.26447627 2.9589052 -0.56208622
0.27631813 3.0913894 -0.56057614
0.29112357 3.2570295 -0.56258994
0.30728278 3.4378154 -0.56432378
0.32340539 3.6181917 -0.56297618
0.34185809 3.8246369 -0.56245947
0.3630299 4.0615025 -0.5627175
0.3865087 4.3241787 -0.56238335
0.41431299 4.6352468 -0.56355435
0.44303942 4.9566321 -0.56070399
0.48046675 5.3753614 -0.56269038
0.52235556 5.8440051 -0.56249553
0.57242841 6.4042096 -0.56252861
0.6320861 7.0716467 -0.56173742
0.70852941 7.9268785 -0.56315744
0.80258977 8.9792061 -0.56266201
0.9259187 10.358985 -0.56239146
1.0938246 12.237481 -0.56200838
1.3355466 14.941815 -0.56131136
1.7164222 19.202972 -0.56097615
2.394897 26.793606 -0.55900937
3.9708543 44.425087 -0.55606741
0.16171043 2.1000795 -0.56437951
0.16616677 2.1579525 -0.56069535
0.17394705 2.2589924 -0.56689703
0.1788833 2.3230979 -0.56244969
0.18628661 2.4192424 -0.56442845
0.19253589 2.5003996 -0.56143463
0.20099442 2.6102476 -0.56329286
0.2080743 2.7021918 -0.55960858
0.21868446 2.8399825 -0.56350344
0.22798544 2.9607711 -0.56186563
0.23994353 3.1160669 -0.56447333
0.25163144 3.2678537 -0.56388247
0.26460034 3.4362764 -0.56349444
0.27918696 3.6257083 -0.56356895
0.29520205 3.8336909 -0.56321454
0.31360555 4.072691 -0.56369084
0.33364508 4.3329377 -0.56294638
0.35672191 4.6326289 -0.56266022
0.38455319 4.9940643 -0.5643608
0.41535363 5.3940597 -0.56407034
0.45094115 5.8562226 -0.56309521
0.49418038 6.4177566 -0.56314224
0.54665524 7.0992293 -0.56335187
0.60996395 7.9213991 -0.5621928
0.69203943 8.9872856 -0.56259251
0.79826808 10.366842 -0.56224263
0.94369137 12.255406 -0.5622561
1.1514051 14.952915 -0.56115407
1.4808663 19.231518 -0.56123573
2.0691559 26.871439 -0.56006002
3.4318445 44.568222 -0.55728871
0.13459636 2.0821052 -0.559062
0.14044668 2.172605 -0.5640111
0.14520392 2.246196 -0.56319511
0.15069118 2.3310797 -0.56389087
0.15675187 2.424834 -0.56524062
0.1622438 2.5097902 -0.56305259
0.16803984 2.5994506 -0.56047457
0.17565151 2.7171974 -0.56222636
0.1839288 2.8452411 -0.56405544
0.19193038 2.9690194 -0.56294048
0.20158128 3.1183116 -0.56438828
0.21187681 3.2775757 -0.56506777
0.22235258 3.4396279 -0.56355309
0.23419738 3.622858 -0.56263578
0.24792866 3.8352709 -0.56295621
0.26333216 4.0735517 -0.56331915
0.28082889 4.344213 -0.56392002
0.29997739 4.6404257 -0.56311661
0.32228696 4.985538 -0.56290686
0.34838378 5.3892365 -0.56307542
0.37940589 5.8691254 -0.56384462
0.41401497 6.4045019 -0.56149
0.45927256 7.1046028 -0.56328756
0.5135352 7.944005 -0.56330645
0.58164817 8.9976616 -0.56275183
0.67201138 10.395514 -0.56330687
0.79246151 12.258786 -0.56192166
0.96889985 14.988155 -0.56198698
1.2451314 19.26125 -0.5616141
1.7407024 26.927364 -0.56073713
2.8893414 44.69595 -0.55839938
0.10969871 2.0972362 -0.56272006
0.11325974 2.1653166 -0.56171501
0.11784105 2.2529027 -0.56447071
0.12231571 2.33845 -0.56526721
0.1264656 2.4177883 -0.56319314
0.13122123 2.5087073 -0.56240517
0.13628615 2.6055391 -0.56138355
0.14239495 2.7223279 -0.56288308
0.14828554 2.834945 -0.5616104
0.15537323 2.9704485 -0.56280667
0.16279316 3.1123037 -0.56289601
0.17103627 3.2698967 -0.56333876
0.18036979 3.4483366 -0.56457388
0.19002497 3.6329257 -0.56379378
0.20083727 3.8396368 -0.56319201
0.21300475 4.0722566 -0.56273532
0.22732252 4.3459859 -0.56374466
0.24345687 4.6544447 -0.56441188
0.26123917 4.9944096 -0.56350327
0.28181639 5.3878078 -0.56252158
0.30667284 5.8630171 -0.56285298
0.33626825 6.4288268 -0.56321752
0.37164924 7.1052456 -0.56293362
0.41576049 7.9485707 -0.56322509
0.4713127 9.0106268 -0.56315762
0.54394704 10.399261 -0.56310493
0.64163542 12.266881 -0.56188858
0.78494471 15.00669 -0.5622775
1.0085176 19.280991 -0.56178564
1.4107018 26.970007 -0.56122148
2.3447948 44.828136 -0.55964828
0.083908483 2.0985446 -0.56275177
0.086924978 2.1739869 -0.56364429
0.08970236 2.2434492 -0.56178319
0.093496352 2.3383365 -0.56491917
0.096781425 2.420496 -0.56350404
0.10088477 2.5231202 -0.56531543
0.10427342 2.6078701 -0.56156707
0.10886347 2.7226667 -0.56263381
0.11410902 2.8538578 -0.56503642
0.11905497 2.9775553 -0.56383318
0.1246403 3.117244 -0.56346977
0.13068864 3.2685127 -0.56278086
0.13764071 3.4423835 -0.56327951
0.14528368 3.6335335 -0.56356829
0.15375027 3.8452823 -0.56370014
0.16337419 4.0859756 -0.56431085
0.17403217 4.352531 -0.56427342
0.18627188 4.6586452 -0.56460083
0.19996114 5.0010123 -0.56392819
0.21535964 5.3861279 -0.56202722
0.2352092 5.8825636 -0.56440914
0.2569277 6.4257412 -0.56262791
0.28451455 7.1156869 -0.5634411
0.31814164 7.9566975 -0.56348115
0.36103311 9.0294104 -0.56401151
0.41662666 10.4198 -0.56389707
0.49213734 12.308316 -0.56346673
0.60079914 15.02594 -0.56267941
0.77233231 19.315971 -0.56248558
1.0804825 27.022783 -0.56200075
1.7971686 44.947048 -0.5608145
0.058029715 2.0968997 -0.56207681
0.060474023 2.1852248 -0.56632233
0.062191144 2.2472725 -0.56250662
0.064775743 2.3406668 -0.565247
0.067069374 2.4235473 -0.56397974
0.069587886 2.5145535 -0.56316173
0.072692454 2.6267366 -0.56539446
0.075530365 2.7292845 -0.56376684
0.079247192 2.8635919 -0.56672782
0.082387365 2.9770617 -0.56350529
0.086043835 3.1091878 -0.5617798
0.0902614 3.2615893 -0.56135523
0.095297001 3.4435506 -0.56323618
0.10078979 3.6420319 -0.56465149
0.10650673 3.848613 -0.56395376
0.11310277 4.0869608 -0.5642122
0.12010311 4.3399177 -0.56240422
0.12898572 4.6608901 -0.56463796
0.13837548 5.0001884 -0.56360078
0.14969561 5.4092402 -0.56420422
0.16284733 5.8844767 -0.56435794
0.17823966 6.4406776 -0.56370115
0.19708243 7.1215596 -0.56367159
0.22060283 7.9714675 -0.56429237
0.24964492 9.0209017 -0.56324565
0.28846726 10.423744 -0.56387591
0.34015599 12.291513 -0.56246352
0.41669491 15.057241 -0.56361711
0.53572541 19.3584 -0.56348675
0.74915087 27.070515 -0.56275928
1.2471006 45.063892 -0.5620386
0.032188814 2.0939422 -0.56113553
0.033524491 2.1808302 -0.56503391
0.034642801 2.2535784 -0.56393576
0.035854269 2.3323867 -0.56309837
0.037223127 2.4214334 -0.56333876
0.038755406 2.521111 -0.56448096
0.040136889 2.6109791 -0.561854
0.041959979 2.7295744 -0.56367749
0.043724235 2.8443425 -0.56276929
0.045834552 2.9816227 -0.56421924
0.047857683 3.1132309 -0.56236148
0.050342787 3.2748919 -0.56349564
0.053095531 3.4539628 -0.56478971
0.055832595 3.6320138 -0.5629493
0.059103191 3.8447723 -0.5632419
0.06281317 4.0861135 -0.56394595
0.066873193 4.3502254 -0.56359082
0.07150007 4.6512122 -0.56331646
0.076934047 5.0047026 -0.56396031
0.083097696 5.4056592 -0.56368148
0.090326108 5.8758807 -0.56338441
0.098857664 6.4308743 -0.56269425
0.10940606 7.1170673 -0.56316698
0.12251381 7.9697509 -0.56402159
0.13884513 9.0321331 -0.56379777
0.16005245 10.411709 -0.56307578
0.18943214 12.322913 -0.56375116
0.23127902 15.04513 -0.56301469
0.2979579 19.382715 -0.56404519
0.41684961 27.11684 -0.56357318
0.69448125 45.177296 -0.56330383
0.0064486181 2.0969076 -0.56186646
0.0066613103 2.166069 -0.56114572
0.0069164517 2.2490337 -0.56273466
0.0071936827 2.3391812 -0.56467474
0.0074476916 2.4217777 -0.56335497
0.0077546281 2.5215847 -0.56452304
0.0080560837 2.6196096 -0.56364727
0.0083789807 2.7246065 -0.5625878
0.0087683434 2.8512163 -0.56406534
0.0091656875 2.9804211 -0.56392795
0.0095569342 3.1076436 -0.56128854
0.010072477 3.2752836 -0.56349915
0.010609545 3.4499226 -0.5640651
0.011228174 3.6510832 -0.56584084
0.011845959 3.8519695 -0.56423229
0.012558388 4.083631 -0.56353939
0.013374799 4.3491044 -0.56338173
0.014306323 4.65201 -0.56334919
0.015429299 5.01717 -0.56530112
0.016653601 5.4152784 -0.56462049
0.018064979 5.8742185 -0.56316113
0.019759437 6.4252081 -0.56213468
0.021912696 7.1253862 -0.56376129
0.024505526 7.9685006 -0.56386918
0.02775499 9.025135 -0.56329697
0.032038283 10.417939 -0.56334889
0.037916515 12.329373 -0.56398273
0.046428151 15.097116 -0.56489605
0.059614234 19.384855 -0.56404352
0.083487965 27.147915 -0.56415504
0.13926703 45.285679 -0.56459123
-0.019384805 2.1022859 -0.56332886
-0.020130284 2.1831331 -0.56558776
-0.020787174 2.2543731 -0.56409192
-0.021525985 2.3344972 -0.56356525
-0.022238633 2.4117839 -0.56105143
-0.023269894 2.5236244 -0.56500101
-0.02416594 2.6208007 -0.56392491
-0.025196427 2.7325573 -0.56425083
-0.026200203 2.8414171 -0.56214797
-0.027474452 2.9796095 -0.56379563
-0.028722275 3.1149361 -0.56262696
-0.0303503 3.2914956 -0.56630975
-0.031908903 3.4605265 -0.56582022
-0.033529826 3.6363161 -0.56357354
-0.035447422 3.8442798 -0.56312716
-0.037597284 4.0774326 -0.56270528
-0.040117178 4.3507156 -0.56361169
-0.042962052 4.6592426 -0.56424636
-0.046076648 4.9970212 -0.56305212
-0.049875148 5.4089694 -0.56398398
-0.054065138 5.8633747 -0.56214279
-0.059467517 6.4492636 -0.5642606
-0.06578546 7.1344457 -0.56449944
-0.073491804 7.9702001 -0.56401068
-0.083390847 9.0437527 -0.56448036
-0.096204884 10.433438 -0.56420827
-0.11379766 12.341378 -0.5645532
-0.13909815 15.085221 -0.56447232
-0.17879334 19.390173 -0.56421953
-0.25077045 27.196104 -0.5651778
-0.41831934 45.366814 -0.56562412
-0.045397315 2.1095667 -0.56538671
-0.047005996 2.1843204 -0.56600231
-0.048583936 2.2576456 -0.56501758
-0.050467752 2.3451848 -0.56625235
-0.052079953 2.4201021 -0.56309283
-0.054305281 2.5235107 -0.56508231
-0.056564972 2.6285164 -0.56569201
-0.058625881 2.7242846 -0.56264889
-0.061454352 2.8557208 -0.56508458
-0.064005062 2.9742498 -0.56288785
-0.067423955 3.133122 -0.56601864
-0.070417494 3.2722287 -0.56310123
-0.074291751 3.4522617 -0.56457555
-0.078780763 3.6608615 -0.56748492
-0.082946651 3.8544457 -0.56472301
-0.087724179 4.0764527 -0.56267637
-0.093695134 4.3539166 -0.56413299
-0.099980392 4.6459866 -0.56274736
-0.10775644 5.0073309 -0.5643205
-0.11648414 5.4128985 -0.56450039
-0.12685536 5.8948383 -0.56526613
-0.13888694 6.4539342 -0.56477594
-0.15341082 7.1288433 -0.56416279
-0.17139545 7.964571 -0.56371886
-0.19484249 9.0541306 -0.5652349
-0.22439231 10.427281 -0.56398189
-0.26591313 12.35671 -0.56536138
-0.32486925 15.096341 -0.56499517
-0.41784742 19.416943 -0.56510526
-0.58558834 27.211691 -0.56560862
-0.97823143 45.457413 -0.5668608
-0.070896804 2.0959787 -0.56193608
-0.073494919 2.1727889 -0.56320584
-0.076467887 2.2606809 -0.56596977
-0.078837447 2.3307343 -0.56295472
-0.081927031 2.4220741 -0.56374347
-0.085088961 2.5155528 -0.563492
-0.088474914 2.6156545 -0.56311548
-0.092592396 2.7373827 -0.56554645
-0.09669029 2.858532 -0.56583339
-0.09965606 2.9462113 -0.55777127
-0.10591308 3.1311927 -0.5658626
-0.11115415 3.2861385 -0.5656873
-0.11615735 3.4340522 -0.56178874
-0.12318068 3.6416883 -0.56470495
-0.12988289 3.8398311 -0.56277323
-0.13794564 4.0781965 -0.56310868
-0.14738771 4.3573403 -0.56476873
-0.15736936 4.6524358 -0.56372029
-0.16932978 5.006031 -0.56436598
-0.18275619 5.4029665 -0.56365633
-0.19903688 5.8842859 -0.56444627
-0.21805134 6.4464254 -0.56431085
-0.24096546 7.1238537 -0.56395972
-0.26973617 7.9744248 -0.5646084
-0.30559641 9.0345907 -0.56420696
-0.35308075 10.438407 -0.56477582
-0.41752064 12.343495 -0.56494898
-0.51076365 15.100112 -0.56532866
-0.65675497 19.41617 -0.56527513
-0.92124081 27.235376 -0.56629354
-1.5402952 45.536976 -0.56804621
-0.096760109 2.0970612 -0.56250274
-0.099995829 2.1671882 -0.56203032
-0.1029903 2.2320867 -0.55908585
-0.10777097 2.3356969 -0.56443083
-0.11206485 2.4287572 -0.56557697
-0.11672199 2.5296905 -0.56693757
-0.12039435 2.6092808 -0.56201953
-0.12616593 2.7343669 -0.56520116
-0.13131475 2.8459563 -0.5636211
-0.137165 2.9727473 -0.56307173
-0.14317945 3.1030972 -0.56106102
-0.15137994 3.2808247 -0.5650503
-0.15849185 3.4349597 -0.56221354
-0.16778858 3.6364458 -0.56416923
-0.17749962 3.846911 -0.56408817
-0.18824795 4.0798573 -0.56361496
-0.20131737 4.3631077 -0.56579435
-0.21468861 4.6529002 -0.56405377
-0.23122346 5.0112562 -0.56523287
-0.24906991 5.3980384 -0.56341916
-0.27127239 5.8792281 -0.56423843
-0.29717511 6.4406123 -0.56407923
-0.32815728 7.112082 -0.56330466
-0.36747855 7.9642835 -0.56416768
-0.41737062 9.0455837 -0.5651713
-0.48161671 10.437975 -0.56503016
-0.56931925 12.338733 -0.5650087
-0.69684416 15.102553 -0.56569809
-0.89692658 19.438896 -0.56621504
-1.2581164 27.266884 -0.56722748
-2.1042273 45.604465 -0.56916785
-0.12340431 2.1105411 -0.56648272
-0.12717333 2.1750014 -0.56441945
-0.13204597 2.2583361 -0.56602466
-0.13636123 2.3321388 -0.56393349
-0.14193437 2.4274542 -0.56563717
-0.14785346 2.5286863 -0.5670771
-0.15280949 2.6134474 -0.56327915
-0.15921137 2.7229369 -0.56320065
-0.16664553 2.8500805 -0.56480098
-0.17392829 2.9746351 -0.56379175
-0.18228456 3.1175494 -0.56403673
-0.19025432 3.2538536 -0.56076562
-0.20232527 3.4602988 -0.56672519
-0.21276812 3.6388993 -0.56491309
-0.22489993 3.8463852 -0.56437391
-0.23871115 4.0825939 -0.56435585
-0.2545625 4.353694 -0.56493682
-0.27087429 4.632669 -0.56196254
-0.29344937 5.0187626 -0.56644374
-0.31528065 5.3921356 -0.56316507
-0.34351709 5.8750534 -0.56420052
-0.37735331 6.4537425 -0.56559283
-0.41703889 7.1324711 -0.565283
-0.46570006 7.9647059 -0.56456053
-0.52750373 9.0217123 -0.56404245
-0.61127359 10.454399 -0.56628329
-0.72198159 12.3478 -0.56578761
-0.88333434 15.107361 -0.56624216
-1.1377867 19.459171 -0.56717026
-1.5951579 27.281431 -0.56789523
-2.671062 45.682243 -0.57050538
-0.14741938 2.0816698 -0.55917782
-0.1538509 2.1724875 -0.56421542
-0.15942879 2.2512515 -0.56469762
-0.16633227 2.3487337 -0.56839794
-0.17146802 2.4212544 -0.56464112
-0.17860481 2.5220308 -0.56603426
-0.18530828 2.616689 -0.56442624
-0.19272944 2.7214811 -0.56334716
-0.20199981 2.8523855 -0.56570721
-0.21059485 2.9737539 -0.56407291
-0.22066522 3.1159546 -0.56419647
-0.23134153 3.266712 -0.5634293
-0.24414571 3.4475164 -0.5650807
-0.25690407 3.6276739 -0.56361824
-0.27251017 3.8480434 -0.56506616
-0.2887271 4.0770388 -0.56403607
-0.3070915 4.3363576 -0.56313461
-0.32918802 4.6483765 -0.56431627
-0.35414988 5.0008559 -0.56487149
-0.38331759 5.4127254 -0.56576508
-0.41674778 5.8847842 -0.56558436
-0.45595771 6.438457 -0.56470191
-0.50454777 7.1245842 -0.56510693
-0.56429195 7.9682159 -0.56525844
-0.6398865 9.0356674 -0.56536406
-0.7385205 10.428452 -0.56532693
-0.87380153 12.338718 -0.56582105
-1.0703304 15.113851 -0.5669359
-1.3765656 19.438116 -0.56700706
-1.932548 27.288996 -0.56850439
-3.239598 45.745499 -0.57174963
-0.17522345 2.1063864 -0.56635314
