# .PCD v0.7 - Point Cloud Data file format
VERSION 0.7
FIELDS x y z
SIZE 4 4 4
TYPE F F F
COUNT 1 1 1
WIDTH 1477
HEIGHT 1
VIEWPOINT 0 0 0 1 0 0 0
POINTS 1477
DATA ascii
4.2706923 -0.23654455 -0.55406958
4.5701237 -0.25312942 -0.55427861
4.8991737 -0.27135479 -0.55284953
5.2985134 -0.29347333 -0.55329019
5.7498937 -0.31847432 -0.55208439
6.2859802 -0.34816703 -0.55079412
6.939322 -0.38435423 -0.54987878
7.7173877 -0.42744964 -0.54693425
8.714324 -0.4826678 -0.54472899
10.02209 -0.55510217 -0.54277146
11.768816 -0.65184957 -0.53916371
14.236679 -0.78853929 -0.53351462
18.008614 -0.9974587 -0.52479953
24.543959 -1.3594375 -0.51082212
38.484009 -2.1315472 -0.48052573
2.0921512 -0.090092354 -0.56110889
2.1582897 -0.092940412 -0.55964595
2.2272823 -0.095911384 -0.55780607
2.3033211 -0.099185772 -0.55653083
2.4054539 -0.10358382 -0.56007361
2.4843907 -0.106983 -0.55670893
2.5747178 -0.11087266 -0.55449891
2.7123296 -0.11679853 -0.56056923
2.8185346 -0.12137192 -0.55811393
2.9446507 -0.12680274 -0.55767345
3.0800045 -0.13263136 -0.55680937
3.2285111 -0.13902636 -0.55596423
3.3931115 -0.14611439 -0.55528796
3.5825913 -0.15427379 -0.55573791
3.8004706 -0.16365612 -0.55720204
4.0100656 -0.1726817 -0.55389762
4.28686 -0.18460105 -0.5558306
4.5790954 -0.19718532 -0.55503064
4.9078388 -0.21134168 -0.55349225
5.2864027 -0.22764342 -0.55169153
5.7485027 -0.24754241 -0.55161691
6.2837105 -0.27058956 -0.55026209
6.9293551 -0.29839236 -0.54875678
7.7230167 -0.33256906 -0.54700202
8.7180624 -0.37541777 -0.54463297
10.019792 -0.43147296 -0.54231864
11.765041 -0.50662702 -0.5386647
14.238527 -0.6131404 -0.53326106
18.032389 -0.77651191 -0.52517438
24.551821 -1.0572522 -0.51067656
38.518417 -1.6586826 -0.48066434
2.0895343 -0.064251743 -0.56015277
2.1501966 -0.066117071 -0.55729449
2.2330961 -0.068666168 -0.5590083
2.3043375 -0.070856795 -0.55652374
2.4049296 -0.073949933 -0.55969751
2.4923322 -0.076637506 -0.55823511
2.5770247 -0.079241738 -0.55474395
2.7014139 -0.083066627 -0.55805987
2.8282251 -0.086965978 -0.55977875
2.9536259 -0.090821974 -0.55911946
3.0932992 -0.095116824 -0.55895913
3.2343879 -0.099455208 -0.55672354
3.3940485 -0.10436466 -0.55518931
3.5903692 -0.11040139 -0.55669177
3.7890437 -0.1165105 -0.55527467
4.0236068 -0.12372314 -0.55551589
4.2709084 -0.13132751 -0.55351108
4.5581756 -0.14016078 -0.55224431
4.9029813 -0.15076332 -0.55269361
5.2881536 -0.1626071 -0.55162394
5.7584386 -0.17706804 -0.55231965
6.2675271 -0.19272216 -0.54859591
6.9429889 -0.21349214 -0.54958707
7.71977 -0.23737763 -0.54652399
8.7398624 -0.2687448 -0.54574716
10.00953 -0.30778617 -0.54151744
11.75829 -0.36155936 -0.53811133
14.235134 -0.4377206 -0.53289211
18.03669 -0.55461586 -0.52506131
24.555069 -0.75505149 -0.51051241
38.523369 -1.1845671 -0.48050803
2.08778 -0.038510919 -0.55951327
2.1416686 -0.039504938 -0.55491626
2.2315784 -0.0411634 -0.55845952
2.3195851 -0.042786762 -0.56003684
2.4032083 -0.044329263 -0.55912781
2.512707 -0.046349064 -0.56262851
2.5885165 -0.047747433 -0.55704927
2.6924386 -0.049664371 -0.5560376
2.8161883 -0.051947039 -0.55722779
2.945555 -0.054333318 -0.557423
3.0818903 -0.056848146 -0.55672914
3.2427149 -0.059814692 -0.55798805
3.4054949 -0.062817313 -0.55689323
3.603735 -0.06647402 -0.55859524
3.7920165 -0.069947034 -0.55554229
4.0287013 -0.074312896 -0.55605108
4.2800612 -0.078949451 -0.55452961
4.5765338 -0.08441814 -0.55430084
4.9077468 -0.090527654 -0.55306351
5.2923145 -0.097621337 -0.55189103
5.7566962 -0.10618726 -0.55198556
6.286921 -0.11596772 -0.55012709
6.9287815 -0.12780739 -0.54829657
7.7324324 -0.14263143 -0.54725492
8.7479563 -0.16136366 -0.54608738
10.031459 -0.18503897 -0.54253966
11.780688 -0.21730503 -0.53897333
14.243505 -0.26273385 -0.53304428
18.046774 -0.33288842 -0.52519608
24.57439 -0.45329598 -0.51075965
38.532902 -0.71077281 -0.48048159
2.0881035 -0.012837666 -0.55951536
2.1480026 -0.013205927 -0.55647331
2.2342806 -0.013736364 -0.55905122
2.308161 -0.014190582 -0.55719441
2.4067242 -0.014796548 -0.55986112
2.4926486 -0.015324811 -0.55805278
2.5878954 -0.015910389 -0.55683142
2.7119071 -0.016672812 -0.55997348
2.8149688 -0.017306438 -0.55690229
2.9454942 -0.018108908 -0.55732727
3.0869997 -0.018978883 -0.55756778
3.2331583 -0.019877467 -0.55625951
3.3861532 -0.020818081 -0.55364662
3.59882 -0.022125557 -0.55774903
3.7965233 -0.023341037 -0.55611843
4.0193205 -0.024710795 -0.55467248
4.3039508 -0.026460702 -0.55754042
4.5691309 -0.02809103 -0.55332053
4.9032288 -0.030145064 -0.5524708
5.3099093 -0.032645337 -0.55364209
5.7441611 -0.035315119 -0.55070031
6.2961926 -0.038709011 -0.55085504
6.9554124 -0.042761896 -0.55032074
7.7440252 -0.04761029 -0.54799253
8.7395096 -0.053730529 -0.54547763
10.021475 -0.061612055 -0.54191774
11.756831 -0.07228104 -0.53780055
14.244209 -0.087573446 -0.53298998
18.034128 -0.11087388 -0.52474868
24.57102 -0.1510627 -0.51061237
38.549255 -0.23700094 -0.48061284
2.0802193 0.012789195 -0.55740279
2.1561716 0.013256149 -0.55858964
2.2205167 0.013651744 -0.55560726
2.3143427 0.014228586 -0.55868661
2.3947284 0.014722797 -0.55707061
2.500972 0.015375983 -0.5599162
2.5924423 0.015938343 -0.55780971
2.6813333 0.016484845 -0.55366039
2.8118477 0.017287249 -0.55628484
2.9483452 0.018126436 -0.55786669
3.0983377 0.019048588 -0.55961567
3.2441156 0.019944832 -0.55814469
3.4069142 0.020945719 -0.55704111
3.5859621 0.022046506 -0.55575627
3.8009636 0.023368336 -0.55676889
4.0275035 0.024761103 -0.55580169
4.274467 0.026279438 -0.55372107
4.5790334 0.028151911 -0.55451971
4.9135132 0.030208293 -0.55362958
5.2820601 0.032474123 -0.55073845
5.7518578 0.035362441 -0.55143827
6.2964544 0.03871062 -0.55087799
6.9297562 0.042604163 -0.54829085
7.7381024 0.047573876 -0.54757339
8.7426863 0.05375006 -0.54567587
10.025806 0.061638687 -0.54215199
11.77707 0.072405465 -0.53872633
14.235854 0.087522075 -0.53267735
18.043781 0.11093322 -0.52502954
24.585873 0.15115403 -0.51092106
38.540157 0.236945 -0.48049945
2.0857573 0.038473602 -0.55897117
2.1481903 0.039625235 -0.55660605
2.2239382 0.041022472 -0.55654752
2.3072612 0.042559434 -0.55706137
2.4050057 0.044362418 -0.55954599
2.4917209 0.045961957 -0.55792946
2.5981956 0.047925971 -0.55913216
2.6985376 0.049776871 -0.55729711
2.8154366 0.051933173 -0.55707908
2.9474881 0.05436898 -0.55778885
3.0899701 0.05699718 -0.55818868
3.2362196 0.059694882 -0.5568704
3.39382 0.062601954 -0.55498403
3.5841289 0.066112369 -0.55555618
3.7990274 0.070076361 -0.5565694
4.0234008 0.074215122 -0.55531949
4.2710967 0.078784086 -0.55336809
4.578691 0.084457934 -0.55456209
4.9031658 0.090443149 -0.55254728
5.2978559 0.097723559 -0.5524689
5.7495041 0.1060546 -0.55129594
6.2868938 0.11596722 -0.5501247
6.9317403 0.12786196 -0.5485307
7.7196279 0.14239524 -0.54634869
8.7290716 0.16101532 -0.54490852
10.014017 0.18471724 -0.54159635
11.764854 0.21701296 -0.5382489
14.232045 0.26252243 -0.53261536
18.032358 0.33262253 -0.52477652
24.57386 0.4532862 -0.51074862
38.550186 0.71109164 -0.48069713
2.071043 0.063683152 -0.55519575
2.1590862 0.066390425 -0.55959851
2.2294872 0.068555199 -0.55810493
2.3249729 0.071491323 -0.56150746
2.3977118 0.073727995 -0.55801773
2.49857 0.076829314 -0.5596323
2.6000977 0.079951219 -0.5597108
2.6981301 0.08296565 -0.55738151
2.8246808 0.086856999 -0.5590772
2.945955 0.090586096 -0.55766737
3.0919292 0.095074698 -0.55871153
3.2291842 0.099295199 -0.55582786
3.4036202 0.10465898 -0.55675501
3.5844619 0.11021975 -0.55577588
3.7976437 0.11677494 -0.55653501
4.0241728 0.12374056 -0.55559409
4.2863793 0.13180321 -0.55551612
4.5797215 0.14082329 -0.55485469
4.9041176 0.15079825 -0.55282164
5.2916369 0.1627142 -0.55198729
5.7357383 0.17637002 -0.55014235
6.2773752 0.19302499 -0.54945797
6.9279904 0.21303095 -0.54839981
7.7270422 0.23760125 -0.54703885
8.7245245 0.26827314 -0.54478943
10.031063 0.30844831 -0.54268241
11.761848 0.3616688 -0.53827423
14.24617 0.43805996 -0.53330523
18.008759 0.55375701 -0.52424824
24.561874 0.75526077 -0.51065391
38.518856 1.1844283 -0.48045173
2.0894651 0.089976691 -0.56038851
2.1609964 0.093056977 -0.5603478
2.2279854 0.095941655 -0.55798215
2.3165236 0.099754289 -0.55972075
2.402385 0.10345166 -0.55935907
2.4888361 0.10717443 -0.5577051
2.5910642 0.11157658 -0.55801934
2.7021453 0.11635996 -0.55846435
2.8074484 0.12089454 -0.55591869
2.936197 0.12643871 -0.55607247
3.0786657 0.13257371 -0.55656737
3.2360616 0.1393515 -0.55726445
3.4071681 0.14671971 -0.55758834
3.5946004 0.15479092 -0.5576008
3.7957695 0.16345367 -0.55651277
4.0178661 0.17301761 -0.55497509
4.2694931 0.18385321 -0.55357885
4.5621872 0.19645722 -0.55298126
4.906354 0.21127775 -0.55332482
5.2828889 0.22749212 -0.5513249
5.755784 0.24785595 -0.55231559
6.2880149 0.27077493 -0.55063903
6.9302049 0.29842895 -0.54882413
7.7387586 0.33324695 -0.54811698
8.7154427 0.37530497 -0.5444693
10.009904 0.43104714 -0.54178345
11.739203 0.50551432 -0.53748167
14.229392 0.61274701 -0.53291893
18.029963 0.77640748 -0.52510375
24.555433 1.0574077 -0.51075172
38.504623 1.6580887 -0.48049223
2.0892255 0.11571775 -0.56066346
2.1581912 0.1195376 -0.55995917
2.225852 0.1232852 -0.55778533
2.32972 0.12903823 -0.56325012
2.3941779 0.13260841 -0.55778569
2.4800291 0.13736352 -0.55606806
2.5800021 0.14290081 -0.55597341
2.6879435 0.14887945 -0.55586553
2.8085163 0.15555772 -0.55646682
2.9453478 0.16313653 -0.5581432
3.0861993 0.17093799 -0.55826706
3.2378314 0.17933656 -0.55790681
3.3990915 0.18826844 -0.55660337
3.5824428 0.19842386 -0.55605137
3.788476 0.2098356 -0.55577976
4.0112042 0.22217204 -0.55439031
4.2735763 0.23670428 -0.55444372
4.5529466 0.25217801 -0.55219525
4.9017177 0.27149567 -0.55313659
5.2806077 0.2924816 -0.55142045
5.7378082 0.31780496 -0.550924
6.293797 0.3486 -0.55147904
6.9099984 0.38273007 -0.54755521
7.710288 0.4270564 -0.54643106
8.7146435 0.48268554 -0.54474902
9.9982843 0.55378366 -0.54148221
11.742661 0.650401 -0.53796554
14.217218 0.7874614 -0.53278536
18.013609 0.99773538 -0.52494508
24.535557 1.3589721 -0.51064724
38.459122 2.1301687 -0.48021495
2.0885501 0.14145847 -0.56090659
2.1569266 0.14608964 -0.56005484
2.220546 0.15039863 -0.55687702
2.3226271 0.15731262 -0.56196046
2.4042616 0.16284177 -0.56055903
2.4892709 0.16859949 -0.55856287
2.5900066 0.17542236 -0.55855191
2.6923065 0.18235117 -0.55718935
2.8251009 0.19134539 -0.56017667
2.9336772 0.19869933 -0.55635256
3.0784392 0.20850414 -0.55728501
3.236629 0.21921839 -0.55812192
3.3927546 0.22979285 -0.55598634
3.5688052 0.24171685 -0.55435401
3.8017256 0.25749266 -0.55814582
4.0146542 0.27191439 -0.5552873
4.271244 0.28929335 -0.55456072
4.5577374 0.30869767 -0.55319488
4.9092798 0.33250779 -0.55440944
5.2795854 0.3575888 -0.55173111
5.7354045 0.38846162 -0.55111021
6.2691188 0.42461035 -0.54973263
6.9077301 0.46786377 -0.54778993
7.7133021 0.52242553 -0.54705858
8.7044563 0.58955693 -0.54452419
10.020392 0.67868584 -0.5430904
11.73897 0.79508591 -0.5382036
14.216057 0.96286017 -0.53314519
18.003447 1.2193818 -0.52504617
24.533098 1.6616383 -0.51098269
38.462284 2.6050684 -0.48061812
2.0831814 0.16684958 -0.55997342
2.1479323 0.17203572 -0.55822653
2.2342391 0.17894834 -0.56082046
2.3154743 0.18545477 -0.56073922
2.3901007 0.19143187 -0.55776405
2.4944901 0.19979282 -0.56024295
2.5833099 0.20690669 -0.55761421
2.7019174 0.2164064 -0.55968678
2.8126569 0.22527595 -0.55821627
2.9444463 0.23583142 -0.55890256
3.0795324 0.24665096 -0.55798978
3.2153728 0.25753093 -0.55496061
3.3915887 0.27164468 -0.55630064
3.5869796 0.28729427 -0.55768371
3.7820842 0.30292091 -0.555767
4.00878 0.32107779 -0.55497897
4.2803383 0.34282789 -0.55624676
4.5557237 0.3648845 -0.55345321
4.8718286 0.39020249 -0.55068028
5.272438 0.42228878 -0.55148518
5.7384267 0.45961151 -0.55190194
6.2667069 0.50192338 -0.55002075
6.9203119 0.55427301 -0.5492866
7.7013249 0.61682719 -0.54670578
8.7045527 0.69717932 -0.54502529
10.003265 0.80119795 -0.54265511
11.721959 0.9388544 -0.53791231
14.208459 1.1380073 -0.53334475
17.983656 1.4403765 -0.52494586
24.499208 1.9622309 -0.51074082
38.4314 3.0781109 -0.48066884
2.0796492 0.19232844 -0.55961734
2.1355822 0.19750121 -0.55560607
2.2288315 0.20612502 -0.56005698
2.302475 0.21293566 -0.55818307
2.3852468 0.22059047 -0.55722219
2.4833252 0.2296609 -0.55832744
2.5827012 0.23885131 -0.55807465
2.7008731 0.24977998 -0.56006444
2.7914517 0.25815681 -0.55459589
2.9196897 0.2700164 -0.55479163
3.0612497 0.28310806 -0.5552659
3.2340558 0.29908934 -0.55877775
3.3975847 0.31421271 -0.55787569
3.5690012 0.33006549 -0.5554775
3.7860887 0.35014203 -0.55694604
4.0051613 0.3704021 -0.55506653
4.2789793 0.39572513 -0.55666041
4.5646372 0.4221431 -0.5551247
4.9077067 0.45387059 -0.55532455
5.2693272 0.48731366 -0.55174482
5.7188396 0.52888513 -0.55060202
6.2647262 0.57936937 -0.5504306
6.9000306 0.6381231 -0.54825819
7.6960688 0.71174163 -0.54691255
8.6989708 0.80449122 -0.54525399
9.9856606 0.92348588 -0.54227513
11.72831 1.0846481 -0.53877509
14.205591 1.3137501 -0.53380316
17.963694 1.6613039 -0.52491975
24.480915 2.2640243 -0.51090115
38.383366 3.5497396 -0.48057765
2.0759931 0.21776535 -0.55931181
2.1559062 0.22614799 -0.56157464
2.2143316 0.23227663 -0.55708903
2.3027601 0.24155252 -0.55892998
2.3763373 0.24927054 -0.55581486
2.4875216 0.26093346 -0.55994993
2.5711548 0.26970631 -0.55625421
2.681921 0.28132537 -0.55680966
2.8026497 0.29398945 -0.55749673
2.929637 0.30731001 -0.55735773
3.0760655 0.32266989 -0.55863065
3.2116694 0.33689436 -0.5555836
3.3823473 0.35479793 -0.55604804
3.5599604 0.373429 -0.55474317
3.7794549 0.39645332 -0.55664521
3.9854901 0.41806579 -0.553011
4.2533178 0.44616011 -0.55399394
4.5443277 0.47668615 -0.55332583
4.8679724 0.5106355 -0.55149728
5.2578964 0.55153733 -0.55121642
5.7024751 0.59817225 -0.54969299
6.2466249 0.65525198 -0.54950655
6.9216738 0.72606248 -0.55064565
7.6927452 0.80694556 -0.54734015
8.6783104 0.91032839 -0.5446195
9.974124 1.0462552 -0.54230624
11.700172 1.2273124 -0.53813511
14.173625 1.48677 -0.5332486
17.939466 1.8817955 -0.52484834
24.443323 2.5640302 -0.51073605
38.357212 4.0235548 -0.48083332
2.0633776 0.2421266 -0.55667299
2.1366301 0.25072238 -0.55731446
2.219496 0.26044628 -0.55915177
2.3084359 0.2708829 -0.56107372
2.3943992 0.28097028 -0.5608052
2.4719453 0.29006988 -0.55720443
2.5737953 0.30202147 -0.55758679
2.6789818 0.31436452 -0.55695987
2.8128641 0.33007494 -0.56029356
2.9282768 0.34361801 -0.55786061
3.0654037 0.35970914 -0.5574556
3.2225711 0.37815192 -0.55823165
3.3879666 0.39756021 -0.55773336
3.56497 0.41833064 -0.55628335
3.7617667 0.44142371 -0.55479759
3.992516 0.46850094 -0.55474335
4.2533298 0.49910608 -0.55475295
4.5326595 0.53188396 -0.55265963
4.8710613 0.57159364 -0.55260175
5.2576284 0.61695528 -0.55194193
5.7036657 0.66929543 -0.55055952
6.2493382 0.73332721 -0.55049682
6.8934183 0.80890667 -0.54914761
7.6829886 0.90155864 -0.54739338
8.6752615 1.0179967 -0.54517251
9.9757633 1.1706039 -0.54313695
11.690734 1.3718467 -0.53843617
14.139045 1.6591432 -0.53267491
17.924292 2.1033223 -0.52512133
24.425081 2.8661561 -0.51105267
38.30312 4.4946713 -0.48081166
2.0750334 0.26939866 -0.56066889
2.1479695 0.27886787 -0.56112427
2.2247534 0.28883657 -0.56132853
2.2880871 0.29705915 -0.55697358
2.38641 0.30982423 -0.559784
2.4813638 0.32215196 -0.56017804
2.5873601 0.3359133 -0.56137788
2.6929014 0.34961557 -0.56070513
2.7892275 0.36212146 -0.55643028
2.9234061 0.3795417 -0.55777967
3.056716 0.39684913 -0.55672097
3.2076311 0.41644225 -0.55648863
3.3887503 0.43995669 -0.55871075
3.5480592 0.46063951 -0.55448645
3.7604289 0.48821118 -0.55544364
3.9889405 0.51787853 -0.55508935
4.2564492 0.55260885 -0.55600405
4.533761 0.58861178 -0.55363458
4.8678069 0.63198054 -0.55307233
5.2576714 0.68259603 -0.55278575
5.6906033 0.73880303 -0.55013394
6.2359033 0.80959851 -0.55014873
6.882987 0.89360845 -0.54915047
7.6610827 0.99462759 -0.54666269
8.6677723 1.1253246 -0.5455302
9.943861 1.2909975 -0.54222333
11.671286 1.5152665 -0.53835785
14.145658 1.8365108 -0.53373444
17.901907 2.3241792 -0.52526307
24.386803 3.1661041 -0.51102769
38.260372 4.9672899 -0.48100543
2.0670357 0.29424733 -0.5594433
2.1369038 0.3041932 -0.5591684
2.217258 0.31563181 -0.56037432
2.2870843 0.32557175 -0.55766183
2.3792839 0.33869657 -0.55904704
2.4574945 0.34983003 -0.55571854
2.5633147 0.36489376 -0.55709213
2.6791687 0.38138586 -0.55878001
2.7870979 0.39674985 -0.55693656
2.9182942 0.41542596 -0.55773681
3.0539525 0.43473724 -0.55714917
3.2127123 0.45733702 -0.55830359
3.3676341 0.4793905 -0.55615908
3.5608611 0.50689679 -0.55741906
3.7542577 0.53442729 -0.55546081
3.9912188 0.56815922 -0.55633658
4.2457032 0.60438567 -0.55552906
4.536047 0.64571679 -0.5548414
4.8558598 0.69124293 -0.55263889
5.2401338 0.74594516 -0.55186456
5.6960092 0.81084007 -0.55157876
6.2258315 0.88626152 -0.55018002
6.8690171 0.97782052 -0.54895371
7.6542506 1.0896003 -0.54708987
8.6527386 1.2317374 -0.54549599
9.9310274 1.4137048 -0.54243046
11.653408 1.6588897 -0.53843343
14.09446 2.0063789 -0.53269333
17.85059 2.5410728 -0.52463454
24.352133 3.4665825 -0.51115578
38.196896 5.4374166 -0.48101163
2.0580373 0.31883106 -0.55802679
2.1281221 0.32968861 -0.55788916
2.2015207 0.34105948 -0.55741471
2.2892895 0.35465664 -0.55922055
2.3733277 0.36767584 -0.55866766
2.4642439 0.38176057 -0.55826414
2.553468 0.39558315 -0.55596727
2.6653013 0.41290841 -0.55690461
2.769619 0.42906928 -0.55445617
2.9202003 0.45239735 -0.55912197
3.0414355 0.47117907 -0.55588061
3.204195 0.49639377 -0.55784202
3.3457403 0.51832199 -0.55355412
3.5440907 0.54905039 -0.55580866
3.7436006 0.5799585 -0.55489725
3.9804029 0.61664391 -0.55584383
4.2334967 0.65585315 -0.55494517
4.5139246 0.69929707 -0.55314541
4.8431268 0.75029707 -0.55219799
5.2368875 0.81129843 -0.55253154
5.6721168 0.87872416 -0.55026984
6.214334 0.96272439 -0.55016851
6.8513536 1.0614114 -0.54854363
7.6471715 1.1846995 -0.5475837
8.6306705 1.3370632 -0.54510003
9.9070349 1.5347974 -0.54210979
11.63706 1.8028129 -0.53866166
14.080781 2.1813941 -0.53314984
17.83065 2.7623239 -0.52500713
24.314857 3.7668569 -0.51130694
38.13599 5.9080262 -0.48112312
2.0706327 0.34690467 -0.56255609
2.1196642 0.35511917 -0.5567745
2.1915817 0.36716792 -0.55599934
2.2876787 0.38326761 -0.55993605
2.3641348 0.39607671 -0.55760801
2.4571135 0.41165397 -0.55775338
2.5646541 0.42967081 -0.55951089
2.6511209 0.44415709 -0.55504084
2.7833025 0.46630225 -0.55830121
2.9071085 0.48704413 -0.55771989
3.0392485 0.50918227 -0.55658317
3.1933711 0.5350033 -0.55706084
3.3395588 0.55949491 -0.55362779
3.5338275 0.59204185 -0.55529886
3.7438726 0.6272319 -0.55603874
3.9645152 0.66419739 -0.5547238
4.2164459 0.70640475 -0.5538069
4.5228148 0.75773245 -0.55533463
4.8412304 0.81107837 -0.5530771
5.2254739 0.87545282 -0.55242133
5.6764593 0.95100892 -0.55178386
6.198678 1.0384991 -0.54987144
6.8257542 1.1435567 -0.54757851
7.6437845 1.2806059 -0.54842728
8.613266 1.4430286 -0.5450803
9.8873224 1.6564783 -0.54210472
11.608367 1.9448146 -0.53839976
14.063898 2.3562033 -0.53356725
17.797419 2.9817011 -0.52506852
24.265371 4.0653129 -0.51127887
38.086449 6.3808351 -0.48145157
2.0565119 0.37059021 -0.55991542
2.1331224 0.38439566 -0.56150872
2.1943102 0.39542189 -0.55788291
2.2691312 0.40890491 -0.55658489
2.3528309 0.42398787 -0.55612946
2.4481936 0.44117254 -0.55691791
2.5376234 0.45728809 -0.5547986
2.6692803 0.48101309 -0.56003869
2.7798731 0.50094229 -0.55880666
2.8985121 0.5223214 -0.55726069
3.0487247 0.54939026 -0.55951345
3.1814866 0.57331437 -0.55617541
3.3439853 0.60259718 -0.55554801
3.518898 0.63411701 -0.55413622
3.7443511 0.67474443 -0.55729991
3.9572771 0.71311438 -0.554896
4.2168446 0.75988925 -0.55504453
4.4994493 0.81081557 -0.55364799
4.8413405 0.8724255 -0.55427337
5.2039104 0.93776172 -0.55131906
5.664269 1.0207199 -0.55177724
6.1766963 1.1130611 -0.54909414
6.8207068 1.2291138 -0.54834461
7.6187849 1.3729302 -0.54780346
8.5824413 1.5465841 -0.54429191
9.8584595 1.7765269 -0.54167902
11.587716 2.0881445 -0.5385921
14.013848 2.5253415 -0.53280628
17.767611 3.201782 -0.52531087
24.210249 4.3627663 -0.51120913
38.001396 6.8479767 -0.48140448
2.0498703 0.39547586 -0.55938882
2.1235576 0.40969214 -0.56027466
2.1928153 0.42305386 -0.55878317
2.2807186 0.44001281 -0.56071186
2.3552043 0.45438313 -0.55796891
2.4510648 0.4728772 -0.55885154
2.5363517 0.48933139 -0.55579406
2.65115 0.51147908 -0.55751222
2.7659161 0.5336206 -0.55727792
2.8812709 0.55587572 -0.5552181
3.020607 0.58275741 -0.55562627
3.1753342 0.61260849 -0.55637467
3.3289211 0.64223963 -0.55431539
3.5207937 0.67925709 -0.55570805
3.7378459 0.7211324 -0.55760938
3.9349294 0.75915515 -0.55302954
4.2181034 0.81378716 -0.5564853
4.4987507 0.86793172 -0.55483335
4.8226995 0.93043017 -0.55340719
5.2113123 1.0054042 -0.55337119
5.6509943 1.0902309 -0.55174834
6.1647148 1.1893415 -0.54928756
6.8113704 1.314099 -0.54885161
7.6072488 1.4676458 -0.54823017
8.5706749 1.6535169 -0.54479402
9.8419523 1.8987809 -0.54201394
11.563013 2.2308204 -0.53867823
13.998722 2.7007351 -0.53345346
17.721846 3.4190271 -0.52516115
24.170422 4.6631331 -0.51154023
37.913456 7.314539 -0.48139346
2.0376575 0.41917008 -0.55742049
2.1216869 0.43645591 -0.56115466
2.1870639 0.44990474 -0.55868512
2.2715998 0.46729475 -0.55984032
2.3534217 0.48412648 -0.55891466
2.4554682 0.50511867 -0.56122929
2.5414131 0.52279854 -0.55826968
2.6484635 0.54482007 -0.55831391
2.762229 0.568223 -0.55790067
2.8950634 0.59554857 -0.55924481
3.0247157 0.62221956 -0.55774724
3.1744905 0.65302998 -0.55759168
3.3333137 0.68570179 -0.55640882
3.5142326 0.72291893 -0.55603349
3.7229655 0.76585776 -0.55675232
3.9334331 0.80915338 -0.55417573
4.1947212 0.86290348 -0.55475849
4.4852395 0.92266643 -0.5545243
4.802917 0.98801643 -0.55248952
5.1820736 1.0660135 -0.55161661
5.63483 1.1591507 -0.55152005
6.152154 1.2655704 -0.5495134
6.7996197 1.3987616 -0.54924917
7.5699964 1.5572373 -0.54688412
8.5483971 1.7585058 -0.54471129
9.823926 2.0208969 -0.54234868
11.532835 2.3724396 -0.53859067
13.972452 2.8742976 -0.53375888
17.678289 3.636632 -0.5251559
24.107479 4.9591918 -0.51146007
37.848969 7.7859774 -0.48175386
2.0410984 0.44610468 -0.55982012
2.1136966 0.46197179 -0.5605014
2.1854889 0.4776628 -0.55974084
2.2675757 0.49560377 -0.56030816
2.3370748 0.51079363 -0.55648208
2.4439297 0.53414792 -0.5600509
2.5314591 0.55327845 -0.55753541
2.6358278 0.57608938 -0.55710143
2.7520506 0.60149115 -0.55729657
2.8792267 0.62928689 -0.55763823
3.014492 0.65885061 -0.5573138
3.1798289 0.69498682 -0.55998808
3.3148081 0.72448808 -0.55476493
3.4997146 0.7649014 -0.55518264
3.7119009 0.81127703 -0.5565474
3.932611 0.85951567 -0.55550694
4.1898532 0.91573882 -0.55556184
4.4667888 0.97626615 -0.55368549
4.7904763 1.0470116 -0.55249763
5.1699429 1.1299483 -0.55176264
5.6248779 1.2293794 -0.55198389
6.1458764 1.3432493 -0.55038643
6.7619805 1.4779058 -0.54763538
7.5655041 1.6535248 -0.54798704
8.5354204 1.8655108 -0.54530489
9.8057289 2.1431506 -0.54275793
11.513451 2.5163922 -0.53908968
13.927005 3.0439012 -0.53341222
17.635878 3.8545165 -0.52526426
24.06238 5.2590995 -0.51183653
37.74876 8.2504091 -0.48173326
2.0376725 0.47167975 -0.56042892
2.0983329 0.48572135 -0.55796897
2.1857674 0.50596064 -0.56136322
2.2660413 0.52454245 -0.5614804
2.331028 0.53958559 -0.55658001
2.4362535 0.56394315 -0.55983865
2.5292706 0.58547473 -0.55859679
2.6298673 0.60876077 -0.55738157
2.7420447 0.63472754 -0.55680877
2.8638837 0.66293079 -0.55620337
3.0159502 0.69813114 -0.55912822
3.1500573 0.7291742 -0.5562821
3.3245251 0.76955992 -0.55793262
3.49577 0.80919963 -0.55609334
3.7002089 0.8565231 -0.55633146
3.910089 0.90510607 -0.55385584
4.1755753 0.96656072 -0.55520266
4.4637699 1.0332719 -0.55484432
4.7670026 1.1034641 -0.55131358
5.1469741 1.1914197 -0.55083323
5.606627 1.2978201 -0.55171722
6.1256614 1.417966 -0.55009598
6.7684622 1.5667613 -0.54967898
7.5354452 1.7443023 -0.54732203
8.5018034 1.9679945 -0.544662
9.7886705 2.265878 -0.54331487
11.468534 2.654732 -0.53847426
13.904983 3.2187207 -0.53404433
17.60437 4.0750532 -0.52577847
23.987888 5.5527081 -0.5116657
37.666317 8.7189856 -0.4820129
2.0250797 0.49507526 -0.55859751
2.1074965 0.51522386 -0.5620479
2.1665497 0.5296607 -0.55805814
2.2569213 0.55175406 -0.56085932
2.3311853 0.56990951 -0.5582487
2.417933 0.59111685 -0.55725682
2.513541 0.61449039 -0.55674952
2.6361804 0.64447224 -0.56035686
2.7402778 0.6699211 -0.55808055
2.8612573 0.69949728 -0.55732167
3.0026872 0.73407286 -0.55830061
3.1468666 0.76932073 -0.55734706
3.2974913 0.80614424 -0.55501735
3.4924495 0.85380608 -0.5571931
3.6828182 0.90034592 -0.55533934
3.9119155 0.95635378 -0.55573827
4.1532164 1.0153451 -0.55384791
4.448987 1.0876528 -0.5546273
4.7684574 1.1657542 -0.55309784
5.1533022 1.259838 -0.55312657
5.5824413 1.3647505 -0.55094695
6.1097755 1.4936689 -0.55027717
6.7432723 1.6485412 -0.54923803
7.509788 1.8359329 -0.54705685
8.4846907 2.0742693 -0.54515851
9.7513123 2.3839228 -0.54282737
11.434547 2.7954266 -0.53845179
13.854214 3.3869672 -0.53365368
17.537041 4.2873154 -0.52530241
23.931089 5.850481 -0.51194996
37.586124 9.188755 -0.48239619
2.0236709 0.52118164 -0.55993438
2.0869834 0.53748727 -0.55829763
2.1721141 0.55941206 -0.56122082
2.2446213 0.57808578 -0.55952686
2.3221924 0.59806365 -0.557814
2.4131088 0.6214785 -0.55786407
2.511481 0.64681351 -0.55801278
2.633811 0.67831868 -0.5615837
2.7283745 0.70267284 -0.55737388
2.8620453 0.73709875 -0.55919832
2.9882526 0.7696026 -0.55733418
3.1391904 0.80847549 -0.55770612
3.2934256 0.84819758 -0.55604649
3.4807093 0.89643115 -0.55703652
3.6685767 0.94481504 -0.55490172
3.8842967 1.0003722 -0.55352038
4.1534257 1.0696843 -0.55558783
4.4366088 1.1426162 -0.55479378
4.7605352 1.226041 -0.55388576
5.1296005 1.3210909 -0.55228442
5.5769753 1.4363091 -0.55210882
6.0959182 1.569959 -0.55072618
6.7315297 1.7336562 -0.54997635
7.4928288 1.9297231 -0.5475086
8.4592648 2.1786215 -0.54520488
9.7088881 2.500453 -0.54213631
11.426898 2.9429138 -0.53975487
13.804478 3.5552421 -0.53338146
17.504009 4.5080295 -0.52593368
23.85294 6.1431499 -0.51185542
37.477909 9.6521606 -0.48249409
2.0169377 0.54597783 -0.55988663
2.0867224 0.56486821 -0.56004357
2.1560707 0.58364058 -0.5588876
2.2288153 0.60333228 -0.55739403
2.3275871 0.63006943 -0.56092858
2.4061854 0.65134567 -0.55807287
2.5056906 0.67828143 -0.55853713
2.6162565 0.70821118 -0.55965525
2.7298779 0.73896813 -0.55949509
2.8488212 0.77116567 -0.55842507
2.9768753 0.80582941 -0.55701816
3.1294668 0.84713542 -0.55778706
3.2821891 0.88847679 -0.55595195
3.4637499 0.93762463 -0.55612552
3.6577311 0.9901346 -0.55506086
3.8797836 1.0502435 -0.55467564
4.1348872 1.1192991 -0.5549072
4.4122596 1.1943828 -0.55354363
4.744688 1.2843701 -0.55383766
5.1143446 1.3844347 -0.55243301
5.5579185 1.5045086 -0.55201203
6.0768704 1.644987 -0.55079114
6.7132936 1.8172644 -0.55027056
7.4661832 2.021069 -0.54733616
8.4477329 2.2867711 -0.5462327
9.6875324 2.62238 -0.54270339
11.377164 3.0797572 -0.5391537
13.776093 3.7291389 -0.53401619
17.449575 4.7235374 -0.52600354
23.779112 6.4369202 -0.511931
37.36578 10.114782 -0.48261529
2.0183158 0.57307649 -0.56218278
2.0767653 0.58967263 -0.55927503
2.1586025 0.61290926 -0.56145507
2.2242057 0.63153648 -0.55814111
2.3143826 0.65714115 -0.55965143
2.4018564 0.68197829 -0.55897158
2.5010622 0.71014661 -0.55940968
2.5999007 0.73821056 -0.55805612
2.7160738 0.77119654 -0.55856717
2.8503547 0.80932397 -0.56063402
2.9669967 0.84244305 -0.55706596
3.1038272 0.88129443 -0.5551067
3.2841332 0.93249017 -0.55818129
3.4443629 0.9779855 -0.55490172
3.6379559 1.0329539 -0.5539456
3.8670242 1.097995 -0.55473977
4.1115613 1.1674284 -0.55366141
4.4032888 1.2502609 -0.55430502
4.7367692 1.3449488 -0.55480182
5.0884447 1.4448028 -0.55151272
5.5407944 1.5732421 -0.5521909
6.0434837 1.7159746 -0.54963601
6.6825023 1.8974164 -0.54961753
7.4397893 2.1124389 -0.5472641
8.4094114 2.3877516 -0.54561204
9.6465969 2.7390354 -0.542256
11.327106 3.2161956 -0.53861487
13.72548 3.8971853 -0.53387147
17.397139 4.9397087 -0.52621412
23.712841 6.7329764 -0.51224792
37.249771 10.576625 -0.48276019
2.0179312 0.59987515 -0.56408763
2.0692351 0.61512637 -0.55924177
2.147197 0.63830233 -0.56048757
2.2286677 0.6625213 -0.56126267
2.3073783 0.68591982 -0.55995488
2.4039946 0.71464115 -0.56147182
2.494405 0.74151766 -0.55991775
2.5907342 0.7701537 -0.55807912
2.7077959 0.80495292 -0.55885816
2.8179348 0.83769417 -0.55624139
2.9632936 0.88090533 -0.55836225
3.1134694 0.92554843 -0.55882436
3.2675025 0.97133821 -0.55734259
3.4272962 1.0188404 -0.55412865
3.6395035 1.0819238 -0.55616498
3.8549488 1.1459697 -0.55498695
4.1004705 1.2189565 -0.55414444
4.383832 1.3031921 -0.5538311
4.7108998 1.4004203 -0.55374688
5.0843687 1.5114423 -0.55304354
5.5141726 1.6392112 -0.55150485
6.0491757 1.7982528 -0.55212295
6.6622944 1.980516 -0.54991692
7.430531 2.2088916 -0.54853958
8.377615 2.4904335 -0.54549468
9.6298819 2.8626978 -0.54325408
11.307487 3.3614035 -0.53960669
13.69531 4.0712371 -0.53460473
17.328709 5.1513462 -0.52602047
23.631001 7.0248437 -0.51230729
37.143162 11.041636 -0.48310164
1.9950861 0.6198824 -0.55978996
2.0660126 0.64191961 -0.56046182
2.127995 0.66117787 -0.55755538
2.2267785 0.69187027 -0.56288689
2.2860389 0.71028274 -0.55685371
2.3783739 0.73897165 -0.55756801
2.4711263 0.76779032 -0.55676955
2.5752757 0.80014998 -0.55682653
2.6820385 0.83332169 -0.55561495
2.8176312 0.87545097 -0.5582642
2.942348 0.91420102 -0.55649161
3.0896783 0.95997727 -0.55663085
3.2405331 1.0068486 -0.55481219
3.4278693 1.0650547 -0.55629665
3.6272972 1.1270179 -0.55637532
3.8452578 1.1947392 -0.55566484
4.090425 1.2709138 -0.5548569
4.3659258 1.3565131 -0.55363435
4.702239 1.4610072 -0.55479866
5.0540366 1.5703124 -0.55180281
5.5012488 1.7092632 -0.55227262
6.0050483 1.8657961 -0.55014777
6.6332579 2.0609837 -0.54957044
7.3991976 2.2989647 -0.54827189
8.3563423 2.5963538 -0.54614705
9.5888596 2.9793026 -0.54296547
11.250292 3.4955173 -0.53888768
13.634501 4.2363019 -0.53422409
17.256168 5.3615708 -0.52578002
23.563391 7.3212538 -0.51275444
37.011108 11.499521 -0.48318675
1.9816943 0.64254427 -0.55820721
2.0387831 0.66105467 -0.55523819
2.1275024 0.68982106 -0.55960643
2.194757 0.71162766 -0.55696237
2.2824256 0.74005336 -0.55814803
2.3786747 0.77126116 -0.55981958
2.4752345 0.80256963 -0.55987632
2.5668187 0.8322649 -0.5571686
2.7059884 0.87738925 -0.56276888
2.8037748 0.90909553 -0.55769151
2.9355645 0.95182699 -0.5573802
3.088407 1.0013846 -0.55857795
3.2220111 1.0447043 -0.55379856
3.4069326 1.1046633 -0.5550614
3.6186504 1.1733106 -0.55721992
3.8290708 1.2415373 -0.55548984
4.0815501 1.3234011 -0.55581844
4.3496299 1.4103234 -0.55372518
4.6803069 1.517542 -0.5543707
5.0446501 1.6356765 -0.55293214
5.4718518 1.7741923 -0.55146992
5.9895353 1.9420459 -0.55087268
6.600266 2.1400692 -0.54897583
7.3623323 2.3871615 -0.54767394
8.3080187 2.6937907 -0.54511249
9.5616217 3.1002586 -0.54354072
11.21731 3.637099 -0.53940934
13.594387 4.4078417 -0.53473562
17.201511 5.577415 -0.52616453
23.462658 7.6075287 -0.51255935
36.888916 11.960856 -0.48347506
1.9744078 0.66711974 -0.55842316
2.0386093 0.68881232 -0.55745542
2.1165953 0.71516258 -0.55900836
2.1988523 0.74295586 -0.56027764
2.2706325 0.76720917 -0.55752897
2.3629658 0.79840702 -0.5583908
2.4592826 0.83095086 -0.55853707
2.5589926 0.86464131 -0.5577355
2.6746285 0.90371269 -0.55851579
2.7832913 0.94042808 -0.5558753
2.9241343 0.98801661 -0.55747449
3.0780101 1.0400087 -0.55896825
3.2145386 1.0861393 -0.55476779
3.3961034 1.1474872 -0.55555385
3.5940356 1.2143651 -0.55568695
3.8143203 1.2887957 -0.55560702
4.0571604 1.3708473 -0.55475062
4.3465328 1.4686215 -0.55558789
4.6613841 1.5750046 -0.55438143
5.0208621 1.6964662 -0.55256951
5.4496698 1.8413533 -0.55147463
5.9628835 2.0147595 -0.55065835
6.5728149 2.2208455 -0.54892248
7.3268704 2.4756281 -0.54725903
8.2811251 2.7980549 -0.54556412
9.4935808 3.2077239 -0.54187411
11.174496 3.7756772 -0.53954232
13.535876 4.5735483 -0.5346058
17.134495 5.7894626 -0.52625239
23.373758 7.8976064 -0.51269996
36.744667 12.415415 -0.48354879
1.9806348 0.69647223 -0.56256402
2.0362766 0.71603811 -0.55918288
2.1096482 0.74183869 -0.55954051
2.1864741 0.76885378 -0.55949026
2.2670858 0.79720014 -0.55902284
2.3523321 0.82717621 -0.55823934
2.4577866 0.86425829 -0.56056857
2.5529928 0.89773667 -0.55879152
2.6573133 0.93442011 -0.55725729
2.7752669 0.97589737 -0.55662721
2.9081471 1.0226235 -0.55678183
3.0503025 1.0726111 -0.55628961
3.2045083 1.1268363 -0.55538613
3.387723 1.191262 -0.55653715
3.5837045 1.2601771 -0.55644339
3.7992411 1.3359686 -0.5557614
4.0448956 1.4223508 -0.55542314
4.3198037 1.5190197 -0.55451691
4.6399255 1.6315877 -0.55417353
5.0045528 1.7598056 -0.5531143
5.4383192 1.9123355 -0.5526638
5.9470735 2.0912344 -0.55153137
6.5475278 2.3023787 -0.54913348
7.3022761 2.5677791 -0.54773903
8.24259 2.8984318 -0.54533219
9.463769 3.3278482 -0.54246718
11.131023 3.9141233 -0.53972638
13.475313 4.7384715 -0.53447467
17.0805 6.0062027 -0.52682257
23.276989 8.1851416 -0.51274627
36.63063 12.880828 -0.48409587
1.9590522 0.71606863 -0.55889261
2.0144148 0.73630458 -0.55562371
2.1059756 0.7697717 -0.56103444
2.1758869 0.79532552 -0.55924135
2.2687507 0.82926887 -0.56190526
2.3331475 0.8528071 -0.55613315
2.4379594 0.89111775 -0.55850339
2.5416946 0.92903483 -0.55877686
2.6453376 0.96691817 -0.55719715
2.7738061 1.0138756 -0.55879247
2.896033 1.0585518 -0.55691254
3.0509107 1.1151624 -0.55885905
3.1954596 1.1679976 -0.55626494
3.3714345 1.2323195 -0.55630857
3.5464664 1.2962968 -0.55309463
3.7788842 1.3812497 -0.55522609
4.0361886 1.475299 -0.55667645
4.3031912 1.5728933 -0.55482519
4.6143894 1.6866418 -0.55355883
4.9998155 1.8275218 -0.55503237
5.4072504 1.9764466 -0.55193454
5.9209208 2.1642022 -0.55153227
6.5153885 2.3814909 -0.5488525
7.2609301 2.6539996 -0.54704422
8.2145767 3.0025747 -0.54588032
9.442667 3.4514635 -0.54364926
11.07725 4.048933 -0.53949231
13.423462 4.9065151 -0.53477067
16.992998 6.2112446 -0.52643961
23.193272 8.4775553 -0.51315963
36.473717 13.331795 -0.48415202
1.9448407 0.73810613 -0.55738533
2.019752 0.76653653 -0.5596534
2.075999 0.7878834 -0.55558765
2.167891 0.82275826 -0.55974424
2.2413318 0.85063052 -0.55766284
2.3310523 0.88468122 -0.5581845
2.433332 0.92349839 -0.56000239
2.5257337 0.95856673 -0.55781704
2.6382914 1.0012846 -0.55826408
2.7594683 1.0472738 -0.55845612
2.881603 1.0936264 -0.55668151
3.0199075 1.1461157 -0.55571949
3.189817 1.2105997 -0.55783188
3.3568068 1.2739756 -0.55643773
3.5606375 1.3513335 -0.557854
3.7622705 1.4278574 -0.55532283
3.9953156 1.5163026 -0.5535689
4.2729511 1.621671 -0.55345547
4.5795312 1.7380242 -0.55189919
4.9560637 1.8809258 -0.55270123
5.4020805 2.0501983 -0.55393821
5.8867183 2.234128 -0.55086368
6.4953961 2.4651334 -0.54968035
7.2451949 2.7496972 -0.5483647
8.1765757 3.1031752 -0.5458495
9.394186 3.5652826 -0.54334098
11.021288 4.1828003 -0.539231
13.366588 5.0728889 -0.53494954
16.922644 6.4224834 -0.52666676
23.095238 8.7651072 -0.51333648
36.350479 13.795739 -0.48473135
1.9441758 0.76533198 -0.55984962
2.001431 0.78787065 -0.55721915
2.0720427 0.81566721 -0.55717093
2.1572649 0.84921527 -0.55965447
2.2470374 0.88455451 -0.56174618
2.3219702 0.91405213 -0.5586589
2.4199927 0.95263898 -0.55958611
2.5317972 0.99665123 -0.56182033
2.6093524 1.0271811 -0.5547713
2.7499235 1.0825175 -0.55917609
2.8772635 1.1326454 -0.55849153
3.0060823 1.1833553 -0.55581111
3.1715646 1.2484981 -0.55728257
3.3521142 1.319572 -0.55830735
3.5297794 1.3895106 -0.55565429
3.7350924 1.4703329 -0.55393803
3.9870534 1.5695182 -0.55505621
4.2724695 1.6818733 -0.55602974
4.5833831 1.8042656 -0.55499518
4.9251223 1.9387925 -0.5518676
5.3727798 2.1150146 -0.55355871
5.8592062 2.3064981 -0.55090153
6.4669056 2.5457211 -0.54987681
7.2144303 2.839987 -0.54863787
8.1406021 3.2045782 -0.54603732
9.3410473 3.6771376 -0.54284167
10.970789 4.3186913 -0.53931773
13.301827 5.2363133 -0.53489423
16.859222 6.6366949 -0.52719295
23.010273 9.0580778 -0.51388478
36.185928 14.244724 -0.48483616
1.9358214 0.78966939 -0.56019765
2.002876 0.81702268 -0.56037617
2.0615866 0.84097213 -0.55709785
2.1412511 0.87346923 -0.55824423
2.2359865 0.9121142 -0.56174499
2.315295 0.94446605 -0.5598048
2.3967874 0.97770888 -0.55695814
2.5038753 1.0213926 -0.5583691
2.607446 1.0636417 -0.55710459
2.7212889 1.1100811 -0.55608708
2.8582904 1.1659673 -0.5575496
3.0015814 1.2244194 -0.55772054
3.1515708 1.2856036 -0.55650508
3.3242695 1.3560517 -0.55640489
3.5200257 1.4359056 -0.55685627
3.725024 1.5195293 -0.55517393
3.9775321 1.6225337 -0.55646616
4.2296162 1.7253649 -0.55317193
4.5574679 1.8591038 -0.55458331
4.9301891 2.0111461 -0.55516446
5.3314514 2.1748309 -0.55201417
5.8208394 2.3744643 -0.54999781
6.4346185 2.62484 -0.54983431
7.1685658 2.9242353 -0.5478431
8.099781 3.3041008 -0.54598308
9.3247862 3.8038111 -0.54457372
10.942388 4.4636707 -0.5405789
13.243755 5.4024553 -0.53518987
16.776072 6.8433743 -0.52718431
22.889194 9.3370686 -0.51370609
36.047096 14.704502 -0.48536193
1.9226594 0.81201535 -0.55923599
2.0002146 0.84476995 -0.56249529
2.0682797 0.87351656 -0.56176662
2.1321995 0.90051246 -0.55872905
2.2168841 0.93627805 -0.55979592
2.3022654 0.97233802 -0.55950296
2.3988023 1.0131093 -0.56027889
2.4809647 1.0478097 -0.55609119
2.6043246 1.0999095 -0.55928516
2.7110987 1.1450045 -0.55683976
2.8564551 1.2063943 -0.56004292
2.9833481 1.2599863 -0.55716932
3.1380954 1.3253422 -0.55696124
3.3104415 1.3981308 -0.55692589
3.4913933 1.4745538 -0.55515313
3.7021627 1.5635701 -0.55459023
3.9343827 1.6616458 -0.5532462
4.2074475 1.7769721 -0.55308855
4.5295887 1.913025 -0.55401146
4.8846426 2.0629783 -0.55285031
5.3061528 2.2409987 -0.55220616
5.800436 2.4497542 -0.55087459
6.3963494 2.7014322 -0.54936117
7.1480951 3.0189242 -0.54907411
8.0661402 3.4066508 -0.54649776
9.262888 3.9120848 -0.54372704
10.880563 4.595293 -0.54027528
13.170113 5.5622611 -0.53493738
16.687311 7.0477133 -0.52707857
22.79365 9.6266632 -0.51417959
35.880009 15.15355 -0.48558438
1.9211638 0.83936632 -0.5617606
1.9761368 0.86338431 -0.55866754
2.04667 0.89420062 -0.55884147
2.1193097 0.92593718 -0.55829269
2.2085946 0.96494621 -0.56065649
2.3004563 1.0050812 -0.56202435
2.3824279 1.040895 -0.55940157
2.4831734 1.0849111 -0.55953419
2.5848415 1.1293305 -0.55804116
2.6966825 1.1781944 -0.55681235
2.8136096 1.2292804 -0.55456418
2.9640017 1.2949874 -0.55648798
3.1344821 1.3694713 -0.55926645
3.3008356 1.442152 -0.55825096
3.4901567 1.5248673 -0.55789578
3.6836989 1.6094269 -0.55474699
3.9306746 1.7173318 -0.5556522
4.2147923 1.8414642 -0.55698854
4.5116091 1.971145 -0.55473495
4.8696842 2.1275899 -0.55407649
5.2758932 2.3050647 -0.55196512
5.7659707 2.5191822 -0.5505017
6.363379 2.7801929 -0.54942411
7.0968451 3.1006479 -0.54802465
8.0201683 3.5040526 -0.54626107
9.2170277 4.0269666 -0.54390061
10.816772 4.725903 -0.53995246
13.113453 5.7293348 -0.53545707
16.620718 7.2616768 -0.52775568
22.666693 9.9031944 -0.51402378
35.698654 15.596925 -0.48568887
1.9017283 0.85887361 -0.5591234
1.9735414 0.89130634 -0.56098986
2.0404847 0.92153984 -0.56020433
2.1067624 0.95147276 -0.55802727
2.1891351 0.98867446 -0.55876058
2.2577963 1.0196838 -0.55462343
2.3594568 1.0655965 -0.55704242
2.4792395 1.1196938 -0.56170768
2.5769114 1.1638051 -0.55937642
2.6762397 1.2086645 -0.55561805
2.8276029 1.2770243 -0.56037498
2.9603007 1.3369545 -0.55883753
3.0951669 1.3978637 -0.55527651
3.2761331 1.479593 -0.55710804
3.4641125 1.56449 -0.55676568
3.6741173 1.6593339 -0.55633479
3.8956654 1.7593913 -0.55371964
4.1617804 1.8795762 -0.5529955
4.4870148 2.0264611 -0.55473286
4.8380084 2.1849797 -0.55348754
5.2574644 2.3744178 -0.55304992
5.7523851 2.5979378 -0.55221289
6.3246822 2.8564029 -0.54907405
7.0636296 3.1901321 -0.54844743
7.9791536 3.6036084 -0.54644436
9.1613092 4.1375031 -0.5435738
10.762047 4.8604407 -0.54016328
13.035359 5.8871322 -0.53518379
16.530872 7.4658036 -0.52777791
22.559942 10.1887 -0.51440519
35.555897 16.058035 -0.48639631
1.895301 0.88418663 -0.56038791
1.9607886 0.91473758 -0.56051975
2.0299375 0.94699657 -0.56046325
2.0936651 0.97672647 -0.55769718
2.1680956 1.0114495 -0.55652285
2.2540329 1.0515404 -0.55683309
2.357861 1.0999779 -0.55981666
2.4485915 1.1423049 -0.55790412
2.553643 1.191313 -0.55746317
2.6654294 1.2434632 -0.55650604
2.8103025 1.3110486 -0.56009901
2.9261827 1.3651085 -0.55552363
3.0764802 1.4352245 -0.55504823
3.2544587 1.5182542 -0.55655497
3.4503825 1.6096556 -0.55769795
3.6528642 1.7041165 -0.55624747
3.8668547 1.8039463 -0.55273569
4.1467829 1.9345369 -0.55412161
4.4494677 2.0757439 -0.55320466
4.805275 2.2417336 -0.55285448
5.2179432 2.4342494 -0.55199951
5.7131867 2.665288 -0.55155438
6.3082662 2.9429016 -0.55074888
7.0210829 3.2754414 -0.54822969
7.9352264 3.7019031 -0.54651213
9.1120615 4.2509146 -0.54371208
10.720979 5.0014992 -0.54114795
12.961314 6.0466495 -0.53515595
16.448444 7.6734486 -0.52811885
22.450644 10.473565 -0.51481068
35.374668 16.502819 -0.48665634
1.888201 0.90930879 -0.56155223
1.9388516 0.9337008 -0.55748868
2.0208654 0.97319657 -0.56122005
2.0860541 1.0045897 -0.558918
2.1631944 1.0417385 -0.55851066
2.2591877 1.0879663 -0.56136906
2.3391149 1.1264572 -0.55861229
2.4167929 1.163865 -0.55387789
2.5258389 1.2163788 -0.55461675
2.6604104 1.2811849 -0.55870515
2.7924206 1.3447576 -0.55978835
2.9157424 1.4041462 -0.55677736
3.0585003 1.4728947 -0.55503005
3.2316504 1.5562793 -0.55588508
3.4094598 1.6419078 -0.55430496
3.636368 1.7511809 -0.55697244
3.8642614 1.8609284 -0.55559391
4.1386623 1.9930729 -0.55626935
4.4337234 2.1351666 -0.55446959
4.7775521 2.3007457 -0.55287814
5.1962867 2.5023973 -0.55292189
5.6764984 2.733655 -0.55121601
6.2598524 3.0145831 -0.54971683
6.9908152 3.366596 -0.54905725
7.9047198 3.8067086 -0.54759347
9.0621958 4.3641195 -0.54389763
10.643664 5.1257133 -0.54038596
12.901178 6.2128739 -0.53578681
16.353159 7.8752589 -0.52812874
22.330832 10.753951 -0.51505661
35.196213 16.949587 -0.48703176
1.877767 0.93289822 -0.56181824
1.9290848 0.95839357 -0.55802673
1.9905213 0.98891604 -0.55612814
2.0825033 1.0346138 -0.56133288
2.1449118 1.0656191 -0.55713135
2.2206671 1.1032554 -0.55512637
2.3302891 1.157717 -0.55986196
2.4205804 1.2025748 -0.55809271
2.5244532 1.2541801 -0.55765659
2.6351638 1.3091825 -0.55674189
2.7699709 1.3761564 -0.55863798
2.9001677 1.4408398 -0.55714434
3.0623498 1.5214139 -0.55908132
3.2185214 1.5990019 -0.55696672
3.398294 1.6883152 -0.55582273
3.6044688 1.7907455 -0.55541724
3.8416378 1.908574 -0.55567342
4.1003227 2.037092 -0.55444103
4.4055181 2.1887169 -0.55426615
4.7530627 2.3613813 -0.55336249
5.1562862 2.561708 -0.55197561
5.6367273 2.8003969 -0.55065614
6.219254 3.0898037 -0.54944658
6.9468555 3.4512854 -0.54889631
7.8463044 3.8981428 -0.54682606
9.0017157 4.4721656 -0.54352713
10.580735 5.2566423 -0.54043186
12.819851 6.3690634 -0.53562129
16.24996 8.073185 -0.52796197
22.197268 11.027882 -0.51506472
35.014896 17.395842 -0.48744589
1.86146 0.95351112 -0.5604049
1.9090711 0.97789937 -0.55567372
1.9916885 1.0202192 -0.55991679
2.0567615 1.053552 -0.55784404
2.1370838 1.0946963 -0.55855227
2.2354217 1.1450686 -0.56229204
2.307997 1.1822445 -0.5579567
2.4082177 1.2335814 -0.5586974
2.5063066 1.2838264 -0.5570932
2.6283221 1.3463274 -0.55875182
2.7503684 1.4088441 -0.55813622
2.8825407 1.4765478 -0.55720395
3.0280867 1.551102 -0.55626607
3.2109342 1.6447636 -0.55911136
3.3910322 1.7370167 -0.55808634
3.5866115 1.8371999 -0.55610466
3.8298287 1.9617851 -0.55741245
4.0846648 2.0923219 -0.55576068
4.3797603 2.2434812 -0.55445433
4.7140017 2.4146924 -0.55223
5.1212187 2.6232846 -0.55163312
5.6079497 2.872607 -0.55125397
6.191545 3.1715467 -0.55040234
6.886642 3.5276022 -0.54752457
7.8070388 3.9990644 -0.54747522
8.959054 4.5891709 -0.54431731
10.534275 5.3960595 -0.54140699
12.749503 6.5307841 -0.53599679
16.172628 8.2842407 -0.52871919
22.078182 11.309291 -0.51548934
34.82209 17.83721 -0.48777831
1.8563478 0.97989106 -0.56245083
1.9106494 1.0085547 -0.55970061
1.980981 1.0456799 -0.56047904
2.0505822 1.0824196 -0.55973572
2.1229105 1.1205988 -0.55840707
2.2125092 1.1678942 -0.56009865
2.2903891 1.209004 -0.55725181
2.3898528 1.2615069 -0.55799335
2.505296 1.3224447 -0.56044072
2.6074448 1.3763648 -0.55786932
2.730675 1.4414132 -0.55769449
2.8642035 1.5118974 -0.55721086
3.0193806 1.5938092 -0.5582248
3.1682143 1.6723725 -0.55521148
3.3565176 1.7717701 -0.55594957
3.5724697 1.8857626 -0.55746514
3.79023 2.0007095 -0.5551877
4.0549364 2.1404374 -0.555255
4.3514581 2.2969592 -0.55440509
4.6875401 2.4743631 -0.5526526
5.1120367 2.6984379 -0.55417627
5.5713 2.9408646 -0.55116433
6.1491475 3.2458868 -0.5501399
6.8518767 3.6168292 -0.54825503
7.7572689 4.0947495 -0.54747456
8.9030972 4.6995854 -0.54438746
10.464189 5.523623 -0.54125476
12.669532 6.6877346 -0.53605151
16.054905 8.4747362 -0.5282374
21.952997 11.588101 -0.51585448
34.632317 18.281004 -0.48823193
1.8389354 0.9998017 -0.56085759
1.8958784 1.0307608 -0.55904424
1.9522399 1.0614036 -0.55599797
2.0274053 1.1022699 -0.55706686
2.0985692 1.1409608 -0.55565274
2.1871603 1.1891264 -0.55734098
2.2918828 1.2460625 -0.56130069
2.3738716 1.2906386 -0.55792528
2.4756639 1.3459816 -0.55747229
2.5986431 1.4128435 -0.55966085
2.7210305 1.4793837 -0.55939776
2.8489816 1.5489488 -0.55791277
3.0032835 1.6328404 -0.55891854
3.161474 1.7188462 -0.55769205
3.3350523 1.8132181 -0.55604511
3.5306678 1.9195714 -0.55458355
3.7587202 2.04356 -0.55421108
4.0180826 2.1845715 -0.55384499
4.3233705 2.3505521 -0.55446714
4.6773739 2.5430183 -0.55509877
5.0553985 2.7485447 -0.55165845
5.5348134 3.0091953 -0.55117369
6.1055717 3.3195083 -0.54985166
6.8292546 3.7129638 -0.55005652
7.6974645 4.1849966 -0.54684436
8.8487577 4.8109379 -0.5446409
10.393604 5.6508479 -0.54115707
12.596332 6.8484378 -0.53647685
15.970594 8.6829739 -0.52893639
21.810539 11.858065 -0.51589429
34.414639 18.710726 -0.48836976
1.811396 1.013881 -0.55621868
1.882848 1.0538744 -0.55898094
1.9618683 1.0981039 -0.56254321
2.0225384 1.1320624 -0.55951226
2.0977819 1.1741779 -0.5592249
2.1769562 1.2184936 -0.55851662
2.2693801 1.2702255 -0.55957258
2.3506188 1.3156966 -0.55622059
2.4610603 1.3775133 -0.55795586
2.5887079 1.4489607 -0.56131589
2.6992643 1.5108417 -0.55870003
2.8247778 1.5810946 -0.55693817
2.9741101 1.6646794 -0.55725664
3.1312177 1.7526162 -0.55611438
3.3041415 1.8494058 -0.55464113
3.5119135 1.9657006 -0.55539238
3.7421379 2.0945625 -0.55552173
4.0099583 2.244468 -0.5564872
4.2879515 2.4000673 -0.55366772
4.6265597 2.5895944 -0.55280554
5.0382252 2.820013 -0.55352658
5.4924932 3.0742776 -0.55068225
6.0640297 3.3941801 -0.54982758
6.7686496 3.7885725 -0.54888594
7.6517982 4.2828913 -0.54730016
8.7889032 4.9193559 -0.54463887
10.320519 5.7766376 -0.54100925
12.513243 7.0039568 -0.53656554
15.87661 8.8865118 -0.52940267
21.67189 12.130267 -0.51610386
34.232132 19.16053 -0.48908636
1.8085262 1.0416826 -0.55922836
1.877028 1.0811386 -0.56115741
1.9346859 1.1143486 -0.55863583
2.0118539 1.1587962 -0.56045592
2.0819795 1.1991874 -0.55890095
2.1617208 1.2451172 -0.55849367
2.2466912 1.2940588 -0.55785948
2.3475459 1.3521495 -0.55938548
2.448467 1.4102786 -0.55899006
2.5677204 1.4789666 -0.56066602
2.6951957 1.5523903 -0.56176651
2.8109238 1.6190479 -0.55808967
2.9492452 1.6987189 -0.5564695
3.1169639 1.7953222 -0.5574615
3.2695222 1.8831935 -0.55267519
3.4942951 2.0126591 -0.55647796
3.7106357 2.1372678 -0.55470467
3.9757898 2.2899923 -0.55561125
4.2689915 2.4588718 -0.55508167
4.6155434 2.6584806 -0.55535322
4.9916921 2.8751361 -0.55225664
5.4680104 3.1494882 -0.55206871
6.0337472 3.4753435 -0.55091494
6.7197638 3.8704782 -0.54873961
7.5975513 4.3760705 -0.54722756
8.738945 5.0334949 -0.54533726
10.254357 5.9063482 -0.54130721
12.423356 7.1556578 -0.53644359
15.760521 9.0778122 -0.52921385
21.543917 12.408957 -0.51665097
34.005272 19.586502 -0.48924917
1.787956 1.0593228 -0.55685347
1.871035 1.1085452 -0.56339836
1.9271609 1.1417985 -0.56047463
1.9826757 1.1746898 -0.5563094
2.0800056 1.2323556 -0.56239659
