# .PCD v0.7 - Point Cloud Data file format
VERSION 0.7
FIELDS x y z
SIZE 4 4 4
TYPE F F F
COUNT 1 1 1
WIDTH 1460
HEIGHT 1
VIEWPOINT 0 0 0 1 0 0 0
POINTS 1460
DATA ascii
1.6642298 -2.009692 -0.5614295
1.7320317 -2.0915682 -0.56072956
1.801177 -2.1750667 -0.55868465
1.8856992 -2.2771339 -0.55940902
1.9732932 -2.382911 -0.55880159
2.0783775 -2.5098085 -0.56063455
2.1742029 -2.6255257 -0.55735391
2.3022778 -2.7801862 -0.55942428
2.4292479 -2.9335129 -0.5579021
2.5704122 -3.1039803 -0.5561496
2.7445807 -3.3143029 -0.55742955
2.9315474 -3.5400803 -0.55660236
3.1658561 -3.8230269 -0.55927229
3.3969357 -4.1020741 -0.55530846
3.7097511 -4.4798241 -0.55762017
4.0441966 -4.8836942 -0.55474901
4.4734883 -5.4020982 -0.55493772
4.9856811 -6.0206122 -0.55314285
5.6388688 -6.8093891 -0.55180645
6.5011549 -7.8506699 -0.55118477
7.6440291 -9.2307825 -0.54822421
9.2860041 -11.2136 -0.54477167
11.835643 -14.292495 -0.5399493
16.291096 -19.672813 -0.53079075
26.113369 -31.534002 -0.51044297
1.3613323 -1.6033707 -0.56358635
1.3937712 -1.6415771 -0.55787563
1.4488358 -1.7064319 -0.56010491
1.4982244 -1.7646015 -0.5587967
1.5586773 -1.8358028 -0.56020445
1.6188726 -1.9067005 -0.55996805
1.6760771 -1.9740757 -0.55719519
1.7609496 -2.074038 -0.56179249
1.8330733 -2.1589849 -0.56030118
1.9172404 -2.2581167 -0.56048632
2.0030608 -2.3591955 -0.55897397
2.1174464 -2.4939182 -0.56285852
2.2116864 -2.6049137 -0.55870932
2.3357091 -2.7509871 -0.55928582
2.46404 -2.9021347 -0.55765468
2.6189497 -3.0845864 -0.5584026
2.7950406 -3.2919855 -0.55941427
2.9772396 -3.5065784 -0.55704886
3.2092814 -3.7798765 -0.55869055
3.4650824 -4.0811577 -0.55820268
3.7555466 -4.423265 -0.55628616
4.1120296 -4.8431287 -0.5558427
4.5285268 -5.3336773 -0.55358756
5.0593443 -5.9588714 -0.55314428
5.7299509 -6.7487087 -0.55255705
6.5890784 -7.7605853 -0.55050689
7.7490125 -9.12675 -0.54766333
9.4145374 -11.088397 -0.54427207
11.998544 -14.131827 -0.53941262
16.51231 -19.44812 -0.53016657
26.468349 -31.174295 -0.5098502
1.3742944 -1.578872 -0.56087267
1.4182731 -1.6293975 -0.55962092
1.4665029 -1.6848067 -0.55888355
1.517522 -1.7434205 -0.55795622
1.5873622 -1.823657 -0.5624119
1.637866 -1.8816791 -0.55849224
1.7074331 -1.9616019 -0.55955815
1.7746474 -2.0388217 -0.55812216
1.8443305 -2.1188779 -0.55573618
1.9370953 -2.2254515 -0.55824858
2.0376475 -2.3409719 -0.56055045
2.1401165 -2.4586945 -0.56080568
2.2509027 -2.5859723 -0.56054085
2.3705177 -2.7233934 -0.5595597
2.5032196 -2.8758492 -0.55847621
2.6550136 -3.0502393 -0.55805272
2.8275857 -3.2485003 -0.55789095
3.0189559 -3.468358 -0.55683237
3.248044 -3.7315483 -0.55740851
3.5058734 -4.0277581 -0.55675328
3.8049729 -4.3713818 -0.55560333
4.1639304 -4.7837739 -0.554865
4.6110129 -5.2974091 -0.55566609
5.13762 -5.9024067 -0.5537253
5.8058872 -6.6701522 -0.5519287
6.6848454 -7.6799526 -0.55057651
7.8631134 -9.033618 -0.54783529
9.5521698 -10.974107 -0.54438639
12.161778 -13.972182 -0.53898638
16.736141 -19.227486 -0.52972198
26.827789 -30.821377 -0.509435
1.4001939 -1.5692409 -0.56352502
1.4478251 -1.6226227 -0.56336606
1.4939764 -1.6743459 -0.56146491
1.544135 -1.7305603 -0.55987483
1.5965872 -1.789345 -0.55784255
1.6704805 -1.8721596 -0.56172103
1.7334845 -1.9427701 -0.56022435
1.8047935 -2.0226884 -0.55973852
1.8837016 -2.1111231 -0.55973506
1.9677262 -2.205292 -0.55921888
2.060936 -2.3097553 -0.55910152
2.1690705 -2.4309449 -0.56051749
2.2871091 -2.5632346 -0.56166577
2.4028172 -2.6929123 -0.55932534
2.5470698 -2.8545804 -0.56038576
2.6928415 -3.0179513 -0.55816138
2.8658965 -3.2118995 -0.55761522
3.0632088 -3.4330335 -0.55716628
3.2867577 -3.6835718 -0.55623704
3.5576711 -3.9871929 -0.5571509
3.850625 -4.3155155 -0.55447888
4.2260747 -4.7362938 -0.55534333
4.6715608 -5.2355638 -0.55516243
5.2089849 -5.8378716 -0.5536381
5.877605 -6.5872149 -0.55100471
6.7639322 -7.5805497 -0.54937136
7.9666505 -8.9284735 -0.54735833
9.6853046 -10.854623 -0.54432595
12.32021 -13.807644 -0.53844255
16.956539 -19.003721 -0.52926165
27.157238 -30.435963 -0.50854576
1.4074736 -1.5388851 -0.55879682
1.4612666 -1.5977007 -0.56090939
1.515365 -1.65685 -0.561804
1.5640571 -1.7100884 -0.55943149
1.6290048 -1.7811 -0.5614745
1.6895949 -1.8473471 -0.5604676
1.7588757 -1.9230967 -0.5607456
1.8271894 -1.9977885 -0.55902332
1.910198 -2.0885475 -0.55993485
1.9903255 -2.176156 -0.55799448
2.0970454 -2.29284 -0.5612064
2.1960163 -2.4010518 -0.55980885
2.2966254 -2.5110543 -0.55637795
2.4396367 -2.6674182 -0.56021863
2.5809481 -2.8219235 -0.56016272
2.7316744 -2.9867225 -0.55855584
2.9084761 -3.1800315 -0.55824935
3.1120481 -3.4026105 -0.55839711
3.3473308 -3.6598608 -0.55882972
3.6060369 -3.9427216 -0.55709064
3.9097881 -4.2748332 -0.55538696
4.2833762 -4.6833019 -0.55526364
4.7236447 -5.1646771 -0.55376297
5.2675543 -5.7593699 -0.55229431
5.9595442 -6.5159683 -0.55113328
6.8590879 -7.4995003 -0.54956847
8.0762081 -8.8302593 -0.54738408
9.8137312 -10.730009 -0.54408723
12.493049 -13.659487 -0.53861487
17.172485 -18.775827 -0.52875561
27.488857 -30.055408 -0.50779659
1.4294078 -1.5247905 -0.5600189
1.4772772 -1.5758541 -0.55957466
1.5370854 -1.6396532 -0.56233925
1.5921626 -1.6984057 -0.5619719
1.6330314 -1.7420015 -0.55543733
1.7096627 -1.8237464 -0.55964315
1.7874849 -1.9067616 -0.56234896
1.8567415 -1.9806396 -0.56057101
1.9373635 -2.0666413 -0.56040633
2.0162506 -2.1507926 -0.55780596
2.1195416 -2.2609761 -0.55974418
2.2316852 -2.3806028 -0.56139684
2.3277264 -2.4830527 -0.55647349
2.467468 -2.6321192 -0.55913514
2.612438 -2.7867627 -0.55951762
2.7676744 -2.952358 -0.55845153
2.9522753 -3.149277 -0.55918103
3.1438224 -3.353606 -0.55665708
3.3802989 -3.6058621 -0.55688924
3.6535804 -3.8973794 -0.55698979
3.9631152 -4.2275691 -0.55553573
4.3420553 -4.6317959 -0.55544525
4.7886438 -5.1081843 -0.55397743
5.3466725 -5.7034492 -0.55319464
6.0423756 -6.4455762 -0.55142206
6.9449024 -7.4083271 -0.5491038
8.1762333 -8.7218237 -0.54685324
9.9302883 -10.592925 -0.54328674
12.637471 -13.480754 -0.53765404
17.383081 -18.543034 -0.52817941
27.811407 -29.667231 -0.50697774
1.442991 -1.5018368 -0.55806315
1.5047324 -1.5660959 -0.56263733
1.5481741 -1.6113093 -0.5591051
1.6203045 -1.6863812 -0.56454301
1.6716884 -1.7398605 -0.56126648
1.7424031 -1.8134592 -0.5630185
1.8012657 -1.8747221 -0.55938983
1.8780558 -1.9546437 -0.55970722
1.9599175 -2.0398438 -0.55963254
2.0496163 -2.1332006 -0.55973756
2.1376419 -2.2248156 -0.55725735
2.2570591 -2.3491027 -0.560471
2.3745766 -2.4714127 -0.56036627
2.4950542 -2.5968037 -0.55810827
2.6493099 -2.7573497 -0.56011057
2.7937443 -2.9076743 -0.55645537
2.9769907 -3.0983934 -0.55660397
3.1888423 -3.3188846 -0.55736023
3.420047 -3.5595181 -0.55618471
3.6995952 -3.8504663 -0.55674458
4.0225124 -4.186552 -0.55660343
4.3948536 -4.5740776 -0.55496234
4.8563294 -5.0543723 -0.5545758
5.4134564 -5.6342192 -0.55289447
6.1240368 -6.3737774 -0.55168027
7.0528159 -7.3404326 -0.55045784
8.2795277 -8.6171703 -0.54663354
10.058769 -10.46897 -0.54323196
12.796494 -13.318339 -0.53741145
17.603968 -18.321865 -0.52800554
28.141277 -29.288891 -0.50638747
1.475414 -1.4982649 -0.56343484
1.5217472 -1.5453157 -0.56185192
1.5684433 -1.5927351 -0.55930984
1.6221558 -1.6472795 -0.55808836
1.6919678 -1.7181727 -0.56093931
1.7595112 -1.7867622 -0.56140476
1.839973 -1.8684701 -0.56423271
1.9060293 -1.9355495 -0.5609085
1.9729384 -2.003495 -0.556274
2.0763893 -2.1085482 -0.55992609
2.1690836 -2.2026777 -0.55835086
2.276669 -2.3119295 -0.55823898
2.3979528 -2.4350917 -0.55877435
2.5404201 -2.5797656 -0.56111777
2.6631603 -2.7044067 -0.55596614
2.8293417 -2.873162 -0.55646664
3.0234742 -3.0703013 -0.55819398
3.2221174 -3.2720208 -0.55610186
3.4695942 -3.5233305 -0.55715454
3.740943 -3.798882 -0.55589515
4.0625029 -4.125422 -0.55507565
4.4460812 -4.5149412 -0.55437869
4.9190383 -4.9952235 -0.55468065
5.4754295 -5.5602322 -0.5521993
6.1918578 -6.287756 -0.55078316
7.1310802 -7.2415252 -0.54957485
8.3854017 -8.5152731 -0.54666924
10.186053 -10.343813 -0.54319584
12.959266 -13.159977 -0.5374108
17.80933 -18.085157 -0.52745509
28.462282 -28.903101 -0.50573021
1.4967548 -1.4830132 -0.56457788
1.5309635 -1.5169078 -0.55832565
1.5952686 -1.5806226 -0.5619024
1.6478111 -1.6326826 -0.55996543
1.7164376 -1.7006791 -0.56207621
1.7771003 -1.7607849 -0.56006622
1.8525822 -1.8355738 -0.56113541
1.9220165 -1.9043705 -0.55867982
2.0057144 -1.9873002 -0.55858302
2.1101596 -2.0907862 -0.56205732
2.2049377 -2.1846943 -0.56062269
2.3137288 -2.2924867 -0.56037164
2.4283803 -2.4060855 -0.55892807
2.5619342 -2.5384133 -0.5589332
2.7057252 -2.6808841 -0.55792797
2.8662012 -2.8398867 -0.55680585
3.0537052 -3.0256693 -0.55686426
3.260781 -3.230844 -0.55587614
3.5069845 -3.4747872 -0.5562554
3.7864439 -3.7516809 -0.55575931
4.1104918 -4.0727539 -0.554748
4.4915442 -4.4503078 -0.55318224
4.9761848 -4.9304991 -0.55424619
5.5469594 -5.4960332 -0.55255568
6.2793417 -6.2216916 -0.55171806
7.2115993 -7.14539 -0.54896736
8.4966822 -8.4186745 -0.5471338
10.305852 -10.211234 -0.54284745
13.112258 -12.991876 -0.53708982
18.012995 -17.847618 -0.52694738
28.777002 -28.512802 -0.50505441
1.5037133 -1.453706 -0.56041759
1.5560267 -1.5042797 -0.56067777
1.6116084 -1.5580131 -0.56086731
1.67105 -1.6154779 -0.56106967
1.7219909 -1.6647247 -0.55714929
1.7936251 -1.7339766 -0.55851221
1.8718102 -1.8095616 -0.56017739
1.9579214 -1.8928092 -0.56230855
2.0291975 -1.9617147 -0.55836278
2.1111627 -2.0409544 -0.5555979
2.2270775 -2.1530142 -0.55947822
2.3426695 -2.2647619 -0.56059372
2.4548619 -2.3732233 -0.55826426
2.5873442 -2.5012999 -0.55772436
2.7443066 -2.6530426 -0.55911434
2.9028647 -2.8063276 -0.55718255
3.097759 -2.9947405 -0.5581404
3.3095415 -3.1994798 -0.55743951
3.5459938 -3.4280689 -0.55571473
3.8485904 -3.7206023 -0.55812371
4.1640348 -4.0255566 -0.55525166
4.5659761 -4.4141312 -0.5556224
5.0200562 -4.8531103 -0.5524441
5.6140237 -5.4273248 -0.5525465
6.3627357 -6.1511378 -0.55235785
7.3004885 -7.0577049 -0.54908609
8.5951967 -8.3093567 -0.5468567
10.416948 -10.070524 -0.54213566
13.271981 -12.83061 -0.5371291
18.225712 -17.619602 -0.52679229
29.09532 -28.127731 -0.50453264
1.525821 -1.4392077 -0.56201887
1.577799 -1.4882351 -0.56188643
1.6226542 -1.5305443 -0.55811948
1.6854821 -1.5898057 -0.55930936
1.7444503 -1.6454266 -0.55782753
1.8153638 -1.7123146 -0.55868274
1.8986732 -1.7908949 -0.56158376
1.9586518 -1.8474689 -0.55595189
2.0600431 -1.9431046 -0.56023341
2.1470406 -2.0251639 -0.55844408
2.2465584 -2.1190324 -0.55778414
2.3538976 -2.2202785 -0.55670536
2.4764638 -2.3358874 -0.55660278
2.6169696 -2.4684172 -0.55752546
2.7627254 -2.6058993 -0.55629647
2.9353592 -2.7687335 -0.55684268
3.1349854 -2.9570279 -0.55825412
3.3500731 -3.1599061 -0.55767965
3.5886319 -3.384923 -0.55583185
3.8773043 -3.6572089 -0.55572408
4.2146392 -3.9753952 -0.55543911
4.6002765 -4.3391418 -0.5532617
5.0789514 -4.7906446 -0.55240095
5.6772809 -5.35501 -0.55224985
6.4111466 -6.0472174 -0.55006361
7.3777246 -6.9589281 -0.54841781
8.6716785 -8.179431 -0.54528236
10.536577 -9.938468 -0.54196048
13.411579 -12.65027 -0.53644288
18.421434 -17.375742 -0.52623403
29.410494 -27.741007 -0.50404471
1.5417701 -1.4188368 -0.56142479
1.5849453 -1.4585694 -0.55800205
1.6464851 -1.5152023 -0.55986542
1.6990626 -1.5635875 -0.55739361
1.7810107 -1.6390015 -0.56303126
1.832836 -1.6866946 -0.55763477
1.9083498 -1.7561872 -0.55801642
1.9915588 -1.8327615 -0.55885327
2.0805829 -1.9146873 -0.55937415
2.1725636 -1.9993339 -0.55864584
2.2799137 -2.0981245 -0.55961782
2.4001951 -2.2088153 -0.56118888
2.5226185 -2.3214772 -0.56051809
2.6541815 -2.4425499 -0.55901223
2.8102932 -2.5862138 -0.55942881
2.9765909 -2.7392519 -0.55823249
3.1762669 -2.9230068 -0.5591625
3.3867059 -3.1166663 -0.55735594
3.6377416 -3.3476856 -0.55702031
3.9266737 -3.6135798 -0.55638939
4.2600603 -3.9203839 -0.55503005
4.6615877 -4.2898951 -0.55424935
5.1503754 -4.7397094 -0.55378848
5.735816 -5.2784696 -0.55158836
6.4837499 -5.9667673 -0.54995626
7.4534168 -6.859117 -0.54773331
8.7863712 -8.0857878 -0.54620099
10.664219 -9.8139057 -0.54227769
13.551153 -12.47065 -0.53585154
18.617273 -17.132822 -0.52577049
29.710407 -27.341444 -0.50338471
1.5516201 -1.3930581 -0.55873173
1.5975953 -1.4343351 -0.5562042
1.6644243 -1.4943347 -0.55967498
1.7322981 -1.5552725 -0.56198043
1.7921005 -1.6089636 -0.56024027
1.8651451 -1.6745436 -0.56115752
1.9360443 -1.7381976 -0.55982238
2.0231235 -1.8163779 -0.56140077
2.0941656 -1.8801602 -0.55676812
2.1993637 -1.9746081 -0.55925149
2.3028114 -2.0674841 -0.55895573
2.4108288 -2.1644633 -0.55741006
2.5304673 -2.2718756 -0.55601269
2.6849658 -2.4105859 -0.5592106
2.8349643 -2.5452559 -0.55806756
2.9934175 -2.6875165 -0.55514854
3.2046068 -2.8771238 -0.55788124
3.4191022 -3.0697 -0.55643344
3.6701894 -3.2951281 -0.5557425
3.9602187 -3.5555191 -0.55490565
4.3079038 -3.8676736 -0.55502516
4.7096 -4.2283201 -0.55373412
5.2023654 -4.6707292 -0.55316132
5.8030858 -5.2100616 -0.55185479
6.5626903 -5.8920407 -0.55046505
7.5455203 -6.7744341 -0.54833871
8.8728323 -7.9661064 -0.54544526
10.762544 -9.6627054 -0.54119474
13.703518 -12.303138 -0.53585368
18.816208 -16.893356 -0.52548242
30.000504 -26.934715 -0.50265026
1.5718454 -1.3766899 -0.55987662
1.6236809 -1.4220898 -0.55915564
1.6840183 -1.4749358 -0.56012267
1.7529749 -1.5353309 -0.5625211
1.8133571 -1.5882163 -0.56073779
1.8833075 -1.6494819 -0.5604772
1.9484282 -1.7065173 -0.55729342
2.0374892 -1.7845207 -0.55925572
2.1355569 -1.8704128 -0.56161547
2.2247131 -1.9484997 -0.55956256
2.3240762 -2.035526 -0.55799967
2.4434628 -2.14009 -0.55882871
2.5638437 -2.2455249 -0.55723715
2.7100694 -2.3735957 -0.55831796
2.8531697 -2.498929 -0.55556047
3.0319784 -2.6555374 -0.55620199
3.2360194 -2.8342452 -0.55724049
3.4645474 -3.0344 -0.55771482
3.7146919 -3.2534873 -0.55638123
4.0092955 -3.5115137 -0.55568999
4.3555379 -3.8147678 -0.55507678
4.7619619 -4.1707311 -0.55381888
5.2580147 -4.605196 -0.55301547
5.8703523 -5.1415076 -0.55219764
6.6401076 -5.8156924 -0.55091864
7.6282549 -6.6811543 -0.54833937
8.9647875 -7.851747 -0.54512167
10.8857 -9.5341654 -0.54145151
13.842629 -12.123971 -0.53542328
19.012274 -16.65177 -0.52520001
30.294577 -26.533295 -0.50207287
1.5984286 -1.3656104 -0.56332147
1.6296118 -1.3922515 -0.55526054
1.7091091 -1.4601697 -0.56245363
1.7589096 -1.5027165 -0.55845374
1.8311187 -1.5644081 -0.56023932
1.8972188 -1.6208804 -0.55864346
1.9673892 -1.6808301 -0.55676299
2.0606701 -1.7605243 -0.55963415
2.1558752 -1.8418623 -0.56096023
2.2519741 -1.923964 -0.56042641
2.3546274 -2.0116653 -0.55935347
2.472517 -2.1123838 -0.55949068
2.5939114 -2.2160964 -0.55780733
2.735409 -2.3369844 -0.557576
2.8858998 -2.4655557 -0.55598819
3.0641587 -2.6178503 -0.55615813
3.2623379 -2.7871637 -0.55582881
3.4942534 -2.9852996 -0.5565455
3.7457955 -3.2002034 -0.55510396
4.0610542 -3.4695435 -0.55690855
4.4083662 -3.7662678 -0.55586517
4.8066769 -4.1065626 -0.5531047
5.3143201 -4.5402651 -0.55302376
5.9250016 -5.0619984 -0.55144149
6.7093344 -5.73209 -0.55077273
7.7039523 -6.5818372 -0.5479216
9.0608826 -7.7411242 -0.54513556
11.002007 -9.3995161 -0.54144675
13.983161 -11.946451 -0.53513658
19.198132 -16.401838 -0.52472311
30.580849 -26.12661 -0.50145507
1.6075609 -1.3395723 -0.56069237
1.6592041 -1.3826064 -0.55950844
1.7220922 -1.4350107 -0.56087685
1.7836504 -1.4863068 -0.56046385
1.8418077 -1.5347689 -0.55769342
1.9094031 -1.5910958 -0.55642813
1.9952955 -1.6626697 -0.55883229
2.0787244 -1.7321905 -0.55871052
2.1780307 -1.8149419 -0.56087577
2.2755818 -1.8962308 -0.5604564
2.3735294 -1.97785 -0.55802411
2.4895406 -2.0745213 -0.55752832
2.6285393 -2.1903484 -0.55941975
2.7493689 -2.2910352 -0.55463719
2.9262226 -2.4384062 -0.55793786
3.1017752 -2.5846934 -0.55717486
3.2907262 -2.7421455 -0.55487871
3.5361128 -2.9466248 -0.55739945
3.7878637 -3.1564076 -0.55554438
4.0952721 -3.4125695 -0.55580449
4.4453402 -3.7042794 -0.55474192
4.8684134 -4.0568242 -0.55442661
5.3715186 -4.476059 -0.55320662
5.9955854 -4.9960909 -0.55225128
6.775867 -5.6462955 -0.5504933
7.7852583 -6.4874158 -0.54798925
9.1510944 -7.6255603 -0.54488045
11.10836 -9.2565403 -0.54103822
14.124354 -11.769753 -0.53496093
19.379477 -16.148819 -0.52421254
30.861647 -25.716854 -0.50083625
1.6186302 -1.3154143 -0.55886936
1.6718721 -1.3586826 -0.55810422
1.7442275 -1.4174837 -0.56236684
1.8005407 -1.4632478 -0.56007504
1.8727008 -1.5218903 -0.56133884
1.9439211 -1.5797689 -0.56078392
2.0154576 -1.6379046 -0.55879611
2.1002169 -1.706786 -0.55880398
2.1884668 -1.7785041 -0.55788928
2.2855885 -1.8574324 -0.5572536
2.4079564 -1.9568771 -0.56041843
2.5205789 -2.0484023 -0.55879623
2.6442685 -2.1489213 -0.55710143
2.7949765 -2.2713971 -0.55816108
2.9505351 -2.3978152 -0.55690962
3.1313579 -2.5447648 -0.55682582
3.3482463 -2.7210238 -0.55889362
3.562746 -2.8953416 -0.55594361
3.8356588 -3.1171298 -0.55689055
4.1388717 -3.3635423 -0.55606639
4.4936523 -3.6518624 -0.55512518
4.9098577 -3.9901006 -0.55351698
5.4272838 -4.4105978 -0.55332237
6.0489955 -4.9158454 -0.55156136
6.8328261 -5.5528421 -0.54953194
7.8657942 -6.3923054 -0.54808384
9.2400579 -7.5091305 -0.54463851
11.221615 -9.1194839 -0.54105169
14.276115 -11.601789 -0.53526515
19.569578 -15.903635 -0.52402538
31.149126 -25.314001 -0.50041229
1.6304227 -1.2920381 -0.55741334
1.7150034 -1.3590645 -0.5668807
1.7651143 -1.3987752 -0.56351292
1.8173208 -1.4401464 -0.55974388
1.8856763 -1.4943151 -0.55967808
1.9626889 -1.5553443 -0.56063843
2.046247 -1.6215603 -0.5617618
2.1239617 -1.6831459 -0.5595727
2.2095747 -1.7509904 -0.55773932
2.3181386 -1.8370224 -0.55963987
2.4345672 -1.9292871 -0.56104803
2.5376368 -2.0109651 -0.55705374
2.6716473 -2.1171625 -0.55734271
2.8223054 -2.2365525 -0.55808443
2.9932337 -2.3720057 -0.55942136
3.1593053 -2.5036099 -0.55627906
3.3656561 -2.6671338 -0.55628324
3.6027908 -2.8550527 -0.55667204
3.8617611 -3.0602753 -0.55517483
4.1648412 -3.3004527 -0.55406106
4.5236568 -3.5847981 -0.55334443
4.9517922 -3.9240766 -0.55276293
5.4716935 -4.3360758 -0.55237234
6.1022568 -4.8357692 -0.55095422
6.9015551 -5.4691777 -0.54960918
7.9451599 -6.2961884 -0.54817796
9.3286085 -7.3925099 -0.54445875
11.334976 -8.9824686 -0.54115105
14.401528 -11.412576 -0.53466523
19.741585 -15.644335 -0.52344054
31.415775 -24.895615 -0.49974027
1.6526341 -1.2768756 -0.55959684
1.6949909 -1.3096018 -0.55490094
1.7715586 -1.3687603 -0.56015468
1.8345736 -1.4174477 -0.55964714
1.909609 -1.4754223 -0.56135422
1.9799941 -1.5298039 -0.56016588
2.0612426 -1.5925791 -0.56046003
2.1350517 -1.6496062 -0.55710828
2.2356267 -1.7273134 -0.55891168
2.3385692 -1.8068501 -0.55916613
2.4529862 -1.8952521 -0.55987978
2.5761161 -1.990386 -0.56008565
2.6993365 -2.0855899 -0.55772692
2.8459766 -2.1988885 -0.55737638
3.0008779 -2.3185699 -0.55547959
3.2104752 -2.4805112 -0.55987597
3.4121659 -2.6363435 -0.55857015
3.6275642 -2.802767 -0.55513275
3.9001644 -3.0133862 -0.55532682
4.2142587 -3.2560649 -0.55526686
4.5785723 -3.5375447 -0.55469894
5.0128541 -3.8730843 -0.55422097
5.5273914 -4.2706313 -0.552652
6.157414 -4.7574062 -0.55061084
6.9685864 -5.3841429 -0.54963338
8.0017366 -6.1823864 -0.54679501
9.4182863 -7.2768559 -0.54442918
11.439327 -8.8383741 -0.54090345
14.534086 -11.229479 -0.53441972
19.920452 -15.39115 -0.52312547
31.684788 -24.480635 -0.49919328
1.6807959 -1.2659391 -0.56381905
1.7251042 -1.2993113 -0.55948657
1.7810917 -1.3414798 -0.55791098
1.8391261 -1.38519 -0.55579787
1.9190425 -1.4453814 -0.55886042
1.9954011 -1.5028931 -0.55925417
2.0776975 -1.5648769 -0.55965978
2.1608431 -1.6275004 -0.55857396
2.2556357 -1.6988962 -0.55864918
2.3658047 -1.781873 -0.56039697
2.469409 -1.8599056 -0.55836594
2.5880716 -1.9492795 -0.55743152
2.7319295 -2.0576305 -0.55919117
2.8716111 -2.1628354 -0.55714607
3.0328529 -2.2842793 -0.55615693
3.2119513 -2.4191723 -0.55490375
3.4331405 -2.5857673 -0.55675662
3.6778598 -2.7700846 -0.55757481
3.9334474 -2.9625876 -0.55483687
4.2615099 -3.2096772 -0.55625033
4.6184182 -3.478493 -0.55430245
5.0556507 -3.807807 -0.553734
5.5741067 -4.198297 -0.55211949
6.2133956 -4.6797957 -0.55042946
7.0382009 -5.3010211 -0.5499413
8.0806379 -6.0861616 -0.54703128
9.5014 -7.156249 -0.54410577
11.532499 -8.6860294 -0.54021782
14.648973 -11.03329 -0.53361511
20.098969 -15.138109 -0.52288562
31.950317 -24.064289 -0.49867699
1.6828089 -1.2353218 -0.55935651
1.7405076 -1.2776775 -0.55934453
1.802438 -1.3231395 -0.55945885
1.8575402 -1.3635893 -0.55625355
1.9449226 -1.4277351 -0.5612421
2.0057344 -1.4723761 -0.55703384
2.0981803 -1.5402391 -0.56003314
2.1842213 -1.6034003 -0.55947828
2.2788146 -1.6728396 -0.55925298
2.3794384 -1.746706 -0.55849659
2.4872096 -1.825819 -0.55727226
2.6126153 -1.9178772 -0.55759627
2.751698 -2.0199757 -0.55811119
2.8998997 -2.128768 -0.55751377
3.0786412 -2.259979 -0.55941516
3.2431781 -2.3807628 -0.55519897
3.4573116 -2.5379548 -0.55557352
3.693089 -2.711035 -0.55478781
3.9767191 -2.9192431 -0.55583519
4.2916417 -3.1504226 -0.55508488
4.6603389 -3.4210768 -0.55424291
5.1033773 -3.746304 -0.55387396
5.6184745 -4.1244283 -0.551449
6.2816544 -4.6112571 -0.55141151
7.0963669 -5.2093244 -0.54943949
8.1533051 -5.9852047 -0.54692698
9.5864115 -7.0372243 -0.5439775
11.631289 -8.5383348 -0.53988653
14.785027 -10.85344 -0.53366929
20.267647 -14.87814 -0.52247483
32.209366 -23.644356 -0.49814466
1.7052723 -1.2198321 -0.56179494
1.7567545 -1.2566588 -0.5595575
1.817194 -1.299893 -0.55903536
1.8879277 -1.3504909 -0.56033802
1.9644681 -1.4052426 -0.56185353
2.0393171 -1.4587843 -0.56133634
2.1251912 -1.5202125 -0.56221074
2.2006214 -1.5741701 -0.55867875
2.3086591 -1.6514527 -0.56155115
2.3975458 -1.715036 -0.55775464
2.5169802 -1.8004708 -0.55893975
2.6370411 -1.8863541 -0.55781668
2.7760267 -1.9857745 -0.55805087
2.9385114 -2.1020048 -0.55992544
3.0919433 -2.2117591 -0.55684829
3.2802653 -2.3464715 -0.55656648
3.5016162 -2.5048103 -0.55770141
3.7322338 -2.6697781 -0.55569458
4.0102768 -2.8686702 -0.5555532
4.3291702 -3.0967844 -0.55497164
4.6968861 -3.3598223 -0.55363417
5.1416864 -3.6780014 -0.55308139
5.6863966 -4.0676489 -0.55316448
6.3313823 -4.529026 -0.5508464
7.1450782 -5.1110873 -0.54830348
8.2265368 -5.8846865 -0.54694408
9.679141 -6.9237781 -0.54436713
11.733046 -8.3929968 -0.53977853
14.914827 -10.669021 -0.53357875
20.437504 -14.619555 -0.52217984
32.459427 -23.219194 -0.49755874
1.7165092 -1.1962409 -0.56060851
1.7800218 -1.2405032 -0.56206751
1.8393645 -1.2818593 -0.56096435
1.904555 -1.3272907 -0.5603866
1.9695647 -1.3725961 -0.5584417
2.041301 -1.4225894 -0.55702525
2.1206932 -1.4779181 -0.55617112
2.2273552 -1.5522512 -0.56057763
2.3160849 -1.6140872 -0.55848747
2.4213135 -1.6874216 -0.55841458
2.5332446 -1.7654266 -0.55768871
2.6605399 -1.8541391 -0.55792242
2.7964396 -1.9488481 -0.55729491
2.9563377 -2.0602815 -0.55845261
3.1278074 -2.1797793 -0.55843782
3.3073683 -2.3049159 -0.55631411
3.5203316 -2.4533308 -0.55583543
3.7730923 -2.6294806 -0.55692178
4.0353088 -2.8122201 -0.55418855
4.3694906 -3.0451126 -0.55529845
4.7446027 -3.3065293 -0.55442417
5.1956606 -3.620873 -0.55405605
5.7312202 -3.9941065 -0.55270541
6.3816118 -4.4473667 -0.55041701
7.2190256 -5.0309629 -0.54918927
8.3160601 -5.7954898 -0.54811662
9.7518454 -6.7960939 -0.54371506
11.842896 -8.2533531 -0.54012239
15.020864 -10.46809 -0.532727
20.607479 -14.361422 -0.52197129
32.718266 -22.80147 -0.49719104
1.7278202 -1.172827 -0.55955029
1.7993386 -1.2213731 -0.56338209
1.847363 -1.2539716 -0.5586589
1.9140245 -1.2992207 -0.55842996
1.9834532 -1.3463482 -0.55764335
2.0729094 -1.40707 -0.56088668
2.1515486 -1.4604497 -0.55951118
2.238683 -1.5195956 -0.55868357
2.3314569 -1.5825697 -0.55745965
2.4356279 -1.6532799 -0.5569852
2.550015 -1.7309246 -0.55665284
2.676445 -1.8167442 -0.55653107
2.8170135 -1.9121605 -0.55666709
2.9677558 -2.014483 -0.55588824
3.1450102 -2.1348016 -0.5567804
3.3360107 -2.2644508 -0.55640626
3.5470324 -2.40769 -0.55533469
3.8012025 -2.5802183 -0.55634582
4.0701423 -2.7627718 -0.5542649
4.3982248 -2.985471 -0.55424279
4.7767792 -3.24243 -0.55348331
5.230175 -3.5501904 -0.55303949
5.7716069 -3.9177091 -0.55191267
6.4379892 -4.3700428 -0.55060321
7.2734146 -4.9371209 -0.54866701
8.3690624 -5.6808357 -0.54696453
9.8372107 -6.6774001 -0.54385549
11.924009 -8.0938978 -0.53924185
15.157209 -10.288563 -0.5330354
20.763891 -14.094321 -0.52150381
32.952358 -22.367733 -0.49653119
1.7518979 -1.1579634 -0.56269407
1.8061635 -1.1938317 -0.56088024
1.8791697 -1.2420871 -0.56361616
1.9407603 -1.282797 -0.56158572
2.0037775 -1.3244499 -0.55873644
2.0935376 -1.3837792 -0.5618217
2.1723201 -1.4358526 -0.56027907
2.2489173 -1.4864817 -0.55663401
2.3654475 -1.5635053 -0.5609476
2.4630473 -1.6280164 -0.55863529
2.5847905 -1.7084858 -0.55961585
2.7064812 -1.7889205 -0.55816042
2.8551776 -1.8872055 -0.55958068
3.0021758 -1.9843678 -0.55772275
3.1788509 -2.101146 -0.55815518
3.3714848 -2.2284725 -0.55771035
3.5837071 -2.3687463 -0.55647433
3.8349171 -2.5347903 -0.55667627
4.1147757 -2.7197702 -0.55574667
4.4269171 -2.9260883 -0.5532825
4.8082318 -3.1781285 -0.55255777
5.275259 -3.4868224 -0.55323118
5.8173423 -3.8451266 -0.55172312
6.498734 -4.2955108 -0.55123931
7.3380523 -4.8502803 -0.54900241
8.4334288 -5.5742989 -0.54665023
9.9133997 -6.5525246 -0.54357207
12.025661 -7.9486794 -0.53937793
15.2775 -10.098069 -0.53285867
20.921259 -13.828462 -0.52114612
33.206718 -21.948862 -0.4962596
1.7584144 -1.1314523 -0.56027603
1.8161502 -1.1686025 -0.55947691
1.8802212 -1.209829 -0.55942732
1.9424407 -1.2498641 -0.55758262
2.01825 -1.2986436 -0.55827707
2.0807438 -1.3388553 -0.55392849
2.1821158 -1.4040831 -0.55831033
2.279108 -1.4664929 -0.55960095
2.3798947 -1.5313439 -0.55986583
2.4843247 -1.5985395 -0.55896074
2.6057429 -1.676666 -0.55964613
2.729744 -1.7564546 -0.55846149
2.8566775 -1.83813 -0.55540282
3.0165956 -1.9410293 -0.55592555
3.1946335 -2.055588 -0.55644614
3.3973675 -2.1860371 -0.5575031
3.6085246 -2.3219063 -0.55585253
3.8640981 -2.4863551 -0.55643207
4.1445713 -2.6668255 -0.55529994
4.4672008 -2.8744218 -0.55385786
4.8568645 -3.1251509 -0.55368859
5.3139715 -3.4192765 -0.55283993
5.8683963 -3.7760212 -0.55211973
6.5525327 -4.2162294 -0.55136335
7.401062 -4.7622156 -0.54929388
8.5009995 -5.4699707 -0.54662889
10.001176 -6.4352598 -0.54400498
12.116045 -7.796073 -0.53909147
15.388442 -9.9016981 -0.53244126
21.073915 -13.560018 -0.52075595
33.429462 -21.510199 -0.49559814
1.765692 -1.105675 -0.55822068
1.8306745 -1.146367 -0.55956644
1.8897717 -1.1833737 -0.55789721
1.9699988 -1.2336118 -0.56109649
2.0225198 -1.2665004 -0.55510837
2.122669 -1.3292136 -0.56069601
2.2059691 -1.3813761 -0.56002498
2.3046527 -1.4431717 -0.56147337
2.3873305 -1.4949446 -0.55724853
2.4955513 -1.5627123 -0.5571211
2.6131778 -1.6363699 -0.55687928
2.7563896 -1.7260492 -0.55952835
2.8973575 -1.8143229 -0.55893213
3.0404785 -1.9039454 -0.55597037
3.231607 -2.0236299 -0.55850971
3.4203947 -2.1418486 -0.55691785
3.6423724 -2.2808509 -0.55670404
3.900259 -2.4423394 -0.55727255
4.1789179 -2.6168351 -0.55554849
4.5140853 -2.8267167 -0.55531925
4.9029851 -3.0702455 -0.55460054
5.3573856 -3.3547907 -0.55302304
5.9124198 -3.702353 -0.55193669
6.6015596 -4.1338916 -0.55116981
7.4405227 -4.6592498 -0.54792905
8.5542202 -5.3566465 -0.54577446
10.068898 -6.3051367 -0.54343039
12.200815 -7.6401415 -0.53864241
15.525681 -9.7221699 -0.53301305
21.225992 -13.291701 -0.52043581
33.678722 -21.089592 -0.4954114
1.7785299 -1.0835015 -0.55802506
1.8551697 -1.1301913 -0.56276321
1.9153774 -1.1668705 -0.56117815
1.9742774 -1.2027531 -0.55806053
2.0603955 -1.2552173 -0.56122518
2.1244335 -1.2942301 -0.5569163
2.2162271 -1.3501518 -0.55837226
2.3060315 -1.4048616 -0.55755848
2.4219072 -1.4754546 -0.56104213
2.521976 -1.5364176 -0.5587604
2.6415527 -1.6092652 -0.55866688
2.7739732 -1.6899374 -0.55883718
2.9089649 -1.7721758 -0.55692542
3.0850158 -1.8794281 -0.5598461
3.2573395 -1.9844097 -0.55869758
3.4452922 -2.0989127 -0.55672735
3.6746554 -2.2386434 -0.55738878
3.9260373 -2.3917885 -0.55671144
4.2077379 -2.5634036 -0.55514753
4.5336089 -2.7619283 -0.55350125
4.9357338 -3.0069075 -0.55408067
5.3941293 -3.2861671 -0.55260295
5.9392443 -3.6182578 -0.55024582
6.6362667 -4.0428925 -0.54987538
7.5033073 -4.5711036 -0.54837185
8.6376991 -5.2621889 -0.54693085
10.146789 -6.1815434 -0.54349065
12.292342 -7.4886403 -0.53857708
15.612846 -9.5115299 -0.53195
21.380751 -13.025406 -0.52026385
33.886314 -20.643942 -0.49469355
1.8050214 -1.0694337 -0.56216842
1.8636991 -1.1041989 -0.56118941
1.9217143 -1.1385716 -0.55889064
1.9913014 -1.1798004 -0.55872971
2.067318 -1.2248384 -0.55896604
2.1574469 -1.2782377 -0.56140786
2.2439108 -1.3294656 -0.5611859
2.3320417 -1.3816811 -0.55969715
2.4334826 -1.4417825 -0.55957431
2.5455153 -1.5081593 -0.55982453
2.6636331 -1.5781415 -0.55919033
2.7952926 -1.6561466 -0.55898726
2.9306328 -1.7363325 -0.55694407
3.0832508 -1.8267552 -0.5554074
3.2634544 -1.9335217 -0.55562645
3.4706986 -2.056309 -0.55670482
3.6982987 -2.1911569 -0.55684608
3.9450867 -2.3373733 -0.55529511
4.2364573 -2.5100036 -0.55482256
4.5768576 -2.7116828 -0.55466855
4.9701595 -2.9447052 -0.55383855
5.4502659 -3.2291572 -0.55424416
5.9845047 -3.5456815 -0.55035806
6.6865396 -3.961621 -0.54996294
7.5604539 -4.4793949 -0.54848135
8.6948624 -5.1515059 -0.546498
10.204629 -6.0460081 -0.5425657
12.39966 -7.3465137 -0.53928041
15.721298 -9.3145084 -0.53170258
21.533648 -12.758191 -0.52012753
34.108788 -20.208672 -0.49427631
1.8059474 -1.0401974 -0.55843103
1.8668333 -1.0752666 -0.55810964
1.9396369 -1.1172004 -0.56006539
2.0070438 -1.1560258 -0.55911601
2.0846226 -1.2007098 -0.55961049
2.1729975 -1.2516123 -0.56140709
2.2466516 -1.294036 -0.55784971
2.3376532 -1.3464515 -0.55702823
2.4397461 -1.4052554 -0.55699909
2.5596254 -1.474304 -0.55889851
2.6834321 -1.5456146 -0.55931455
2.8098395 -1.6184233 -0.55787438
2.9590585 -1.7043712 -0.55832106
3.1060381 -1.7890291 -0.55550748
3.2985301 -1.8999014 -0.55757862
3.4793649 -2.0040596 -0.55410028
3.7114217 -2.1377206 -0.55482215
3.971626 -2.2875941 -0.55502939
4.2770443 -2.4635103 -0.5561288
4.6068602 -2.6534791 -0.55430841
5.000833 -2.8804011 -0.55326796
5.4665046 -3.1486208 -0.55191666
6.0396218 -3.4787273 -0.55145133
6.7396355 -3.8819242 -0.55036235
7.6103921 -4.3834662 -0.54815245
8.7709789 -5.0519457 -0.54733628
10.286728 -5.9249935 -0.54301602
12.463426 -7.1787372 -0.53817379
15.837079 -9.1219082 -0.53178453
21.672159 -12.482822 -0.5197264
34.32917 -19.773062 -0.49390921
1.8266083 -1.0223956 -0.5608899
1.8885565 -1.0570694 -0.56067562
1.9492655 -1.0910497 -0.5589295
2.0200882 -1.1306908 -0.55883437
2.0992653 -1.1750082 -0.55962038
2.1790462 -1.2196634 -0.55905282
2.274229 -1.2729394 -0.56076819
2.3446982 -1.3123828 -0.55481964
2.4525268 -1.3727369 -0.55602115
2.5850198 -1.4468963 -0.56051618
2.7031698 -1.5130277 -0.55950838
2.829133 -1.5835323 -0.55779684
2.9715552 -1.6632494 -0.55677795
3.1391218 -1.7570403 -0.55751818
3.3255525 -1.86139 -0.55823523
3.5300159 -1.9758331 -0.55825526
3.7297163 -2.08761 -0.55367768
3.9978344 -2.2376821 -0.55480474
4.2869473 -2.3995054 -0.55353808
4.6498981 -2.6026573 -0.55559415
5.0460773 -2.8244083 -0.5543893
5.5159063 -3.0873826 -0.5530296
6.0765104 -3.4011657 -0.55095917
6.7898445 -3.8004355 -0.55060464
7.6614132 -4.2882733 -0.54798788
8.7917166 -4.9209309 -0.54481322
10.351699 -5.7940893 -0.54264367
12.555758 -7.0277529 -0.53838855
15.933252 -8.9182158 -0.53129143
21.82041 -12.213397 -0.5196408
34.537842 -19.331644 -0.49345413
1.8336786 -0.99694371 -0.55925435
1.8933494 -1.0293858 -0.55829853
1.9745338 -1.0735245 -0.56234729
2.0393558 -1.1087673 -0.56035054
2.0982807 -1.1408039 -0.55557632
2.18135 -1.1859673 -0.5558604
2.293263 -1.2468128 -0.56163871
2.3662007 -1.286468 -0.55612242
2.4849825 -1.3510479 -0.55957061
2.5996397 -1.4133854 -0.55987549
2.713599 -1.4753432 -0.55786991
2.8633142 -1.5567411 -0.56071949
2.9946241 -1.6281325 -0.557307
3.1572649 -1.7165577 -0.55694956
3.3386197 -1.8151578 -0.55663997
3.5407927 -1.9250761 -0.55617392
3.7698405 -2.0496058 -0.55585074
4.0323796 -2.1923447 -0.55581564
4.3328514 -2.3557067 -0.55568308
4.6613464 -2.5343046 -0.55319667
5.0610704 -2.7516284 -0.55227745
5.533402 -3.0084281 -0.55103314
6.1280618 -3.3317356 -0.55187702
6.8216863 -3.708849 -0.54944694
7.6987915 -4.1857181 -0.54693866
8.8565998 -4.8152013 -0.54512358
10.418705 -5.6644945 -0.54246396
12.633112 -6.8684344 -0.53804326
16.037683 -8.719449 -0.53115833
21.937263 -11.926963 -0.51889175
34.735657 -18.885258 -0.49292526
1.8480376 -0.97550452 -0.55993295
1.9120108 -1.0092734 -0.56009942
1.9698335 -1.0397956 -0.55732507
2.0533962 -1.083905 -0.56050384
2.1458914 -1.1327295 -0.56445193
2.2168837 -1.1702033 -0.56120604
2.3027611 -1.2155347 -0.56026191
2.3939745 -1.2636826 -0.55895573
2.4955814 -1.3173168 -0.55826753
2.6034825 -1.3742733 -0.5570215
2.728941 -1.4404979 -0.55734032
2.8747683 -1.5174742 -0.55926615
3.0035002 -1.5854266 -0.55528879
3.1564171 -1.6661452 -0.5531441
3.3568547 -1.7719481 -0.55600542
3.5682025 -1.8835101 -0.55679929
3.8009825 -2.0063853 -0.55676275
4.0586319 -2.1423879 -0.55576098
4.3494034 -2.2958746 -0.55414331
4.6983824 -2.4800866 -0.55393094
5.1038451 -2.694114 -0.55328822
5.5867472 -2.9490185 -0.55269253
6.1547265 -3.2488317 -0.55063903
6.8700142 -3.6264031 -0.54970628
7.7654662 -4.0990763 -0.54805309
8.9173737 -4.7071218 -0.54526037
10.486294 -5.5352912 -0.54239815
12.707222 -6.7076297 -0.53764617
16.132212 -8.515543 -0.53078097
22.0916 -11.661264 -0.51911139
34.945457 -18.446297 -0.49264646
1.8466449 -0.94592232 -0.55594474
1.9249684 -0.98604262 -0.56030101
1.988767 -1.0187227 -0.5590955
2.0588558 -1.0546249 -0.55841208
2.1350474 -1.0936531 -0.55802
2.2279346 -1.1412336 -0.56040877
2.3148844 -1.1857725 -0.55962169
2.4043088 -1.2315792 -0.55779058
2.5120604 -1.2867736 -0.55837208
2.6270256 -1.3456632 -0.55847615
2.7539065 -1.4106565 -0.55885422
2.9036117 -1.4873413 -0.56127703
3.0378413 -1.5560988 -0.55805802
3.2086866 -1.6436123 -0.55871999
3.3807678 -1.731759 -0.55639708
3.6047051 -1.8464682 -0.55891007
3.8236947 -1.9586431 -0.55651969
4.0709863 -2.0853152 -0.55389965
4.3902841 -2.2488718 -0.55578655
4.7349725 -2.4254344 -0.55468667
5.1256051 -2.6255314 -0.55210555
5.6299739 -2.8838885 -0.55341887
6.2084861 -3.1802244 -0.55190831
6.9067454 -3.5379 -0.54912293
7.8175182 -4.0044327 -0.54821008
8.991642 -4.6058636 -0.54629719
10.557149 -5.4077764 -0.54258257
12.793007 -6.5530686 -0.53782576
16.219984 -8.3084974 -0.5302673
22.21788 -11.38085 -0.51875108
35.139824 -17.999964 -0.49222901
1.8683971 -0.92824316 -0.5590148
1.9467465 -0.96716809 -0.56313574
2.0022006 -0.99471849 -0.5593912
2.0766568 -1.0317093 -0.55975699
2.1586556 -1.0724473 -0.56070125
2.2309854 -1.1083816 -0.5577057
2.3062685 -1.1457832 -0.55409086
2.4166615 -1.2006278 -0.55718917
2.5300858 -1.2569784 -0.55890089
2.649895 -1.3165011 -0.55985415
2.7773037 -1.3797994 -0.56011683
2.9160688 -1.4487396 -0.56019908
3.0570304 -1.5187712 -0.55811018
3.226897 -1.603163 -0.55841613
3.4183517 -1.6982801 -0.55910337
3.6208005 -1.7988592 -0.55793381
3.8379762 -1.906755 -0.55514383
4.1058083 -2.0398171 -0.55518281
4.4112649 -2.191572 -0.5549891
4.7577538 -2.3637121 -0.55390865
5.1669879 -2.5670245 -0.55312121
5.6613808 -2.8126452 -0.55306464
6.248929 -3.1045465 -0.55206823
6.9619465 -3.4587827 -0.5500887
7.8721104 -3.9109633 -0.54862452
9.0325375 -4.4874783 -0.5453881
10.609686 -5.2710252 -0.54191059
12.868866 -6.3934145 -0.53766918
16.322994 -8.1094694 -0.53033489
22.335855 -11.096734 -0.51828057
35.328941 -17.551863 -0.49181771
1.8796886 -0.90520948 -0.55902064
1.9438831 -0.93612385 -0.5589354
2.0160034 -0.97085506 -0.55986977
2.0794683 -1.0014182 -0.55715346
2.1650462 -1.0426302 -0.55898875
2.2611294 -1.0889015 -0.56185156
2.3328466 -1.1234386 -0.55711532
2.4220123 -1.1663785 -0.55507404
2.5480254 -1.2270631 -0.55948836
2.656991 -1.2795382 -0.55798703
2.7846854 -1.3410325 -0.55823773
2.9135618 -1.4030961 -0.55636096
3.0806284 -1.483551 -0.55904567
3.2501171 -1.5651724 -0.55906159
3.4311266 -1.6523418 -0.55782747
3.6303885 -1.7483013 -0.55605656
3.8780437 -1.8675655 -0.55757546
4.1319666 -1.9898483 -0.55536938
4.4314699 -2.1340814 -0.55418777
4.7875347 -2.305553 -0.55403328
5.2013068 -2.5048151 -0.55345607
5.6871305 -2.738775 -0.55224842
6.2862973 -3.0273185 -0.55203915
6.9914355 -3.3668945 -0.54910594
7.9094534 -3.8089883 -0.54792142
9.0750408 -4.3703051 -0.54466856
10.657121 -5.1321936 -0.54106915
12.953577 -6.2381077 -0.53796291
16.412754 -7.9039578 -0.53005338
22.46081 -10.816545 -0.51805454
35.519867 -17.10545 -0.49151033
1.8823122 -0.8781271 -0.55654746
1.9678494 -0.91803151 -0.56253821
2.0274069 -0.94581598 -0.55976456
2.0908413 -0.97540909 -0.55694497
2.1800969 -1.0170481 -0.55960345
2.2702923 -1.0591257 -0.56084985
2.3491473 -1.0959128 -0.55774778
2.4568255 -1.1461463 -0.55978024
2.5681455 -1.1980788 -0.56062913
2.6703115 -1.2457407 -0.55752534
2.8080013 -1.3099751 -0.55964035
2.9209442 -1.3626647 -0.55452907
3.087713 -1.4404649 -0.5570749
3.2603738 -1.5210137 -0.55756652
3.4453695 -1.6073171 -0.55688775
3.6394124 -1.6978409 -0.5541991
3.8869746 -1.8133326 -0.55561167
4.1506181 -1.9363261 -0.55463409
4.4684615 -2.084605 -0.55556619
4.7992158 -2.2389069 -0.5521574
5.2156582 -2.4331834 -0.55175775
5.7219801 -2.6693904 -0.55240333
6.3125358 -2.9448934 -0.55112165
7.0400591 -3.2842941 -0.54971141
7.9499426 -3.7087686 -0.54752564
9.1295691 -4.2590823 -0.54475677
10.729074 -5.0052752 -0.54155654
13.009545 -6.06915 -0.53714734
16.51263 -7.7033925 -0.53017968
22.577906 -10.532934 -0.51772887
35.682159 -16.646267 -0.49088654
1.9068291 -0.86117727 -0.56062311
1.9661734 -0.88797879 -0.55889547
2.0301442 -0.91686982 -0.55736542
2.1056831 -0.95098519 -0.55774134
2.1903944 -0.98924327 -0.55908203
2.2745547 -1.0272524 -0.55874014
2.3684988 -1.0696801 -0.5591771
2.4617212 -1.111782 -0.55773866
2.5673556 -1.1594895 -0.55730206
2.6952176 -1.2172354 -0.55955809
2.8152528 -1.2714468 -0.55792749
2.9572802 -1.3355902 -0.5582673
3.1002595 -1.4001638 -0.55619019
3.2780881 -1.480476 -0.55744052
3.4632571 -1.5641035 -0.55662817
3.6768436 -1.6605651 -0.55674756
3.9076467 -1.7648023 -0.5554226
4.1887779 -1.8917691 -0.55658275
4.4914637 -2.0284703 -0.55528289
4.8405275 -2.1861174 -0.55377579
5.2508211 -2.3714173 -0.55235106
5.7645555 -2.6034341 -0.5533812
6.3358617 -2.8614519 -0.5500446
7.0845208 -3.1995673 -0.55006951
7.979661 -3.6038377 -0.54647911
9.1982784 -4.1541991 -0.54576731
10.80554 -4.8800836 -0.54234624
13.078918 -5.9068046 -0.53697217
16.591726 -7.4932866 -0.52972078
22.686811 -10.245997 -0.51729804
35.870605 -16.200167 -0.49070147
1.9199526 -0.83883709 -0.56140643
1.970022 -0.86071271 -0.55693889
2.0504184 -0.89583832 -0.55986494
2.1166675 -0.92478287 -0.55759668
2.2034738 -0.96270901 -0.55935663
2.2740307 -0.99353564 -0.55556828
2.373692 -1.0370781 -0.55735034
2.4805202 -1.083752 -0.55893636
2.5825846 -1.1283444 -0.55755389
2.6952739 -1.1775789 -0.55652148
2.8209283 -1.232478 -0.55600679
2.970603 -1.2978716 -0.5577274
3.1366713 -1.3704277 -0.55965704
3.2900186 -1.4374259 -0.55642152
3.4892905 -1.5244889 -0.55775732
3.707953 -1.6200236 -0.55839956
3.9335947 -1.7186077 -0.55606502
4.2009373 -1.835411 -0.5551576
4.5106997 -1.9707477 -0.55462313
4.8554616 -2.121376 -0.55245823
5.284133 -2.3086648 -0.55282718
5.7867155 -2.5282457 -0.55248231
6.378046 -2.7866011 -0.55069047
7.1207619 -3.1110973 -0.5498715
8.0407925 -3.5130634 -0.54766583
9.2415705 -4.0376892 -0.54534888
10.854115 -4.7422185 -0.54181653
13.140651 -5.7412171 -0.53656763
16.695625 -7.294404 -0.53013414
22.816761 -9.9687595 -0.51742691
36.058529 -15.754156 -0.49058506
1.9269012 -0.81380683 -0.56046981
1.9731737 -0.83334953 -0.55489093
2.0671549 -0.87304145 -0.56146109
2.138252 -0.9030686 -0.56031501
2.2166412 -0.93617547 -0.55973458
2.2872493 -0.96599609 -0.55585372
2.3960481 -1.0119461 -0.55963558
2.4887068 -1.0510796 -0.55782658
2.5962446 -1.0964971 -0.55754995
2.7085729 -1.1439377 -0.55632091
2.8469131 -1.2023643 -0.55817205
2.9811757 -1.2590687 -0.55676359
3.1542251 -1.3321544 -0.55982399
3.317744 -1.401215 -0.5581544
3.4993398 -1.47791 -0.55641669
3.716114 -1.5694624 -0.5566802
3.9583366 -1.6717626 -0.55661458
4.2298713 -1.7864424 -0.55603623
4.5358896 -1.915686 -0.55478209
4.8922982 -2.0662115 -0.55371684
5.3204932 -2.2470553 -0.5536986
5.8096681 -2.4536533 -0.55175138
6.412508 -2.7082565 -0.550749
7.1492338 -3.0194049 -0.54916155
8.0690079 -3.4078619 -0.54669207
9.2710657 -3.9155385 -0.5442071
10.913713 -4.6092939 -0.54192132
13.212934 -5.5803466 -0.53667676
16.769831 -7.0825648 -0.52968496
22.925648 -9.6824102 -0.51715714
36.216728 -15.29576 -0.49014139
1.9408242 -0.7917102 -0.56164539
2.0021703 -0.81673473 -0.56017864
2.0802612 -0.84859002 -0.56214428
2.1560693 -0.87951392 -0.56210744
2.2154219 -0.90372539 -0.55657858
2.3178184 -0.94549543 -0.56041485
2.4064031 -0.98163128 -0.55919254
2.5072305 -1.0227613 -0.55911738
2.6162169 -1.0672195 -0.55897856
2.7430279 -1.1189489 -0.56052935
2.8552825 -1.1647403 -0.55696285
3.0054946 -1.2260156 -0.55844766
3.1533968 -1.2863486 -0.55682755
3.3326397 -1.3594662 -0.5578059
3.5180509 -1.4351 -0.55654383
3.7438927 -1.5272264 -0.55798608
3.9844146 -1.6253413 -0.55742908
4.2381768 -1.7288572 -0.55429161
4.5533986 -1.8574439 -0.55408818
4.9248118 -2.0089524 -0.55455887
5.3250966 -2.1722386 -0.5513562
5.8519983 -2.3871748 -0.55294198
6.4443178 -2.6287966 -0.55066311
7.1825333 -2.9299331 -0.5489105
8.1224489 -3.3133478 -0.5475111
9.3325081 -3.8069611 -0.54502469
10.953164 -4.4680662 -0.54111129
13.272399 -5.4141397 -0.53634739
16.861956 -6.8784089 -0.52988327
23.019911 -9.3903904 -0.51663971
36.358791 -14.83165 -0.48955879
1.9390082 -0.76329768 -0.55836153
2.0175354 -0.79421031 -0.56170285
2.0792131 -0.81848991 -0.55909902
2.1625659 -0.85130203 -0.56102973
2.2331498 -0.87908757 -0.55827439
2.3221154 -0.91410923 -0.55869383
2.4061334 -0.94718325 -0.55638134
2.5186095 -0.99145991 -0.55889392
2.6189539 -1.0309608 -0.5568127
2.7461815 -1.0810444 -0.55841517
2.8828444 -1.1348424 -0.55957484
3.0059164 -1.18329 -0.55578041
3.167413 -1.2468637 -0.55655307
3.3393486 -1.3145468 -0.55618125
3.5344231 -1.3913386 -0.55638528
3.7331605 -1.4695723 -0.55365151
3.9758732 -1.5651171 -0.55349976
4.2696719 -1.6807719 -0.55566561
4.5791941 -1.8026166 -0.55448794
4.9421592 -1.9454992 -0.55377662
5.3689342 -2.1135008 -0.55316246
5.8664813 -2.3093619 -0.55158556
6.4796066 -2.5507209 -0.55095679
7.2116132 -2.8388782 -0.54842365
8.1676674 -3.2152324 -0.54785269
9.3656521 -3.6868236 -0.54427159
11.007705 -4.3332233 -0.54113245
13.349735 -5.2551723 -0.53682065
16.927713 -6.6636562 -0.52933466
23.132231 -9.1060877 -0.51660848
36.531883 -14.380909 -0.48947138
1.9430166 -0.73741388 -0.55686259
2.0159762 -0.76510346 -0.5586071
2.0985317 -0.796435 -0.56161791
2.1587644 -0.81929451 -0.55738777
2.2357283 -0.84850383 -0.55626857
2.3434448 -0.88938445 -0.56115198
2.4246483 -0.92020279 -0.55800396
2.5273521 -0.95918101 -0.55817449
2.6532025 -1.0069438 -0.56141937
2.7531455 -1.0448741 -0.55717653
2.8912024 -1.0972695 -0.55853599
3.0349197 -1.151813 -0.55848205
3.1776555 -1.2059842 -0.55570513
3.3626831 -1.2762059 -0.55741185
3.5483701 -1.3466779 -0.55593204
3.7468364 -1.4219998 -0.55304468
4.0077724 -1.5210303 -0.55529487
4.2796879 -1.6242275 -0.55432796
4.5953493 -1.7440275 -0.55380547
4.9632621 -1.8836578 -0.55350405
5.4023476 -2.0502996 -0.55396563
5.9000669 -2.2391942 -0.55211282
6.5081081 -2.4699581 -0.5507561
7.2446241 -2.7494807 -0.54832149
8.1956186 -3.1104021 -0.54712069
9.4133282 -3.5725472 -0.54444808
11.059992 -4.1974897 -0.54112464
13.404844 -5.0874081 -0.53648061
16.98893 -6.4476404 -0.52872974
23.22505 -8.814374 -0.51622182
36.672447 -13.917932 -0.48902473
1.9620827 -0.71717632 -0.55975717
2.0303333 -0.74212307 -0.56001443
2.1047049 -0.7693072 -0.56069595
2.1759913 -0.79536366 -0.55926818
2.2602818 -0.82617337 -0.55980778
2.3462551 -0.85759813 -0.55925751
2.451375 -0.89602137 -0.56157672
2.5354538 -0.9267537 -0.55740482
2.6432061 -0.96613902 -0.55674815
2.76332 -1.0100428 -0.55668002
2.8935001 -1.0576259 -0.55642539
3.0445292 -1.1128298 -0.55769014
3.2038214 -1.171054 -0.5577206
3.3856347 -1.23751 -0.55865175
3.5724826 -1.3058063 -0.55715203
3.7798851 -1.3816155 -0.55537313
4.0310512 -1.4734212 -0.55596787
4.306715 -1.5741813 -0.55527955
4.6213903 -1.6892008 -0.55439872
4.9855523 -1.8223085 -0.55344903
5.4153528 -1.9794081 -0.55276155
5.9400029 -2.1711771 -0.55330974
6.5269284 -2.3857088 -0.54982466
7.2925763 -2.6655669 -0.54942852
8.2470798 -3.0144551 -0.54804021
9.456522 -3.4565277 -0.54444695
11.109125 -4.0605836 -0.54104471
13.476531 -4.9259129 -0.53688484
17.066839 -6.2382345 -0.52872717
23.335358 -8.5294895 -0.51630336
36.822857 -13.459412 -0.48878652
1.9668047 -0.69160903 -0.55863589
2.0352414 -0.71567416 -0.55889863
2.1078942 -0.74122185 -0.55907524
2.1914644 -0.77060854 -0.56076717
2.2631786 -0.7958262 -0.55805939
2.369854 -0.83333766 -0.56239754
2.438432 -0.85745245 -0.55615419
2.5546596 -0.89832282 -0.55915636
2.6665444 -0.93766612 -0.55919313
2.7795868 -0.97741646 -0.55749369
2.9240561 -1.0282178 -0.55982774
3.0584931 -1.0754913 -0.55778337
3.201237 -1.1256859 -0.55481911
3.3962309 -1.1942537 -0.55793482
3.5864997 -1.26116 -0.55687743
3.7920988 -1.3334571 -0.55471659
4.0386219 -1.4201447 -0.55456167
4.3360372 -1.5247281 -0.55660069
4.629384 -1.6278808 -0.5529145
5.0071564 -1.7607211 -0.55340207
5.4411144 -1.9133184 -0.55294782
5.9585838 -2.0952818 -0.55259883
6.5740175 -2.3116937 -0.55135518
7.3144398 -2.5720563 -0.54865146
8.2651806 -2.9063756 -0.54682684
9.5094004 -3.3438942 -0.54508281
11.160076 -3.9243395 -0.54113513
13.531201 -4.7581239 -0.53669137
17.145624 -6.0291028 -0.52883118
23.43125 -8.2393866 -0.51614434
36.966312 -12.998868 -0.4885321
1.9704595 -0.66578567 -0.55730647
2.0383615 -0.68872869 -0.55738771
2.1218009 -0.71692145 -0.5603832
2.2030022 -0.744358 -0.56133503
2.2887368 -0.77332628 -0.56197429
2.3439345 -0.79197669 -0.55389357
2.4596293 -0.83106804 -0.55861586
2.5656309 -0.86688423 -0.55918235
2.6712949 -0.90258634 -0.55781966
2.7985291 -0.94557667 -0.55891854
2.9209177 -0.98692977 -0.55686128
3.0599055 -1.0338914 -0.55568039
3.2403357 -1.0948558 -0.5592199
3.4177105 -1.1547878 -0.55908847
3.6136425 -1.2209899 -0.55871844
3.816211 -1.2894346 -0.55588239
4.0559177 -1.3704275 -0.55458075
4.3573871 -1.4722891 -0.55697531
4.6696548 -1.5777992 -0.55536509
5.0183377 -1.6956133 -0.55229163
5.4608474 -1.8451298 -0.55260569
5.9760809 -2.0192189 -0.55187714
6.5831285 -2.2243302 -0.54978383
7.3413901 -2.4805341 -0.54834354
8.3021927 -2.8051734 -0.54695207
9.5422258 -3.2241602 -0.54465067
11.212183 -3.7884109 -0.54136193
13.573556 -4.5862799 -0.53609401
17.214237 -5.8164058 -0.52870148
23.523968 -7.9483595 -0.51599479
37.099514 -12.535312 -0.48821849
1.9778301 -0.64129132 -0.55711865
2.0429418 -0.66240311 -0.55637074
2.1212265 -0.68778616 -0.55795568
2.2101152 -0.71660739 -0.5608598
2.2687426 -0.73561668 -0.55480194
2.3875787 -0.77414817 -0.5619151
2.4704711 -0.80102515 -0.55879891
2.5779901 -0.83588707 -0.5595935
2.6927626 -0.87310094 -0.56001836
2.8132994 -0.91218376 -0.55958599
2.9483025 -0.95595711 -0.55979872
3.0835731 -0.99981719 -0.55770367
3.2442012 -1.0518993 -0.5576126
3.4108844 -1.1059446 -0.55570519
3.6091428 -1.1702279 -0.55575585
3.8356225 -1.2436616 -0.55644029
4.0760593 -1.3216208 -0.55507076
4.3524117 -1.4112253 -0.55407929
4.6771994 -1.5165344 -0.55400264
5.0586166 -1.6402051 -0.55446297
5.4793897 -1.7766364 -0.55222958
5.9932184 -1.9432403 -0.55121148
6.6094956 -2.1430619 -0.54974347
7.3690224 -2.3893306 -0.54817158
8.3380795 -2.7035375 -0.54708481
9.5739183 -3.1042457 -0.54423976
11.243438 -3.6455705 -0.54066575
13.62043 -4.416286 -0.53575999
17.292606 -5.6069522 -0.52895099
23.611181 -7.6556854 -0.51580393
37.239201 -12.074432 -0.48806596
1.9845372 -0.6166048 -0.55683017
2.0692074 -0.64291227 -0.56132853
2.1328526 -0.66268706 -0.55882806
2.2040584 -0.68481106 -0.55714369
2.303926 -0.7158404 -0.56121081
2.3819585 -0.74008542 -0.55840838
2.4738183 -0.76862675 -0.55737609
2.5803554 -0.80172825 -0.55792487
2.6940274 -0.83704668 -0.55809855
