# .PCD v0.7 - Point Cloud Data file format
VERSION 0.7
FIELDS x y z
SIZE 4 4 4
TYPE F F F
COUNT 1 1 1
WIDTH 1461
HEIGHT 1
VIEWPOINT 0 0 0 1 0 0 0
POINTS 1461
DATA ascii
-0.81720579 2.3943181 -0.56639034
-0.84592515 2.4784625 -0.56348079
-0.88512373 2.5933099 -0.56580508
-0.92502683 2.7102213 -0.56653917
-0.96484411 2.8268812 -0.56517041
-1.0119178 2.9648018 -0.56581771
-1.0642527 3.1181371 -0.56684643
-1.1175685 3.2743461 -0.56567937
-1.1815782 3.4618869 -0.56690639
-1.2430283 3.6419287 -0.56367975
-1.3280975 3.8911715 -0.56739312
-1.4191228 4.157865 -0.56911397
-1.5161283 4.44208 -0.56839377
-1.6280611 4.77003 -0.567895
-1.7557561 5.1441617 -0.56673026
-1.9110353 5.5991116 -0.5671888
-2.1003103 6.1536655 -0.56886995
-2.3192785 6.7952166 -0.56808859
-2.5958481 7.6055336 -0.56866604
-2.9498255 8.6426458 -0.56997573
-3.4044161 9.9745436 -0.5699209
-4.0379009 11.830582 -0.57181668
-4.9525728 14.510464 -0.5736959
-6.403502 18.761517 -0.57682478
-9.0542355 26.527859 -0.58249217
-15.421147 45.182171 -0.59520459
-0.70558369 1.9870155 -0.56498951
-0.73024815 2.056474 -0.56534278
-0.75396091 2.1232519 -0.56376034
-0.77999562 2.1965692 -0.56268406
-0.81525213 2.295856 -0.56673205
-0.84817892 2.3885822 -0.56745774
-0.87934136 2.4763396 -0.56541371
-0.91778308 2.5845966 -0.56632346
-0.95672375 2.6942585 -0.56561875
-1.0050331 2.8303039 -0.56828254
-1.0439504 2.9399004 -0.56347269
-1.0993687 3.0959651 -0.56523061
-1.1586149 3.2628102 -0.56610495
-1.2279086 3.4579506 -0.56869131
-1.2905176 3.6342654 -0.56490701
-1.3742115 3.8699584 -0.56672108
-1.4641466 4.1232271 -0.56679428
-1.5699456 4.4211707 -0.56814551
-1.6863301 4.7489247 -0.56780815
-1.8213933 5.1292801 -0.56751531
-1.9816076 5.5804648 -0.56772524
-2.1722178 6.1172481 -0.56792969
-2.4052768 6.7735724 -0.56870872
-2.6942074 7.5872388 -0.56973219
-3.0590487 8.6146784 -0.57056892
-3.5258646 9.9292936 -0.5697695
-4.1848865 11.785184 -0.57206643
-5.1342616 14.458749 -0.57410395
-6.6418729 18.704378 -0.57753539
-9.388195 26.438379 -0.58301818
-16.005054 45.072315 -0.59630489
-0.73549676 1.9931895 -0.56927353
-0.74985182 2.0320916 -0.56113231
-0.78351998 2.123332 -0.56629688
-0.80972099 2.1943364 -0.56462002
-0.84228849 2.2825942 -0.56597221
-0.87693793 2.3764937 -0.56710482
-0.90741134 2.4590764 -0.56397706
-0.94811267 2.5693767 -0.56550032
-0.99322015 2.6916175 -0.56758535
-1.0310862 2.794234 -0.56354332
-1.0846529 2.9393992 -0.56589013
-1.1371844 3.0817592 -0.56514722
-1.1951003 3.2387106 -0.56443065
-1.2631297 3.42307 -0.56546652
-1.3431234 3.6398523 -0.56829971
-1.4215236 3.8523159 -0.56665438
-1.5206332 4.1209021 -0.56900197
-1.622023 4.3956676 -0.56738842
-1.7467622 4.7337093 -0.56851405
-1.8843948 5.1066923 -0.56753695
-2.0484698 5.5513344 -0.56728142
-2.2457998 6.0860972 -0.56755853
-2.4893706 6.746171 -0.56893516
-2.7865407 7.5514998 -0.56957841
-3.1639795 8.5743561 -0.57043189
-3.6543059 9.9031353 -0.57080388
-4.3327084 11.7416 -0.57249361
-5.3235087 14.42666 -0.57538551
-6.8727841 18.625181 -0.57765579
-9.7252445 26.355324 -0.58377963
-16.594061 44.969749 -0.59760237
-0.75021821 1.9585927 -0.56198466
-0.78258729 2.0430984 -0.56678605
-0.81033027 2.1155269 -0.56682992
-0.83310348 2.1749809 -0.56223309
-0.8708536 2.2735353 -0.56633842
-0.90247256 2.3560827 -0.56483954
-0.93956518 2.4529202 -0.56517214
-0.98059052 2.560025 -0.56605315
-1.0241023 2.6736212 -0.56640309
-1.0687594 2.7902074 -0.56533897
-1.1211013 2.926856 -0.56608653
-1.1765761 3.0716841 -0.56591004
-1.2369994 3.2294309 -0.56542158
-1.3031286 3.4020741 -0.56460249
-1.384177 3.613667 -0.56682593
-1.4698646 3.8373713 -0.56707191
-1.5685819 4.0950923 -0.56805855
-1.6772299 4.3787394 -0.56782258
-1.8023138 4.7052956 -0.56772029
-1.9465686 5.0819016 -0.56739902
-2.114027 5.5190849 -0.56659943
-2.3261096 6.0727682 -0.56893986
-2.576088 6.7253857 -0.56981063
-2.8817768 7.5234466 -0.57009214
-3.2666471 8.5282269 -0.56999224
-3.7842019 9.879405 -0.57207489
-4.4816456 11.70022 -0.5731197
-5.4982023 14.354141 -0.5751462
-7.1116276 18.566305 -0.57849824
-10.058815 26.260521 -0.58437526
-17.183813 44.861736 -0.59892964
-0.78805196 1.9839844 -0.57200754
-0.80693156 2.0315151 -0.56628251
-0.82713705 2.0823841 -0.56063247
-0.86341465 2.1737158 -0.56460786
-0.89881212 2.2628319 -0.56638247
-0.93141699 2.3449173 -0.56486583
-0.97028768 2.4427774 -0.56554145
-1.0105824 2.5442226 -0.56526399
-1.0587825 2.66557 -0.56741267
-1.1025892 2.7758572 -0.56513572
-1.1545792 2.9067459 -0.56490022
-1.2152314 3.0594428 -0.56636494
-1.2775567 3.2163517 -0.56583929
-1.3470938 3.3914173 -0.56554019
-1.4266728 3.5917635 -0.56609917
-1.5194336 3.8252964 -0.56800556
-1.6171932 4.071414 -0.56748956
-1.7268009 4.3473606 -0.56646407
-1.8558235 4.6721849 -0.56643587
-2.0119812 5.0653243 -0.56826752
-2.1882818 5.5091758 -0.56830162
-2.3999007 6.0419431 -0.56877375
-2.6564739 6.6878872 -0.56935805
-2.9736414 7.4863811 -0.57001114
-3.3762197 8.4999056 -0.57083094
-3.9067197 9.8354816 -0.57226992
-4.6248732 11.643491 -0.57308322
-5.6760054 14.289801 -0.57532126
-7.3432903 18.487324 -0.57880706
-10.396552 26.174156 -0.58525395
-17.771702 44.741688 -0.60019904
-0.80102462 1.9465346 -0.56400752
-0.82736665 2.0105472 -0.56323105
-0.85859966 2.0864451 -0.56452554
-0.89377391 2.1719205 -0.56695336
-0.92745799 2.2537746 -0.56692719
-0.9584983 2.3292043 -0.56387728
-1.0012095 2.4329951 -0.56608415
-1.0455192 2.5406704 -0.56728822
-1.0869108 2.6412542 -0.56503892
-1.14272 2.7768736 -0.56816041
-1.1966887 2.9080205 -0.56796467
-1.2537669 3.0467236 -0.56682146
-1.3162308 3.1985142 -0.56550586
-1.3932185 3.3855989 -0.56738383
-1.4704229 3.5732098 -0.56598186
-1.568621 3.8118367 -0.56882805
-1.6608257 4.0358996 -0.5653432
-1.7873434 4.3433442 -0.56876153
-1.9186051 4.6623178 -0.56805688
-2.0722959 5.0357947 -0.56777048
-2.2595663 5.4908724 -0.56923664
-2.4693274 6.0006037 -0.56769758
-2.7381117 6.6537642 -0.56927645
-3.0628903 7.4429946 -0.56953228
-3.4875901 8.4750385 -0.57199776
-4.0230622 9.7762661 -0.57165968
-4.7725143 11.597477 -0.57366353
-5.855504 14.229202 -0.57573682
-7.5750751 18.407856 -0.57919151
-10.729465 26.073198 -0.58590233
-18.364508 44.626781 -0.60164142
-0.82864928 1.9453455 -0.56657255
-0.85840029 2.0151892 -0.56744552
-0.89168686 2.0933332 -0.56931287
-0.92307371 2.1670172 -0.56859332
-0.95074648 2.231982 -0.56434345
-0.99697107 2.3404994 -0.56953651
-1.0316993 2.4220276 -0.5664413
-1.071691 2.5159128 -0.56466001
-1.1197038 2.628628 -0.56524056
-1.1758007 2.7603216 -0.56768912
-1.2224075 2.8697362 -0.5633806
-1.2888553 3.0257299 -0.56582147
-1.355878 3.183073 -0.56568074
-1.4332724 3.3647649 -0.5668031
-1.5197362 3.5677481 -0.56803381
-1.6085695 3.7762942 -0.56643301
-1.7189467 4.0354166 -0.5681935
-1.8377849 4.3144026 -0.5678879
-1.9751502 4.6368828 -0.56787413
-2.1328433 5.0070844 -0.56744754
-2.324121 5.45613 -0.56855464
-2.5501804 5.9868298 -0.56931818
-2.8197064 6.6195712 -0.56927443
-3.1585963 7.415153 -0.57033074
-3.5863626 8.4193821 -0.57117456
-4.1492529 9.7408285 -0.57252759
-4.9194999 11.549067 -0.5742178
-6.0358615 14.16985 -0.57629484
-7.8109808 18.337139 -0.57994467
-11.061372 25.967791 -0.58654577
-18.947886 44.48225 -0.60278845
-0.85361248 1.9375219 -0.56730807
-0.89030159 2.0207984 -0.5720644
-0.91611648 2.0793929 -0.5685423
-0.94329888 2.1410913 -0.5647915
-0.9831602 2.2315681 -0.56725264
-1.0186598 2.312145 -0.565642
-1.0654334 2.4183111 -0.56859303
-1.1085659 2.5162129 -0.56774384
-1.1513813 2.6133947 -0.56496662
-1.2022325 2.7288163 -0.56420738
-1.2670984 2.8760486 -0.56763566
-1.3253231 3.0082064 -0.56554931
-1.3960699 3.1687868 -0.56614983
-1.4719567 3.3410342 -0.56581175
-1.5628926 3.5474393 -0.56781727
-1.658766 3.7650521 -0.56776327
-1.7604622 3.9958813 -0.56563205
-1.8848803 4.2782841 -0.56614178
-2.0347493 4.6184554 -0.56863856
-2.1983972 4.989902 -0.56852084
-2.3886416 5.4217172 -0.56798643
-2.6183419 5.943089 -0.56817734
-2.9061918 6.5964484 -0.57031596
-3.2484229 7.3732409 -0.57013625
-3.6918662 8.3797646 -0.57152343
-4.2701335 9.6923103 -0.5727188
-5.0585299 11.481806 -0.57392281
-6.2088556 14.092804 -0.5762229
-8.0407438 18.250807 -0.58029741
-11.391524 25.85638 -0.58714885
-19.533527 44.337025 -0.60402972
-0.87766474 1.9275253 -0.56749815
-0.90681517 1.9915453 -0.56689692
-0.93725383 2.0583947 -0.56590939
-0.96394539 2.1170146 -0.56152463
-1.0059446 2.2092533 -0.56468189
-1.0441777 2.2932205 -0.56411076
-1.0902597 2.3944256 -0.56608641
-1.1338737 2.4902108 -0.56498009
-1.1926697 2.6193388 -0.56937897
-1.2464943 2.7375479 -0.56913882
-1.3039806 2.8637991 -0.56833971
-1.3617773 2.9907322 -0.56536949
-1.4315101 3.1438792 -0.56480199
-1.5203235 3.3389308 -0.5685786
-1.6053369 3.5256371 -0.56744426
-1.6998193 3.7331393 -0.56606001
-1.8193984 3.9957585 -0.56873852
-1.93988 4.2603598 -0.5668835
-2.0857997 4.5808282 -0.56712079
-2.2575588 4.9580455 -0.56801116
-2.4590247 5.4005041 -0.56888884
-2.6968842 5.9228907 -0.56937373
-2.9855387 6.5568333 -0.57002187
-3.3476815 7.3521705 -0.57164681
-3.7933567 8.3309612 -0.57133305
-4.394361 9.6508856 -0.57342064
-5.2033429 11.427569 -0.57436663
-6.3873115 14.0278 -0.57673275
-8.2783146 18.180815 -0.58126467
-11.727445 25.755787 -0.58809483
-20.130125 44.209736 -0.60562205
-0.90065062 1.9152108 -0.56709027
-0.92837369 1.9741633 -0.56515586
-0.95924324 2.0398066 -0.56399918
-0.99746251 2.121079 -0.56581318
-1.0368582 2.2048528 -0.56677312
-1.0752975 2.286593 -0.56569034
-1.1232064 2.3884699 -0.56790072
-1.1651894 2.4777458 -0.56535995
-1.2107531 2.574636 -0.56285542
-1.274338 2.7098475 -0.56659478
-1.3372315 2.8435891 -0.56754929
-1.4003925 2.9778996 -0.56615603
-1.4783479 3.1436694 -0.5679872
-1.5605936 3.318563 -0.56833494
-1.6438315 3.4955661 -0.56581491
-1.7579937 3.7383292 -0.57008171
-1.8672394 3.9706373 -0.56838799
-2.0002186 4.2534146 -0.56918901
-2.1482348 4.5681667 -0.5687806
-2.3220816 4.9378476 -0.56892538
-2.5263386 5.3721952 -0.56913608
-2.7660625 5.8819618 -0.56866586
-3.0687451 6.525609 -0.57054472
-3.437175 7.3090658 -0.57153833
-3.9018943 8.2972794 -0.57227033
-4.5088739 9.588007 -0.57293546
-5.3535709 11.384233 -0.5754537
-6.5661821 13.962821 -0.57733715
-8.5109711 18.098366 -0.58193058
-12.055409 25.635525 -0.58868909
-20.70871 44.036549 -0.60669208
-0.92549539 1.9068029 -0.56792748
-0.94533139 1.9476712 -0.56085712
-0.98720276 2.0339389 -0.56569046
-1.0247934 2.111387 -0.5665465
-1.0591972 2.1822696 -0.56427324
-1.1070737 2.2809098 -0.56760919
-1.1411215 2.3510585 -0.56229925
-1.2007477 2.4739068 -0.56781006
-1.2472354 2.5696855 -0.56508327
-1.3051579 2.6890235 -0.56555361
-1.3686385 2.819813 -0.56612003
-1.4342678 2.9550292 -0.56511831
-1.5126355 3.1164906 -0.56639439
-1.6006883 3.2979064 -0.56812525
-1.6940895 3.4903414 -0.5682981
-1.7961468 3.7006104 -0.56765491
-1.9146935 3.9448528 -0.56802434
-2.0527167 4.2292228 -0.56928641
-2.2054126 4.5438232 -0.56908309
-2.380971 4.9055266 -0.56853175
-2.5896273 5.3354225 -0.56857091
-2.8388777 5.8489547 -0.56880665
-3.1451786 6.4800277 -0.56989777
-3.5262063 7.2650609 -0.57144469
-4.0093818 8.2605495 -0.57309407
-4.6345353 9.5485563 -0.5739401
-5.4875174 11.305961 -0.57486451
-6.7410555 13.888631 -0.57765323
-8.7310438 17.988615 -0.58180976
-12.382445 25.511616 -0.58929557
-21.287916 43.859604 -0.60781467
-0.94102895 1.8796164 -0.56323403
-0.97593081 1.9493295 -0.56474769
-1.0083297 2.0140433 -0.56356281
-1.0527089 2.1026864 -0.56764239
-1.0906413 2.178453 -0.56671125
-1.1364361 2.2699237 -0.56830984
-1.1785123 2.353967 -0.56641799
-1.2237077 2.4442403 -0.564412
-1.2771198 2.550926 -0.56436872
-1.3389391 2.6744044 -0.5658989
-1.4076887 2.8117251 -0.56792849
-1.4736161 2.943409 -0.56631851
-1.5526198 3.1012113 -0.56704438
-1.6349618 3.2656815 -0.5659945
-1.7367084 3.4689109 -0.56824291
-1.8474082 3.6900232 -0.56947243
-1.9661552 3.9272089 -0.56892204
-2.1007047 4.1959591 -0.56824303
-2.2567225 4.5075898 -0.56797761
-2.4446115 4.8828807 -0.56934798
-2.65818 5.309463 -0.56924474
-2.9157188 5.8238726 -0.56981105
-3.2235653 6.438767 -0.56971204
-3.614603 7.2198277 -0.57133967
-4.1003051 8.189971 -0.57165229
-4.7485304 9.4847403 -0.57357061
-5.63271 11.250805 -0.57553828
-6.9202752 13.822596 -0.57840222
-8.9540243 17.884817 -0.58196974
-12.713215 25.393446 -0.59013236
-21.875374 43.693993 -0.60920125
-0.9698388 1.8790835 -0.56660503
-0.99972683 1.9369922 -0.5646922
-1.0382819 2.0116935 -0.56643498
-1.0754764 2.0837586 -0.56605995
-1.1162332 2.1627259 -0.56614786
-1.165673 2.2585166 -0.56899947
-1.2028491 2.3305459 -0.56429869
-1.257442 2.4363208 -0.56611091
-1.3144819 2.5468369 -0.56699717
-1.3731184 2.6604464 -0.56647533
-1.443092 2.7960217 -0.56829786
-1.5072323 2.9202948 -0.56539446
-1.5848137 3.0706105 -0.56496966
-1.6851649 3.2650433 -0.5694322
-1.7814224 3.451544 -0.56894338
-1.8883727 3.6587625 -0.56818861
-2.0094357 3.8933246 -0.56754988
-2.1563289 4.1779332 -0.56934965
-2.3141406 4.4836969 -0.56850958
-2.5056603 4.8547707 -0.56961983
-2.7241123 5.2780261 -0.56942254
-2.9951944 5.8032532 -0.57135397
-3.3103404 6.4138556 -0.57106632
-3.6982801 7.1654968 -0.5705958
-4.2104135 8.1577663 -0.5729748
-4.8720627 9.4397259 -0.5744279
-5.7728872 11.185092 -0.57576454
-7.0910668 13.739094 -0.57851309
-9.1903315 17.806465 -0.58305335
-13.034328 25.254292 -0.59057862
-22.457134 43.511177 -0.61045635
-0.99246424 1.8662541 -0.56637359
-1.0272003 1.9315727 -0.56675172
-1.060933 1.9950044 -0.56536639
-1.0961393 2.0612073 -0.56355268
-1.1457615 2.1545181 -0.56764442
-1.1893789 2.236537 -0.5671038
-1.2346835 2.3217289 -0.56579715
-1.2881073 2.4221883 -0.56646466
-1.3473439 2.5335786 -0.56769103
-1.4056534 2.643225 -0.56644595
-1.4761038 2.7757015 -0.56781405
-1.5573125 2.9284086 -0.57062972
-1.6267396 3.0589612 -0.56646389
-1.7171686 3.2290058 -0.56678683
-1.8175884 3.4178376 -0.56702852
-1.928818 3.6269965 -0.5668959
-2.0537398 3.8619025 -0.56660789
-2.2061441 4.1484871 -0.56899071
-2.3761654 4.4681997 -0.57020628
-2.5652609 4.8237796 -0.56964159
-2.7901332 5.2466345 -0.56969422
-3.0628161 5.7593942 -0.57070071
-3.3865192 6.3680935 -0.57065642
-3.7874925 7.1220937 -0.57080501
-4.3057203 8.0965815 -0.57235283
-4.9865432 9.3768177 -0.57428765
-5.9115763 11.116273 -0.57592028
-7.2664623 13.664033 -0.57907104
-9.4043064 17.684088 -0.58278865
-13.369113 25.139606 -0.59169632
-23.034124 43.313931 -0.61161655
-1.0095259 1.8433017 -0.5631327
-1.051679 1.9202694 -0.56718665
-1.0900688 1.9903656 -0.56780738
-1.1247071 2.053612 -0.56521457
-1.1707747 2.1377273 -0.56697071
-1.2085725 2.2067425 -0.56327468
-1.2525369 2.2870176 -0.56104904
-1.3188715 2.4081385 -0.56692868
-1.375327 2.5112209 -0.56642795
-1.4359475 2.6219084 -0.56561899
-1.514396 2.7651482 -0.56942147
-1.5884806 2.90042 -0.56893897
-1.6616981 3.0341084 -0.56560266
-1.7552667 3.2049558 -0.56631112
-1.8600328 3.3962493 -0.56719857
-1.9753418 3.6067929 -0.56749171
-2.1046178 3.842839 -0.56756496
-2.2575951 4.1221614 -0.56914449
-2.4253211 4.4284139 -0.56889188
-2.617188 4.7787452 -0.56808096
-2.8531911 5.2096653 -0.56944644
-3.1351037 5.724412 -0.57101113
-3.4682214 6.332654 -0.57125908
-3.889298 7.1015015 -0.57294428
-4.4044075 8.0420446 -0.57228279
-5.0979028 9.3083029 -0.57388729
-6.0540967 11.054225 -0.57651895
-7.4335313 13.572947 -0.57904083
-9.6456194 17.612015 -0.58427811
-13.686058 24.989487 -0.59207922
-23.617332 43.123081 -0.61297607
-1.0376939 1.8406472 -0.56617719
-1.0717275 1.9010156 -0.56534952
-1.1087425 1.9666723 -0.56489491
-1.1568165 2.0519452 -0.56862789
-1.194761 2.1192508 -0.56592399
-1.2394493 2.1985183 -0.56502295
-1.2925825 2.2927651 -0.56631541
-1.3513051 2.3969264 -0.56815803
-1.4045652 2.4913988 -0.56580973
-1.4690115 2.6057127 -0.56597912
-1.5383217 2.7286541 -0.56575888
-1.6153147 2.8652234 -0.56588835
-1.7035954 3.0218141 -0.56717306
-1.7985457 3.1902359 -0.56757504
-1.9033895 3.3762062 -0.56771713
-2.026556 3.5946774 -0.56946319
-2.1565175 3.8252013 -0.56883347
-2.3096509 4.096827 -0.56952477
-2.4826789 4.4037418 -0.56960112
-2.6823063 4.7578382 -0.56947345
-2.9161749 5.1726713 -0.56927931
-3.1964066 5.6697421 -0.56943536
-3.5420156 6.2827787 -0.57064575
-3.9692879 7.0406685 -0.57193089
-4.5102191 8.000165 -0.57320589
-5.2132096 9.2471199 -0.57402396
-6.1925607 10.98428 -0.5767988
-7.60004 13.480846 -0.57905483
-9.8606548 17.490694 -0.58423162
-14.011591 24.853569 -0.59289622
-24.193419 42.913956 -0.61418575
-1.0633209 1.8330479 -0.56781852
-1.1014166 1.8987206 -0.56865174
-1.1405727 1.9662213 -0.56875086
-1.1774627 2.0298157 -0.5664649
-1.2190424 2.1014946 -0.56514257
-1.2683945 2.1865718 -0.56591833
-1.3242428 2.2828484 -0.56784505
-1.3769073 2.3736362 -0.56660789
-1.4384373 2.479707 -0.5671286
-1.5066681 2.5973294 -0.56813943
-1.57836 2.7209184 -0.5681361
-1.6549819 2.8530059 -0.56745172
-1.7395595 2.9988086 -0.56682706
-1.8335512 3.1608398 -0.56631356
-1.9417671 3.3473921 -0.56684405
-2.0694461 3.5674965 -0.5691455
-2.2053347 3.8017533 -0.56933618
-2.3566685 4.0626364 -0.56875718
-2.5416775 4.3815713 -0.57073283
-2.7414451 4.7259488 -0.56964827
-2.9781404 5.133985 -0.56900895
-3.2771959 5.6495237 -0.57140887
-3.6202953 6.2409892 -0.57085031
-4.0592332 6.9976697 -0.57244939
-4.6083703 7.9443216 -0.5732215
-5.3346262 9.1963072 -0.57489824
-6.3287063 10.909991 -0.57694066
-7.7701044 13.394802 -0.57941908
-10.08156 17.379498 -0.58461398
-14.334185 24.71055 -0.59364438
-24.760603 42.684544 -0.61521345
-1.0815916 1.8128172 -0.56562883
-1.1191163 1.875711 -0.56583911
-1.1558737 1.9373186 -0.56445903
-1.1954232 2.0036063 -0.56321019
-1.2449142 2.0865562 -0.56519926
-1.2965978 2.1731813 -0.56653625
-1.3486596 2.2604403 -0.5663535
-1.4026374 2.3509104 -0.56525743
-1.4710516 2.4655771 -0.56799108
-1.5383161 2.5783167 -0.5680753
-1.6140629 2.7052732 -0.5689705
-1.6809568 2.8173919 -0.56443673
-1.7767222 2.9779007 -0.56696177
-1.8733348 3.1398296 -0.56663358
-1.9868807 3.3301399 -0.56801689
-2.1086676 3.5342624 -0.56793714
-2.2484224 3.7685006 -0.56845379
-2.4031711 4.0278692 -0.56798398
-2.5886724 4.3387814 -0.56926239
-2.7977002 4.6891255 -0.56931335
-3.0432394 5.1006651 -0.56942046
-3.3409281 5.5996103 -0.57047248
-3.6993937 6.2004218 -0.57125729
-4.1383834 6.9361968 -0.57154024
-4.7050796 7.8860154 -0.57314569
-5.4566116 9.1456327 -0.57588136
-6.4637418 10.833647 -0.5770629
-7.9519658 13.328006 -0.58071548
-10.2961 17.256924 -0.58470541
-14.661316 24.573309 -0.5946334
-25.347111 42.483387 -0.61675978
-1.0994312 1.7922602 -0.56339031
-1.1475276 1.8706656 -0.5685308
-1.1837081 1.929646 -0.56642163
-1.2282447 2.0022483 -0.56703103
-1.2751812 2.0787628 -0.56729275
-1.3218292 2.1548071 -0.56594068
-1.373016 2.2382503 -0.56498116
-1.4309914 2.3327601 -0.56508142
-1.499382 2.4442484 -0.56728208
-1.5754048 2.5681784 -0.57006663
-1.6401726 2.6737611 -0.56654185
-1.7219429 2.8070605 -0.56656611
-1.8114864 2.9530315 -0.56642503
-1.9169117 3.1248932 -0.56814891
-2.0228891 3.2976544 -0.56667584
-2.1532454 3.5101573 -0.56827539
-2.2968371 3.744236 -0.56901091
-2.4589672 4.0085359 -0.56947839
-2.6399755 4.3036103 -0.56886399
-2.8576488 4.6584549 -0.56981283
-3.1034098 5.0590873 -0.56899601
-3.4112508 5.5609207 -0.57076108
-3.7801249 6.1622481 -0.57197958
-4.2276888 6.8918543 -0.57212675
-4.8056812 7.8340797 -0.57362252
-5.5637727 9.0698977 -0.57537699
-6.6116691 10.778149 -0.57839352
-8.1079283 13.217306 -0.58019233
-10.531243 17.167723 -0.58602643
-14.977675 24.416164 -0.59524244
-25.913404 42.243271 -0.61785311
-1.1250556 1.7844288 -0.56523454
-1.1641716 1.8464699 -0.56548518
-1.2096953 1.9186742 -0.56752443
-1.2519243 1.9856527 -0.56664801
-1.301427 2.064168 -0.56763411
-1.3562236 2.1510799 -0.56929874
-1.4095973 2.2357347 -0.56867844
-1.4664192 2.3258588 -0.56773478
-1.5315576 2.4291737 -0.5681113
-1.5927624 2.5262494 -0.56506419
-1.6748514 2.6564493 -0.56719464
-1.7628498 2.7960219 -0.56867021
-1.8537573 2.9402084 -0.5682947
-1.9528008 3.0972993 -0.56745487
-2.0675356 3.279278 -0.56784385
-2.1932137 3.4786136 -0.56749183
-2.3412266 3.7133739 -0.56865287
-2.5068576 3.976078 -0.5692035
-2.688313 4.2638812 -0.56793904
-2.911186 4.6173754 -0.56912369
-3.1748006 5.0354896 -0.5706895
-3.4811025 5.5213089 -0.5710457
-3.8534808 6.1119308 -0.57166409
-4.3126445 6.8402019 -0.57219785
-4.9056277 7.7807207 -0.57408893
-5.6761632 9.0028515 -0.57550794
-6.728425 10.671824 -0.57708406
-8.2873373 13.144384 -0.5814206
-10.744688 17.041941 -0.58619851
-15.289622 24.250572 -0.59574389
-26.491438 42.017555 -0.61926943
-1.1465216 1.7698594 -0.56504256
-1.1845654 1.8285868 -0.56442666
-1.2249898 1.8909889 -0.5637483
-1.2842613 1.9824853 -0.5702076
-1.3225218 2.0415471 -0.56584275
-1.373754 2.1206331 -0.5656687
-1.4253471 2.2002761 -0.56407464
-1.4893461 2.2990701 -0.56562322
-1.5620939 2.4113691 -0.56839657
-1.6347022 2.5234528 -0.56889182
-1.7020757 2.6274559 -0.5654301
-1.7969006 2.7738349 -0.56860864
-1.8909843 2.9190698 -0.56866026
-1.9885573 3.0696912 -0.56683385
-2.1081915 3.2543676 -0.5679763
-2.2430668 3.4625716 -0.56933135
-2.3913319 3.6914451 -0.5697546
-2.5545616 3.943419 -0.56898195
-2.7459421 4.2388487 -0.56905925
-2.9727726 4.5890017 -0.57008898
-3.2264729 4.9806333 -0.56892586
-3.5499067 5.4799113 -0.5712356
-3.9264801 6.0612187 -0.57139355
-4.4030819 6.7969379 -0.57306457
-4.9980707 7.7154093 -0.57376128
-5.7962894 8.9476013 -0.57648867
-6.8716021 10.607537 -0.57813323
-8.4473209 13.039939 -0.58135128
-10.967091 16.929651 -0.58693039
-15.597953 24.078207 -0.59617627
-27.053247 41.761486 -0.62035137
-1.1751325 1.7660526 -0.56839752
-1.2144988 1.8252145 -0.56795245
-1.2559073 1.8874456 -0.56725305
-1.2978413 1.950466 -0.5655455
-1.3579985 2.0408735 -0.57024127
-1.4013789 2.1060679 -0.56633729
-1.4669194 2.204566 -0.56975561
-1.5261519 2.2935836 -0.56884742
-1.5941119 2.3957176 -0.56928474
-1.6572577 2.4906166 -0.56604052
-1.7376578 2.6114461 -0.56654018
-1.8184236 2.7328255 -0.56474304
-1.9220148 2.8885078 -0.56726778
-2.0308635 3.0520916 -0.56815231
-2.1549876 3.238632 -0.5698117
-2.2867768 3.436692 -0.56965655
-2.4414735 3.6691782 -0.57090837
-2.6035645 3.9127777 -0.5691371
-2.8024302 4.2116437 -0.5699901
-3.0318344 4.5564046 -0.57062769
-3.301007 4.9609323 -0.57126886
-3.622159 5.4435768 -0.57204765
-4.0070567 6.0220218 -0.5723002
-4.503654 6.7683349 -0.57527864
-5.0951686 7.6572952 -0.57405537
-5.896616 8.8617535 -0.5755856
-7.0036225 10.525423 -0.57830775
-8.6086607 12.937561 -0.58146244
-11.171488 16.789116 -0.58677632
-15.912452 23.914093 -0.59691238
-27.624748 41.515965 -0.62170315
-1.1875508 1.737995 -0.56402445
-1.2306539 1.8010771 -0.5651077
-1.2709869 1.8601049 -0.56369054
-1.3165505 1.9267877 -0.56333131
-1.3813212 2.0215805 -0.56955338
-1.4284034 2.0904858 -0.56682742
-1.4842918 2.1722791 -0.56608552
-1.5524722 2.2720621 -0.56820136
-1.6150923 2.3637073 -0.56635469
-1.6973367 2.4840729 -0.56925368
-1.7716808 2.5928767 -0.56719494
-1.8647637 2.7291045 -0.56866968
-1.9589829 2.8669956 -0.56773078
-2.0623982 3.0183449 -0.56654835
-2.1954453 3.2130609 -0.57001936
-2.3175819 3.3918095 -0.56689787
-2.4833059 3.6343486 -0.57019717
-2.6532423 3.8830526 -0.56951588
-2.8555522 4.1791358 -0.57029963
-3.084553 4.5142808 -0.57005924
-3.3638287 4.9230042 -0.57162124
-3.6907017 5.4013872 -0.57233995
-4.0871801 5.981638 -0.57319522
-4.5718145 6.6909065 -0.57343239
-5.1931496 7.6002378 -0.57452172
-6.0139899 8.801548 -0.57643485
-7.1390867 10.44814 -0.57884109
-8.7686348 12.833004 -0.5815652
-11.392361 16.672859 -0.58756465
-16.23049 23.753519 -0.59784079
-28.187237 41.252365 -0.62289906
-1.2145468 1.7314109 -0.56669152
-1.247786 1.7787956 -0.56288826
-1.2980655 1.850472 -0.56556559
-1.3516709 1.9268897 -0.56817758
-1.4017546 1.9982872 -0.5678041
-1.4561694 2.0758586 -0.5676735
-1.5155159 2.1604609 -0.56781912
-1.5771817 2.2483692 -0.56708336
-1.6449801 2.3450198 -0.56668085
-1.7128987 2.4418423 -0.56436014
-1.801307 2.5678735 -0.56652796
-1.8937603 2.6996715 -0.56734598
-1.9913232 2.8387532 -0.56694418
-2.1104543 3.0085821 -0.56954384
-2.2261128 3.1734605 -0.56780726
-2.3661213 3.3730509 -0.56858248
-2.5159011 3.5865715 -0.56751209
-2.7005894 3.8498557 -0.56947446
-2.8975701 4.1306639 -0.56850415
-3.13976 4.4759202 -0.57004738
-3.4127667 4.865108 -0.56972837
-3.7559462 5.3543315 -0.57220441
-4.1504941 5.9167838 -0.57182789
-4.6524096 6.6322951 -0.57326883
-5.2914548 7.543293 -0.5750922
-6.1126509 8.7139587 -0.57557756
-7.2727122 10.367698 -0.5792951
-8.9388828 12.742925 -0.58242023
-11.608874 16.549162 -0.58819157
-16.539236 23.577694 -0.59848887
-28.746746 40.980247 -0.62408048
-1.2341205 1.7140921 -0.56594723
-1.2771955 1.7739197 -0.56627226
-1.3255339 1.8410578 -0.56762701
-1.3729951 1.9069777 -0.56724149
-1.4262242 1.9809085 -0.5678063
-1.4763638 2.0505481 -0.56567371
-1.5397854 2.1386356 -0.56701636
-1.6069938 2.2319825 -0.56789136
-1.6760443 2.3278883 -0.56747836
-1.7521523 2.4335959 -0.56739086
-1.8291707 2.5405681 -0.56542337
-1.9251004 2.6738067 -0.56684232
-2.0359945 2.8278296 -0.56971943
-2.1470957 2.9821396 -0.56949311
-2.2709646 3.1541836 -0.56931156
-2.4135399 3.3522091 -0.57002884
-2.5676827 3.5663006 -0.56925756
-2.7419183 3.8082995 -0.56827176
-2.9608471 4.1123738 -0.57095456
-3.1972487 4.4407158 -0.57052779
-3.4807663 4.8344989 -0.57111293
-3.8230658 5.3099246 -0.57243937
-4.2236333 5.8662801 -0.57192302
-4.7426996 6.5872207 -0.57437015
-5.3904562 7.4869013 -0.5758028
-6.231329 8.6548052 -0.57668787
-7.3934355 10.268875 -0.57880944
-9.1004362 12.639759 -0.58277547
-11.815243 16.410402 -0.58837909
-16.851568 23.405447 -0.59933114
-29.309948 40.709114 -0.62539274
-1.2541914 1.6975547 -0.5655362
-1.3084533 1.7709985 -0.57043266
-1.3441968 1.8193774 -0.56599599
-1.3935133 1.8861277 -0.56609374
-1.450042 1.9626396 -0.56763768
-1.5020025 2.0329683 -0.56587631
-1.566331 2.1200373 -0.56714898
-1.6339041 2.2114978 -0.56774831
-1.7044231 2.3069456 -0.56743932
-1.7813361 2.4110477 -0.56719786
-1.8676242 2.5278392 -0.5676586
-1.9608327 2.6539974 -0.56771141
-2.0616643 2.7904735 -0.567258
-2.1739447 2.9424458 -0.56697488
-2.3117516 3.128968 -0.569848
-2.4449148 3.3092048 -0.5677855
-2.6072462 3.5289214 -0.56836551
-2.7893853 3.7754476 -0.56844479
-3.0052664 4.0676436 -0.56983191
-3.251276 4.400619 -0.57046956
-3.5380795 4.7888093 -0.57081181
-3.8938394 5.2703319 -0.57328951
-4.3038974 5.8253479 -0.57304871
-4.8125 6.5137439 -0.57307994
-5.4841008 7.4227591 -0.57601249
-6.3461089 8.5894918 -0.57749188
-7.5204754 10.179003 -0.57891244
-9.2661953 12.541844 -0.58347034
-12.031503 16.284702 -0.58913213
-17.145905 23.207073 -0.5996049
-29.860758 40.416695 -0.62649393
-1.2747805 1.6817567 -0.56545264
-1.32152 1.7434179 -0.56674027
-1.3700093 1.8073876 -0.56746387
-1.4189593 1.8719648 -0.56703699
-1.4725299 1.942638 -0.56704688
-1.5246947 2.0114565 -0.56506443
-1.5901024 2.0977459 -0.56637353
-1.6637371 2.1948884 -0.5686934
-1.7334265 2.2868264 -0.56769055
-1.809427 2.3870902 -0.56675327
-1.9020221 2.5092466 -0.56869251
-1.9922098 2.6282268 -0.56739616
-2.1003261 2.7708595 -0.56847793
-2.2152252 2.9224405 -0.56832588
-2.3396063 3.0865304 -0.56731576
-2.4933648 3.2893765 -0.56960082
-2.656496 3.5045877 -0.56966436
-2.8350198 3.7401056 -0.56832939
-3.058428 4.0348377 -0.57046145
-3.3089068 4.3652821 -0.57112002
-3.6022303 4.7522497 -0.57169062
-3.9468417 5.2068791 -0.57162327
-4.370842 5.766242 -0.57247818
-4.907876 6.4747252 -0.5749132
-5.575973 7.3561134 -0.57611787
-6.4553165 8.5161896 -0.57785666
-7.6544943 10.098207 -0.57962656
-9.4271193 12.436747 -0.58392966
-12.247848 16.157999 -0.58995217
-17.448906 23.019505 -0.60025692
-30.419167 40.130547 -0.62780899
-1.3019705 1.6744543 -0.56833726
-1.3425441 1.7266358 -0.56660855
-1.3883084 1.7854929 -0.5659067
-1.4463358 1.8601215 -0.56879365
-1.4978091 1.9263209 -0.56761712
-1.5530124 1.9973174 -0.56641424
-1.6226308 2.0868533 -0.56877661
-1.6875367 2.1703281 -0.56766337
-1.7708523 2.2774796 -0.57073265
-1.8295463 2.3529656 -0.56394988
-1.9299865 2.4821408 -0.56788498
-2.023243 2.6020775 -0.56707895
-2.1409326 2.753437 -0.57026142
-2.2459452 2.8884928 -0.56705195
-2.3852949 3.0677097 -0.56920451
-2.5340803 3.2590616 -0.56970412
-2.6981595 3.4700823 -0.5694055
-2.8846307 3.7099016 -0.56908667
-3.109628 3.9992688 -0.5707956
-3.3600721 4.3213634 -0.57073647
-3.6515541 4.6962361 -0.57031065
-4.0161657 5.1651602 -0.57242155
-4.4501982 5.7233658 -0.57361084
-4.9788532 6.403265 -0.57396072
-5.6621828 7.2820902 -0.57572991
-6.56668 8.4453573 -0.57848567
-7.7861705 10.013734 -0.58022958
-9.5820656 12.323421 -0.58409685
-12.447932 16.009192 -0.59006304
-17.759089 22.839828 -0.60122055
-30.961746 39.819668 -0.62885404
-1.3058639 1.6375078 -0.56120473
-1.3591263 1.7042972 -0.56471956
-1.4053276 1.7622319 -0.5639686
-1.4643602 1.8362569 -0.5669595
-1.5210208 1.9073071 -0.56748265
-1.5821903 1.9840115 -0.56811517
-1.6493534 2.0682318 -0.56918597
-1.7135761 2.1487648 -0.56749171
-1.784443 2.2376294 -0.56620222
-1.8654531 2.3392134 -0.56610882
-1.9553244 2.4519088 -0.56642634
-2.0657079 2.5903258 -0.57001048
-2.1696744 2.7206962 -0.56896305
-2.2848251 2.8650911 -0.5679304
-2.4139736 3.0270388 -0.56712294
-2.5705991 3.2234418 -0.56896007
-2.7503707 3.4488692 -0.57143098
-2.9348052 3.6801436 -0.57001454
-3.1584003 3.9605241 -0.57076567
-3.4132035 4.2800384 -0.57077855
-3.717886 4.6620998 -0.57167375
-4.0851302 5.122611 -0.57322973
-4.5183811 5.6658926 -0.57337576
-5.0582156 6.3428264 -0.57407504
-5.7516651 7.212388 -0.57576722
-6.6610732 8.3527546 -0.57770944
-7.9102907 9.9192295 -0.58034581
-9.7287521 12.199517 -0.58385003
-12.653641 15.867226 -0.59052074
-18.056404 22.642103 -0.60181487
-31.51623 39.520256 -0.63019812
-1.334591 1.6319563 -0.56488371
-1.3852726 1.6939305 -0.56688595
-1.4341503 1.7536987 -0.56683856
-1.4867057 1.8179641 -0.56691307
-1.5491267 1.8942935 -0.56923532
-1.6052772 1.9629551 -0.56769508
-1.6705396 2.0427587 -0.56778598
-1.7346848 2.1211965 -0.56580156
-1.8188682 2.2241371 -0.5684045
-1.8996826 2.3229582 -0.56778514
-1.9940593 2.4383633 -0.56891853
-2.0853212 2.5499594 -0.56672752
-2.2084324 2.7005014 -0.57037568
-2.3232889 2.8409498 -0.56876493
-2.4565494 3.0039024 -0.56840461
-2.6214042 3.2054892 -0.5714376
-2.794132 3.416703 -0.57175088
-2.9904706 3.6567886 -0.5720495
-3.2085605 3.9234719 -0.57106858
-3.467448 4.2400432 -0.57108772
-3.7734609 4.6142397 -0.5714516
-4.1487384 5.0731344 -0.57335848
-4.5918479 5.6149745 -0.57389361
-5.140976 6.2864561 -0.57465118
-5.8417659 7.1433916 -0.57595015
-6.7791076 8.2895861 -0.5790621
-8.0299168 9.8190928 -0.58022022
-9.8882599 12.0915 -0.58445549
-12.852154 15.715791 -0.59072179
-18.350885 22.439714 -0.60238761
-32.061352 39.205063 -0.63141096
-1.3611083 1.6232377 -0.56761622
-1.3978071 1.6670041 -0.56358433
-1.4588144 1.7397604 -0.56808853
-1.50471 1.7944949 -0.56532156
-1.5649701 1.8663602 -0.56658119
-1.6277007 1.9411718 -0.56714082
-1.6870301 2.0119271 -0.5649395
-1.7626154 2.1020691 -0.56643796
-1.83639 2.1900516 -0.56542164
-1.9340929 2.3065705 -0.56954962
-2.0151205 2.403203 -0.56645352
-2.1248543 2.5340698 -0.56896001
-2.2317903 2.6616004 -0.5679127
-2.3631139 2.8182147 -0.56998765
-2.4965246 2.9773183 -0.56914014
-2.6630685 3.1759362 -0.57196367
-2.8360581 3.382241 -0.57177651
-3.0245421 3.6070242 -0.57003951
-3.2540593 3.8807433 -0.57063025
-3.5274575 4.2067938 -0.57240832
-3.8331318 4.5713363 -0.57193226
-4.2106037 5.0215039 -0.57333153
-4.6611681 5.5588403 -0.57397097
-5.2155471 6.2199841 -0.57439393
-5.9418521 7.086165 -0.57718343
-6.8695817 8.1925621 -0.57814157
-8.157342 9.7283258 -0.58074003
-10.044732 11.979198 -0.58495331
-13.0548 15.568962 -0.59119201
-18.645855 22.236771 -0.60304892
-32.602104 38.880787 -0.63259703
-1.3730593 1.5971843 -0.56436712
-1.4224961 1.6546907 -0.5652923
-1.48434 1.7266294 -0.56971765
-1.5252377 1.7742029 -0.56479472
-1.5799724 1.837872 -0.56378818
-1.6454611 1.9140505 -0.56508565
-1.7216086 2.0026276 -0.56822962
-1.7877704 2.0795889 -0.56626129
-1.8636513 2.167856 -0.56556499
-1.9641979 2.2848148 -0.5700984
-2.0567269 2.3924475 -0.56983644
-2.1596119 2.5121264 -0.56995249
-2.2719047 2.6427488 -0.56980807
-2.3862972 2.7758138 -0.56730384
-2.5405707 2.9552693 -0.57085389
-2.6863892 3.1248896 -0.56867653
-2.8646922 3.3322971 -0.56924534
-3.0768456 3.5790806 -0.57155937
-3.3056779 3.8452652 -0.5713473
-3.5651615 4.1471043 -0.57020849
-3.8944254 4.5301142 -0.57272297
-4.2741661 4.9718404 -0.57361859
-4.7241774 5.495307 -0.57336563
-5.3066392 6.1728444 -0.5760231
-6.0191221 7.0016265 -0.57628262
-6.9811954 8.120739 -0.57908726
-8.2790966 9.630497 -0.58093339
-10.205619 11.871487 -0.58577728
-13.255685 15.419416 -0.59165812
-18.936668 22.02771 -0.6036486
-33.136543 38.545433 -0.63372236
-1.3943558 1.5821805 -0.56508124
-1.4455737 1.6402977 -0.566405
-1.4903138 1.6910644 -0.56398672
-1.5521048 1.761179 -0.56668144
-1.6123528 1.8295426 -0.56727207
-1.6809026 1.9073262 -0.56915963
-1.7438252 1.9787247 -0.56748873
-1.8199295 2.0650804 -0.56836134
-1.8946856 2.1499066 -0.56691754
-1.9835043 2.2506895 -0.56762636
-2.0773695 2.3571987 -0.56748211
-2.1842926 2.4785247 -0.56837976
-2.303932 2.6142797 -0.56973511
-2.4306993 2.7581234 -0.56975383
-2.5714719 2.9178584 -0.56969225
-2.7300487 3.097796 -0.56981206
-2.9130054 3.3053977 -0.57072598
-3.1159329 3.5356603 -0.57070094
-3.3482459 3.7992666 -0.57058692
-3.6197751 4.1073718 -0.57082224
-3.9534845 4.486033 -0.57325268
-4.3300791 4.9133563 -0.57297081
-4.803237 5.4502506 -0.57478356
-5.3698587 6.0931983 -0.57470906
-6.1142988 6.9379172 -0.57718343
-7.0768895 8.0301723 -0.57879061
-8.3998232 9.5313101 -0.58113682
-10.348203 11.742143 -0.58562946
-13.462282 15.2757 -0.59245068
-19.232023 21.822645 -0.60446399
-33.661495 38.19582 -0.63473159
-1.4152108 1.5665845 -0.56568354
-1.4724289 1.6299226 -0.56903142
-1.5226313 1.6854948 -0.56833059
-1.5826125 1.7518916 -0.56991172
-1.6323036 1.8068978 -0.5664314
-1.6905099 1.8713299 -0.56457847
-1.7581837 1.9462423 -0.56433064
-1.8403744 2.0372241 -0.56688011
-1.926074 2.1320903 -0.56842184
-2.017108 2.2328615 -0.56934255
-2.1130497 2.3390656 -0.5693289
-2.217689 2.4548972 -0.56917197
-2.3358912 2.5857425 -0.56973255
-2.4619837 2.725322 -0.56918865
-2.6002693 2.8783989 -0.56818783
-2.7566695 3.051528 -0.56749368
-2.9418521 3.2565181 -0.56848925
-3.1523464 3.4895272 -0.5694682
-3.395823 3.7590466 -0.57077456
-3.6702633 4.0628414 -0.57086265
-4.0099878 4.4389033 -0.57348776
-4.3911371 4.8608212 -0.57309777
-4.8573122 5.3768597 -0.57329929
-5.4479456 6.0306683 -0.5750863
-6.187449 6.8492699 -0.57609469
-7.1786642 7.9465075 -0.57907897
-8.5220156 9.4335461 -0.58152133
-10.498576 11.621524 -0.58600795
-13.656663 15.117405 -0.59277946
-19.519409 21.607241 -0.60510004
-34.199772 37.857845 -0.63605547
-1.4307745 1.5451866 -0.5642671
-1.4911578 1.6103985 -0.56857365
-1.5410303 1.6642591 -0.56751668
-1.599305 1.7271938 -0.56823176
-1.6543474 1.7866375 -0.56641442
-1.7228692 1.8606387 -0.56770158
-1.7942266 1.9377023 -0.56820869
-1.8638306 2.0128722 -0.56643838
-1.9468585 2.1025395 -0.56688291
-2.0284665 2.1906731 -0.56490254
-2.132067 2.3025582 -0.56678134
-2.2454166 2.4249718 -0.56859237
-2.3587842 2.547405 -0.56763327
-2.4969885 2.6966608 -0.56957221
-2.6476862 2.8594091 -0.57082283
-2.7934775 3.0168586 -0.56739134
-2.9837823 3.2223811 -0.56889194
-3.1966519 3.4522729 -0.5697602
-3.447753 3.7234533 -0.57176411
-3.7185433 4.0158973 -0.57064819
-4.0581369 4.382647 -0.57262331
-4.4422379 4.7974625 -0.57202464
-4.9228702 5.3165288 -0.57327765
-5.5327783 5.9752083 -0.57624173
-6.2811766 6.783452 -0.57701147
-7.2792854 7.8613749 -0.57935411
-8.642993 9.3341312 -0.58190048
-10.638562 11.489277 -0.58589154
-13.848317 14.955701 -0.59307116
-19.803782 21.387394 -0.60571712
-34.720798 37.497253 -0.63712209
-1.4586701 1.536966 -0.56777221
-1.5024096 1.5830531 -0.56539887
-1.5608431 1.6446232 -0.56732273
-1.6184779 1.7053517 -0.56755042
-1.6866018 1.777132 -0.5699327
-1.73771 1.8309836 -0.56513029
-1.8156652 1.9131231 -0.56750518
-1.8931618 1.9947793 -0.56785494
-1.9784644 2.0846608 -0.56857884
-2.0543015 2.1645687 -0.56464225
-2.1794591 2.2964442 -0.57182992
-2.2740469 2.3961089 -0.56833827
-2.4001005 2.5289285 -0.57004941
-2.5356448 2.6717484 -0.57085282
-2.6885355 2.8328457 -0.57207644
-2.8443344 2.9970074 -0.57019269
-3.0381718 3.2012491 -0.57171351
-3.2479849 3.4223242 -0.57136577
-3.4843886 3.6714172 -0.57030976
-3.7848876 3.9880457 -0.57326055
-4.1054583 4.3258233 -0.57175165
-4.5131431 4.7553911 -0.57358193
-4.9920754 5.2600307 -0.57376122
-5.6007342 5.90136 -0.5757181
-6.3759909 6.7182298 -0.57808888
-7.3753166 7.7711954 -0.57934797
-8.7480745 9.2176371 -0.5813002
-10.787697 11.366739 -0.5863629
-14.047917 14.801956 -0.5937795
-20.077686 21.15538 -0.60609245
-35.244087 37.135857 -0.6382969
-1.4831516 1.5247682 -0.5699603
-1.5182153 1.5608158 -0.56408167
-1.5813563 1.6257286 -0.56746972
-1.6388052 1.6847894 -0.56737083
-1.6957936 1.743377 -0.56575197
-1.7767169 1.826571 -0.57046837
-1.8358848 1.8873991 -0.5665282
-1.9157521 1.9695075 -0.56732386
-1.9959292 2.0519342 -0.56630397
-2.0979464 2.1568141 -0.56930578
-2.1949627 2.2565527 -0.56857449
-2.298305 2.3627946 -0.56709683
-2.4322708 2.5005193 -0.57034421
-2.5623007 2.634198 -0.56951857
-2.7046597 2.7805514 -0.56818914
-2.8672364 2.94769 -0.56747472
-3.0700076 3.1561508 -0.57035804
-3.2885337 3.3808086 -0.57114261
-3.5414774 3.6408501 -0.57228285
-3.82303 3.9303029 -0.57167447
-4.1723666 4.2894416 -0.5736807
-4.5741658 4.7025156 -0.57394511
-5.0686479 5.2108722 -0.57515407
-5.6766171 5.8359013 -0.57609826
-6.4459724 6.6268439 -0.57700211
-7.4706111 7.680234 -0.57937127
-8.8747463 9.1237688 -0.58221847
-10.924901 11.23145 -0.5862695
-14.222745 14.62183 -0.59352458
-20.353998 20.925125 -0.60662037
-35.760681 36.764114 -0.63941711
-1.4943948 1.4990015 -0.56715465
-1.5497739 1.5545514 -0.56866181
-1.597881 1.6028067 -0.56628424
-1.6627357 1.6678615 -0.56851256
-1.72833 1.733658 -0.56945163
-1.7981347 1.8036778 -0.57018083
-1.853272 1.8589849 -0.56479692
-1.9511253 1.95714 -0.57062924
-2.032614 2.0388801 -0.56955612
-2.1168818 2.1234074 -0.56731582
-2.225842 2.2327037 -0.56941855
-2.3292539 2.3364341 -0.56760144
-2.463717 2.4713118 -0.57054913
-2.5925725 2.6005645 -0.56909633
-2.7526512 2.7611368 -0.57109535
-2.9060483 2.9150066 -0.56801915
-3.1143806 3.1239812 -0.57142198
-3.3201861 3.3304212 -0.56948435
-3.5842772 3.5953262 -0.57201177
-3.87866 3.8906167 -0.57279593
-4.2148046 4.2277975 -0.57232451
-4.6183181 4.632555 -0.57229424
-5.1253567 5.1411567 -0.57437205
-5.7453141 5.7630253 -0.57583469
-6.5407367 6.5608997 -0.57821953
-7.5589113 7.5822129 -0.57894486
-8.9962368 9.0239697 -0.58286506
-11.092036 11.12623 -0.58785224
-14.424501 14.468967 -0.59447443
-20.641058 20.704687 -0.60754198
-36.288555 36.400421 -0.64080405
-1.5106565 1.4785012 -0.56638372
-1.5673356 1.5339739 -0.56814158
-1.6168665 1.5824504 -0.56607378
-1.6704444 1.6348879 -0.56423193
-1.7404931 1.7034456 -0.56651485
-1.800388 1.7620656 -0.56398219
-1.8831283 1.8430448 -0.56694633
-1.9697249 1.9277982 -0.56909305
-2.0632362 2.0193191 -0.57113582
-2.1478448 2.1021266 -0.56864345
-2.2451563 2.1973667 -0.56740439
-2.3605678 2.3103216 -0.56826639
-2.4840336 2.4311595 -0.56828809
-2.6203816 2.564605 -0.56823534
-2.7781909 2.7190554 -0.56941432
-2.9496706 2.8868849 -0.56956398
-3.146903 3.0799193 -0.57039726
-3.371887 3.3001142 -0.57134867
-3.6227083 3.5455966 -0.57114393
-3.924293 3.8407621 -0.5725171
-4.2697468 4.1788626 -0.57276428
-4.6828294 4.5831523 -0.57326138
-5.1876512 5.0772285 -0.57431316
-5.8158975 5.6921029 -0.57585037
-6.6097889 6.4690957 -0.5772481
-7.6666713 7.5034814 -0.58008766
-9.1118469 8.9178953 -0.58320659
-11.220882 10.982039 -0.58747953
-14.615083 14.303992 -0.59503502
-20.918447 20.473185 -0.60825068
-36.786678 36.003651 -0.64173394
-1.5277412 1.4588792 -0.56602055
-1.5810952 1.5098284 -0.56635666
-1.6453012 1.5711403 -0.56922203
-1.6927189 1.6164206 -0.56499928
-1.7627434 1.6832888 -0.56697708
-1.8359259 1.7531728 -0.56831855
-1.8964784 1.8109958 -0.56421852
-1.9810681 1.8917727 -0.56560671
-2.0701911 1.9768786 -0.56628925
-2.1748409 2.0768113 -0.56898659
-2.2829854 2.1800814 -0.5701468
-2.3916292 2.283828 -0.5689404
-2.5180008 2.4045036 -0.56925172
-2.6607835 2.5408504 -0.57017827
-2.8053956 2.6789441 -0.56819552
-2.9894512 2.8547037 -0.57042408
-3.1968329 3.0527377 -0.57260013
-3.405205 3.2517176 -0.57017595
-3.6577718 3.4929001 -0.56985748
-3.9619286 3.7833471 -0.57117754
-4.3250217 4.130074 -0.57332313
-4.7368331 4.5233235 -0.57302016
-5.2526579 5.0158978 -0.57463831
-5.8919196 5.6263452 -0.57648385
-6.701107 6.3990588 -0.57830757
-7.7558217 7.4062328 -0.57989854
-9.2260818 8.8102217 -0.58354008
-11.357981 10.846027 -0.58763045
-14.793915 14.127089 -0.59519839
-21.173695 20.219305 -0.60839725
-37.293385 35.612408 -0.64288551
-1.5510821 1.4451263 -0.56804168
-1.6090083 1.4990956 -0.56970924
-1.6650424 1.5513018 -0.56940931
-1.7167878 1.5995125 -0.56642532
-1.7831513 1.6613426 -0.56692761
-1.8564779 1.7296602 -0.56805372
-1.9218048 1.7905245 -0.56516033
-2.019824 1.8818481 -0.57002205
-2.101573 1.9580126 -0.56824458
-2.1956105 2.0456264 -0.56779665
-2.296859 2.1399584 -0.56699711
-2.425374 2.2596946 -0.57031476
-2.5452986 2.3714268 -0.56878763
-2.6934688 2.5094755 -0.57052678
-2.8513155 2.6565394 -0.57083672
-3.014627 2.8086951 -0.56859487
-3.2249546 3.0046549 -0.57097626
-3.4605508 3.2241573 -0.57276148
-3.7050009 3.4519088 -0.57055944
-4.0166335 3.7422535 -0.5723868
-4.3661284 4.067874 -0.57209826
-4.7948427 4.4673028 -0.57334906
-5.3273411 4.9634252 -0.57608813
-5.9621158 5.5548382 -0.57662529
-6.7771897 6.3142333 -0.57812923
-7.8528881 7.3164501 -0.58038557
-9.3374519 8.6996021 -0.58377397
-11.499702 10.714148 -0.5881021
-14.971412 13.948701 -0.59539384
-21.449503 19.984266 -0.60921526
-37.796913 35.21497 -0.64405227
-1.5680614 1.4253347 -0.56779826
-1.6196976 1.4722708 -0.56704104
-1.6744428 1.5220331 -0.56618088
-1.736481 1.5784246 -0.56647623
-1.8090861 1.6444211 -0.56870133
-1.8876214 1.715808 -0.57108426
-1.9503617 1.7728376 -0.56710464
-2.0367072 1.8513237 -0.56831914
-2.129225 1.9354206 -0.56924337
-2.2142873 2.0127404 -0.56618339
-2.3416817 2.1285391 -0.57155758
-2.4473047 2.2245483 -0.56899643
-2.5799377 2.345109 -0.57004124
-2.7188175 2.4713476 -0.56941611
-2.8785849 2.6165729 -0.56981164
-3.0571916 2.7789228 -0.57013494
-3.2651556 2.9679575 -0.57158917
-3.4898009 3.1721554 -0.57110357
-3.7578328 3.4157908 -0.57218397
-4.0659227 3.695838 -0.57289124
-4.4386926 4.034678 -0.57506222
-4.8544626 4.4126039 -0.57394665
-5.388772 4.8982801 -0.57617426
-6.0248909 5.4764986 -0.57614011
-6.8602381 6.2358117 -0.57862884
-7.9464879 7.2231898 -0.58069491
-9.4438448 8.5842552 -0.5837822
-11.643519 10.583714 -0.58875686
-15.150699 13.771666 -0.59574431
-21.721104 19.744024 -0.60998768
-38.276085 34.792152 -0.64487857
-1.5865833 1.4069357 -0.56819761
-1.6402127 1.4544927 -0.56791884
-1.7007158 1.5081451 -0.56875104
-1.764275 1.5645075 -0.56922436
-1.8209343 1.6147513 -0.56614131
-1.8980488 1.6831342 -0.56793439
-1.974931 1.7513111 -0.56794399
-2.068866 1.83461 -0.57095468
-2.1539493 1.9100592 -0.56953108
-2.2451096 1.9908975 -0.56776184
-2.3583026 2.0912738 -0.56929481
-2.4747782 2.1945608 -0.56906688
-2.6003687 2.3059311 -0.5682475
-2.7524538 2.4407957 -0.57013184
-2.914351 2.5843613 -0.57055783
-3.0891132 2.7393353 -0.56976318
-3.3009534 2.9271891 -0.57151157
-3.5405786 3.1396816 -0.57305199
-3.7985191 3.3684158 -0.57202905
-4.1068587 3.6418424 -0.5723061
-4.4813056 3.9738908 -0.57420886
-4.9098721 4.3539314 -0.57412452
-5.4445314 4.8280516 -0.57574487
-6.1011858 5.4103537 -0.57703042
-6.9299059 6.1452379 -0.57808781
-8.0295067 7.1203318 -0.58031952
-9.5447512 8.4640064 -0.58354205
-11.78271 10.448564 -0.5892539
-15.331782 13.595777 -0.59624588
-21.969893 19.48226 -0.61020064
-38.770542 34.380581 -0.64603764
-1.602145 1.3859223 -0.56762463
-1.6580026 1.4342414 -0.56792915
-1.7258986 1.4929744 -0.57099009
-1.782544 1.541975 -0.56895816
-1.8520638 1.6021125 -0.56965166
-1.9223723 1.6629324 -0.56905097
-1.9958051 1.7264549 -0.56779897
-2.0654979 1.786742 -0.56391919
-2.1712708 1.8782399 -0.56796139
-2.2704365 1.9640224 -0.56801647
-2.3841975 2.0624304 -0.56938076
-2.5014422 2.163852 -0.56903684
-2.6401992 2.2838826 -0.57077134
-2.774106 2.3997176 -0.56846166
-2.9328754 2.5370598 -0.56803393
-3.1390085 2.7153735 -0.57276422
-3.3353846 2.885247 -0.5712871
-3.5718095 3.0897646 -0.57191426
-3.8374743 3.3195755 -0.57170516
-4.1347313 3.576715 -0.57001817
-4.5307145 3.9192572 -0.57432121
-4.967905 4.2974453 -0.5746879
-5.4956746 4.7539883 -0.57492799
-6.1592507 5.3280091 -0.57628214
-7.0035267 6.0583434 -0.5779711
-8.1123896 7.0175557 -0.58002937
-9.6651363 8.3607464 -0.58457249
-11.907901 10.300831 -0.58913571
-15.512481 13.418944 -0.59681112
-22.244617 19.242523 -0.61121291
-39.25663 33.958626 -0.64713049
-1.6170146 1.3643887 -0.56690598
-1.6753534 1.4136132 -0.56787539
-1.7449044 1.4722983 -0.57124525
-1.8044813 1.5225674 -0.56994122
-1.8574698 1.5672776 -0.5653441
-1.9484264 1.644024 -0.57073605
-2.0129206 1.6984423 -0.56668371
-2.1039207 1.7752255 -0.56840658
-2.2080798 1.8631119 -0.57155401
-2.3005345 1.9411223 -0.56953174
-2.4020207 2.0267534 -0.56764257
-2.5179589 2.1245785 -0.56680828
-2.6700397 2.2528996 -0.5711903
-2.8030913 2.3651648 -0.56839859
-2.9848189 2.5185013 -0.57205307
-3.1605291 2.6667602 -0.57066447
-3.3726134 2.8457105 -0.57162696
-3.6055071 3.0422192 -0.57127684
-3.8834291 3.2767215 -0.57250547
-4.1990886 3.5430655 -0.57284105
-4.5752249 3.8604381 -0.57390273
-5.0189323 4.2348256 -0.57452351
-5.5680928 4.6981902 -0.57641667
-6.2247419 5.2522511 -0.57632345
-7.0930748 5.9849248 -0.57924396
-8.2130919 6.9299617 -0.58109283
-9.7672358 8.2413015 -0.58457428
-12.047155 10.16503 -0.58979666
-15.684916 13.234464 -0.59713906
-22.499523 18.984426 -0.61175644
-39.736477 33.52845 -0.64819521
-1.6380879 1.3480406 -0.5684396
-1.6923404 1.3926868 -0.56778562
-1.7535641 1.4430701 -0.56822807
-1.8143532 1.4930954 -0.56721747
-1.8983122 1.5621883 -0.57188511
-1.9538138 1.6078626 -0.56647998
-2.0274353 1.6684483 -0.56495148
-2.118717 1.7435671 -0.56656891
-2.206573 1.8158671 -0.56534153
-2.3179755 1.907544 -0.56799966
-2.4190688 1.9907373 -0.5658437
-2.5504262 2.0988359 -0.56826431
-2.6903253 2.213964 -0.56966293
-2.8447051 2.3410084 -0.57095659
-3.0154097 2.4814873 -0.57202458
-3.1753986 2.6131477 -0.56750453
-3.4142637 2.8097184 -0.57278717
-3.647289 3.0014832 -0.57200593
-3.9235611 3.2288373 -0.57252538
-4.2511754 3.4984426 -0.57403475
-4.6190948 3.8012166 -0.57349914
-5.0753083 4.1766505 -0.57505435
-5.6143403 4.6202393 -0.57527953
-6.2991629 5.183804 -0.57726854
-7.1609459 5.8929958 -0.57882518
-8.3099937 6.8385878 -0.58195525
-9.8748913 8.1263981 -0.58499271
-12.158152 10.005373 -0.58916295
-15.841071 13.036178 -0.59693617
-22.741074 18.714434 -0.61202091
-40.206062 33.08699 -0.6491695
-1.6489599 1.3233202 -0.56652284
-1.7008399 1.3649548 -0.56496346
-1.771418 1.4215949 -0.56830603
-1.831324 1.4696707 -0.56683046
-1.900692 1.5253397 -0.56690866
-1.9781233 1.5874797 -0.56782556
-2.0586402 1.6520959 -0.56794304
-2.1456707 1.7219394 -0.5680716
-2.2374656 1.7956067 -0.56755656
-2.3520949 1.8875988 -0.57062966
-2.4514003 1.967293 -0.56770498
-2.5841091 2.0737941 -0.5700444
-2.7167351 2.1802292 -0.56953537
-2.8714347 2.3043783 -0.57059109
-3.0341179 2.4349346 -0.56985068
-3.2302074 2.5922999 -0.57155985
-3.4432704 2.7632868 -0.57190984
-3.6872764 2.959106 -0.57252735
-3.9688849 3.185102 -0.57338065
-4.290102 3.4428842 -0.57353109
-4.6639524 3.7429061 -0.57331091
-5.1240702 4.1121588 -0.57480663
-5.6801181 4.5583973 -0.57623249
-6.3598733 5.1039133 -0.57703704
-7.2387815 5.8092527 -0.57929891
-8.3824453 6.7270637 -0.58119226
-9.9697933 8.0009394 -0.58474225
-12.301242 9.8719692 -0.59016985
-16.01367 12.85126 -0.59744018
-23.000378 18.458218 -0.61284471
-40.682598 32.648521 -0.65033251
-1.6673075 1.3046677 -0.56727183
-1.7199798 1.3458838 -0.56578106
-1.7858404 1.3974197 -0.56737739
-1.8549255 1.4514788 -0.56856829
-1.9191259 1.5017157 -0.56685632
-1.9976741 1.5631796 -0.56787717
-2.0844672 1.6310952 -0.56949192
-2.1682224 1.6966336 -0.56847584
-2.2606535 1.768961 -0.56787789
