# .PCD v0.7 - Point Cloud Data file format
VERSION 0.7
FIELDS x y z
SIZE 4 4 4
TYPE F F F
COUNT 1 1 1
WIDTH 1416
HEIGHT 1
VIEWPOINT 0 0 0 1 0 0 0
POINTS 1416
DATA ascii
-1.7084873 -1.4779128 -0.56522977
-1.7703911 -1.5314623 -0.56507915
-1.8398275 -1.5915277 -0.56588811
-1.9277928 -1.6676213 -0.57065552
-1.993093 -1.7241087 -0.56702733
-2.0846264 -1.8032889 -0.56914163
-2.1693118 -1.8765453 -0.56744897
-2.2663987 -1.9605294 -0.56700623
-2.3785901 -2.05758 -0.56804162
-2.5160677 -2.1765037 -0.57236391
-2.6193652 -2.2658603 -0.56626731
-2.7734811 -2.3991771 -0.56833363
-2.9341838 -2.5381916 -0.56828731
-3.1273413 -2.7052808 -0.57063532
-3.3354316 -2.8852875 -0.57129514
-3.5547991 -3.0750496 -0.56919056
-3.8275473 -3.3109882 -0.57022619
-4.1374388 -3.5790575 -0.57039148
-4.5184703 -3.9086657 -0.57276911
-4.9677558 -4.2973161 -0.57467061
-5.4949527 -4.7533636 -0.57485247
-6.1398787 -5.3112516 -0.57446969
-7.0008178 -6.0559998 -0.57774752
-8.1142998 -7.019208 -0.58016592
-9.6492739 -8.3470249 -0.5836131
-11.88346 -10.27969 -0.58792651
-15.462797 -13.375965 -0.59489959
-22.159922 -19.169258 -0.60888577
-39.017559 -33.75182 -0.64318949
-1.587675 -1.4079038 -0.56858861
-1.6359257 -1.450691 -0.56643444
-1.7008926 -1.5083019 -0.56881016
-1.7612281 -1.5618056 -0.5682413
-1.8311967 -1.6238518 -0.56933194
-1.9087667 -1.6926385 -0.57114142
-1.9727058 -1.7493379 -0.56730407
-2.0656221 -1.8317333 -0.57005942
-2.1583691 -1.9139787 -0.57069981
-2.2536891 -1.9985056 -0.56993151
-2.3615029 -2.0941117 -0.57006735
-2.4721124 -2.1921971 -0.56845391
-2.6026311 -2.3079371 -0.56874186
-2.7447128 -2.4339311 -0.56852841
-2.9146092 -2.5845902 -0.57060838
-3.0928717 -2.7426682 -0.57045633
-3.2987697 -2.9252524 -0.57113349
-3.5347102 -3.1344779 -0.57210219
-3.7935705 -3.3640275 -0.57128382
-4.1052923 -3.6404536 -0.57208782
-4.4739337 -3.9673538 -0.5732643
-4.9148712 -4.3583646 -0.57470912
-5.4301634 -4.81531 -0.57422549
-6.1027026 -5.4116983 -0.57717389
-6.9190302 -6.1355939 -0.57718056
-8.0250816 -7.1164083 -0.57999974
-9.5430918 -8.4625349 -0.5834406
-11.740069 -10.41075 -0.58712149
-15.291364 -13.559935 -0.59467405
-21.897446 -19.418015 -0.60818845
-38.539436 -34.175648 -0.64218676
-1.5682125 -1.4254721 -0.56785303
-1.6172098 -1.4700096 -0.5661701
-1.6736219 -1.521287 -0.56590331
-1.7309945 -1.5734375 -0.56468642
-1.8074273 -1.6429132 -0.56817991
-1.8830721 -1.7116728 -0.56970787
-1.9660244 -1.7870747 -0.57165885
-2.0418286 -1.8559792 -0.56974828
-2.1267555 -1.9331759 -0.56858319
-2.2266927 -2.0240166 -0.56935537
-2.3333287 -2.1209464 -0.5695188
-2.4473913 -2.224627 -0.56901658
-2.5807986 -2.3458915 -0.5702315
-2.7070799 -2.4606783 -0.56695789
-2.8717031 -2.6103175 -0.56844938
-3.0487289 -2.7712305 -0.56855673
-3.2613716 -2.9645181 -0.57092673
-3.4927607 -3.1748457 -0.57158792
-3.7482653 -3.407094 -0.57072717
-4.0556021 -3.6864567 -0.57143706
-4.4230647 -4.0204725 -0.57303751
-4.8497748 -4.4083433 -0.57339245
-5.3820205 -4.8921432 -0.57545239
-6.0253863 -5.4769492 -0.57618749
-6.8486042 -6.2252364 -0.57764757
-7.9233475 -7.2021556 -0.57900393
-9.4324722 -8.5739183 -0.58307916
-11.624104 -10.566065 -0.58777511
-15.114696 -13.738939 -0.59432858
-21.644802 -19.674669 -0.60784495
-38.058418 -34.594299 -0.64121127
-1.5435331 -1.4380929 -0.56527704
-1.6131419 -1.5029466 -0.57117277
-1.6595916 -1.5462234 -0.56754524
-1.7121431 -1.595185 -0.56489283
-1.7913572 -1.6689879 -0.56953651
-1.8601612 -1.7330918 -0.56918073
-1.9335525 -1.8014697 -0.56861508
-2.0002444 -1.8636059 -0.56449634
-2.1094215 -1.9653249 -0.57036668
-2.2002892 -2.0499854 -0.56900656
-2.3051443 -2.1476779 -0.56904238
-2.4200652 -2.2547483 -0.56906641
-2.5431523 -2.3694272 -0.56830806
-2.6835146 -2.5002012 -0.56841832
-2.8453629 -2.6509936 -0.56964505
-3.0156462 -2.8096447 -0.5687871
-3.2125061 -2.9930568 -0.56877226
-3.4551327 -3.2191095 -0.57186472
-3.717602 -3.4636493 -0.57249999
-4.0105524 -3.7365878 -0.57152021
-4.3807907 -4.0815349 -0.57401949
-4.7976675 -4.469934 -0.57368684
-5.3165445 -4.9533663 -0.57492059
-5.9605646 -5.5533929 -0.57647526
-6.7720203 -6.3094177 -0.57768828
-7.838089 -7.3026619 -0.57929176
-9.3255816 -8.6885424 -0.58303189
-11.476246 -10.692293 -0.5869025
-14.936627 -13.916292 -0.59401053
-21.378189 -19.917826 -0.60718977
-37.554745 -34.989346 -0.63992578
-1.5218582 -1.4532615 -0.56384099
-1.5889292 -1.5173092 -0.56916285
-1.6351917 -1.5614864 -0.56572449
-1.7031336 -1.6263659 -0.56847554
-1.764317 -1.6847916 -0.56748325
-1.8316783 -1.7491165 -0.56700367
-1.9070557 -1.8210964 -0.56736541
-1.9932536 -1.903409 -0.56908572
-2.0693624 -1.9760872 -0.56606251
-2.1707554 -2.0729098 -0.56791776
-2.2783546 -2.1756592 -0.56899029
-2.3929183 -2.285059 -0.56924707
-2.513581 -2.4002829 -0.5682525
-2.653656 -2.5340443 -0.56865096
-2.8040342 -2.677644 -0.56791979
-2.9857111 -2.8511319 -0.56971043
-3.1787429 -3.0354631 -0.56935996
-3.4032066 -3.2498093 -0.56984133
-3.6646116 -3.4994316 -0.57092303
-3.9653068 -3.7865732 -0.57166457
-4.3303647 -4.1351762 -0.57403141
-4.734375 -4.5209761 -0.57272273
-5.2609415 -5.023808 -0.57554454
-5.8779588 -5.6130137 -0.57511783
-6.682497 -6.3812876 -0.57670152
-7.7407274 -7.391819 -0.57876992
-9.2144423 -8.7991066 -0.58280391
-11.338604 -10.827524 -0.58662796
-14.754534 -14.089482 -0.59361398
-21.12719 -20.174896 -0.60706103
-37.072201 -35.401196 -0.6390726
-1.5138227 -1.4816 -0.56757081
-1.5596465 -1.5264485 -0.56535435
-1.6200378 -1.5855544 -0.56718409
-1.6748751 -1.6392244 -0.56572855
-1.7429851 -1.7058846 -0.56732601
-1.8050508 -1.7666292 -0.56544286
-1.8774362 -1.8374738 -0.56523257
-1.9701284 -1.928193 -0.56920964
-2.0496075 -2.0059805 -0.5673632
-2.1428719 -2.0972595 -0.56732684
-2.2589002 -2.2108181 -0.57087785
-2.3534184 -2.3033245 -0.56654531
-2.4952009 -2.4420891 -0.57084286
-2.6200538 -2.5642843 -0.56816429
-2.7744272 -2.7153718 -0.56864291
-2.9552379 -2.8923337 -0.57063895
-3.1496031 -3.0825617 -0.57088667
-3.3702106 -3.2984736 -0.57106459
-3.6302168 -3.5529454 -0.57232773
-3.9158916 -3.8325396 -0.57129145
-4.2717423 -4.1808157 -0.57303196
-4.6866956 -4.586936 -0.5737347
-5.1937623 -5.08321 -0.5749898
-5.8114538 -5.6877532 -0.57541037
-6.6090703 -6.4683919 -0.57718533
-7.6594586 -7.4964223 -0.57954192
-9.1002464 -8.9065428 -0.5824641
-11.196157 -10.95784 -0.58618504
-14.570081 -14.259948 -0.59320283
-20.844944 -20.401245 -0.60611343
-36.57653 -35.797977 -0.63806796
-1.4838158 -1.48839 -0.56313974
-1.5398129 -1.5445596 -0.56500679
-1.6050295 -1.6099772 -0.56881762
-1.6581134 -1.6632248 -0.56693208
-1.7279686 -1.7332953 -0.56933254
-1.7986246 -1.8041693 -0.57033622
-1.8595805 -1.8653131 -0.56671953
-1.9472833 -1.9532862 -0.56950557
-2.0340228 -2.0402932 -0.56995088
-2.1239736 -2.1305211 -0.56921637
-2.219708 -2.2265506 -0.56784934
-2.326026 -2.3331964 -0.56681484
-2.4454355 -2.4529741 -0.56631547
-2.6043215 -2.61235 -0.57167536
-2.7476006 -2.7560706 -0.5700475
-2.9215691 -2.9305754 -0.57105285
-3.1135032 -3.123101 -0.57126099
-3.3313448 -3.3416145 -0.57139832
-3.5782592 -3.5892899 -0.57105136
-3.8712311 -3.8831649 -0.57169884
-4.2128181 -4.2258048 -0.5720548
-4.6329899 -4.6472716 -0.5741123
-5.1173382 -5.1331134 -0.57347345
-5.7339501 -5.7516265 -0.57469577
-6.5226998 -6.5428076 -0.57662499
-7.5629592 -7.5862732 -0.57925487
-8.9899998 -9.0177135 -0.582461
-11.056018 -11.0901 -0.58594334
-14.386805 -14.431154 -0.59292084
-20.56752 -20.630924 -0.6053775
-36.079262 -36.190479 -0.63710821
-1.4736389 -1.5149887 -0.56630462
-1.5253123 -1.568112 -0.56671852
-1.580682 -1.6250354 -0.56722772
-1.6405762 -1.6866102 -0.56798398
-1.6885017 -1.7358804 -0.56331921
-1.7656673 -1.8152113 -0.56692052
-1.8401482 -1.8917822 -0.56784379
-1.9154974 -1.9692456 -0.56724846
-2.0085859 -2.0649462 -0.56989509
-2.0980067 -2.1568761 -0.56932211
-2.1886306 -2.2500427 -0.56693417
-2.3030303 -2.3676524 -0.56826282
-2.4334195 -2.5017004 -0.57061356
-2.5536563 -2.6253109 -0.56759715
-2.7124624 -2.7885733 -0.56982839
-2.874851 -2.9555182 -0.56898183
-3.0672946 -3.1533618 -0.56985408
-3.290108 -3.3824272 -0.57141602
-3.544708 -3.6441712 -0.57280493
-3.8265727 -3.9339449 -0.57220423
-4.167254 -4.2841859 -0.57297778
-4.5653358 -4.6934371 -0.57283711
-5.0610766 -5.2030888 -0.57429498
-5.6660542 -5.8250413 -0.57502621
-6.4448576 -6.6256976 -0.57690233
-7.4710546 -7.6806893 -0.57940567
-8.8658066 -9.1145782 -0.58163202
-10.916098 -11.2224 -0.58579707
-14.200974 -14.599447 -0.59261602
-20.307718 -20.877544 -0.605241
-35.566589 -36.564571 -0.63594663
-1.4609749 -1.5393944 -0.56866932
-1.5086523 -1.589631 -0.56774819
-1.5629138 -1.646805 -0.56807536
-1.6142461 -1.7008927 -0.56606644
-1.6793107 -1.7694496 -0.56746894
-1.7431681 -1.8367347 -0.56690532
-1.8128422 -1.9101486 -0.56662279
-1.8908396 -1.9923326 -0.5671584
-1.9762003 -2.0822752 -0.56792819
-2.060087 -2.1706645 -0.56623238
-2.1573191 -2.2731159 -0.56602103
-2.2846956 -2.4073293 -0.57099968
-2.3859012 -2.513967 -0.56667691
-2.5231886 -2.6586237 -0.56804854
-2.6776426 -2.821368 -0.56975859
-2.8424683 -2.9950409 -0.56981862
-3.0312541 -3.1939602 -0.57041174
-3.2291429 -3.4024711 -0.56805122
-3.4909325 -3.6783123 -0.57138085
-3.7733514 -3.9758904 -0.5715133
-4.1054711 -4.3258371 -0.57175344
-4.5190926 -4.7616601 -0.57433808
-4.9895325 -5.2573514 -0.57346892
-5.5990567 -5.8995929 -0.57554567
-6.3604259 -6.701829 -0.57667768
-7.3709211 -7.7665639 -0.57900268
-8.7481441 -9.2177114 -0.58130485
-10.776032 -11.354448 -0.58572888
-14.006089 -14.757882 -0.59201145
-20.018358 -21.092867 -0.60430145
-35.063465 -36.945538 -0.63502568
-1.4400682 -1.5552236 -0.56793237
-1.4883015 -1.6073139 -0.56748456
-1.5439126 -1.6673719 -0.56857812
-1.5912941 -1.7185421 -0.56538546
-1.6560711 -1.7884991 -0.56700456
-1.7172058 -1.8545225 -0.56583548
-1.7867178 -1.9295931 -0.56583077
-1.8677145 -2.0170667 -0.56761879
-1.9454041 -2.1009688 -0.56645942
-2.0413527 -2.2045898 -0.56849122
-2.1420181 -2.3133049 -0.56942666
-2.2422216 -2.4215214 -0.5677833
-2.3659253 -2.5551169 -0.56935173
-2.4981182 -2.6978807 -0.56982994
-2.6422384 -2.8535254 -0.56964833
-2.7996228 -3.0234952 -0.56863952
-2.9856896 -3.2244411 -0.56925559
-3.2062519 -3.4626403 -0.57147127
-3.4441066 -3.7195153 -0.57115942
-3.7262409 -4.0242105 -0.57182944
-4.0578184 -4.3823028 -0.57257837
-4.4510307 -4.8069582 -0.57315689
-4.9198003 -5.3132133 -0.57292014
-5.5209241 -5.9624057 -0.57500714
-6.2868962 -6.789629 -0.57753694
-7.2610245 -7.8416538 -0.57790077
-8.6357584 -9.3263187 -0.58141339
-10.628614 -11.478534 -0.58534366
-13.804345 -14.908213 -0.59118801
-19.740751 -21.319324 -0.60378927
-34.554848 -37.318031 -0.63407689
-1.4193846 -1.5712047 -0.56735182
-1.4726723 -1.6301922 -0.56912547
-1.5155989 -1.6777102 -0.56570566
-1.5754209 -1.7439308 -0.56732196
-1.6303173 -1.8046991 -0.56574214
-1.7021914 -1.8842609 -0.56847972
-1.7730025 -1.9626462 -0.56908709
-1.8375598 -2.0341086 -0.56601316
-1.9204729 -2.1258903 -0.56676883
-2.0068212 -2.2214744 -0.56643897
-2.0987759 -2.3232648 -0.56548297
-2.2196782 -2.4570992 -0.56968248
-2.323209 -2.5717039 -0.5666393
-2.4656742 -2.7294073 -0.57004189
-2.6018081 -2.8801022 -0.56852406
-2.7728887 -3.0694818 -0.57083255
-2.9460692 -3.2611864 -0.56930417
-3.1631007 -3.5014319 -0.57141101
-3.4027402 -3.7667038 -0.57193726
-3.6768353 -4.0701165 -0.57188481
-3.9947169 -4.4219995 -0.57130384
-4.4007072 -4.8714151 -0.57434678
-4.8561459 -5.3755679 -0.5731616
-5.4391346 -6.0209141 -0.57415617
-6.1966867 -6.8594961 -0.57695484
-7.1521139 -7.9171171 -0.5769372
-8.5104685 -9.420764 -0.58073342
-10.487749 -11.609538 -0.58540356
-13.634044 -15.092366 -0.59179765
-19.458351 -21.539652 -0.60320723
-34.029743 -37.669628 -0.63289326
-1.395787 -1.5838045 -0.56566125
-1.4442556 -1.6388021 -0.56588852
-1.4967201 -1.6983337 -0.56641114
-1.5557796 -1.7653487 -0.56802309
-1.62055 -1.8388439 -0.57015604
-1.6769242 -1.902812 -0.56781256
-1.7409141 -1.9754214 -0.56654137
-1.8156428 -2.0602164 -0.56702262
-1.8981683 -2.1538584 -0.56795961
-1.9885523 -2.2564175 -0.56907099
-2.0829067 -2.3634818 -0.56899476
-2.1848347 -2.4791398 -0.56852078
-2.3034153 -2.6136937 -0.56960738
-2.4371324 -2.7654228 -0.5712617
-2.5629385 -2.9081755 -0.56780171
-2.7195044 -3.0858314 -0.56761128
-2.9079139 -3.2996204 -0.56972849
-3.1198914 -3.5401518 -0.57142597
-3.3435135 -3.7938969 -0.56978047
-3.621464 -4.1092882 -0.57108861
-3.9455423 -4.4770212 -0.57210106
-4.3244395 -4.9069571 -0.57222456
-4.7926264 -5.4382105 -0.57351381
-5.3725162 -6.0962133 -0.57499343
-6.1037302 -6.9259243 -0.57618576
-7.0672464 -8.0192299 -0.57800198
-8.3937168 -9.5243807 -0.5807144
-10.332499 -11.724323 -0.58474076
-13.436303 -15.246222 -0.5913074
-19.169888 -21.75214 -0.60251105
-33.504059 -38.017178 -0.63176292
-1.3735573 -1.5977637 -0.56457186
-1.4280626 -1.6611658 -0.56750441
-1.4758432 -1.7167457 -0.56645644
-1.5326685 -1.7828466 -0.56754631
-1.5882183 -1.847464 -0.56673056
-1.6591722 -1.9299996 -0.56979436
-1.7193792 -2.0000343 -0.5674938
-1.7864033 -2.0779986 -0.56582826
-1.8663156 -2.1709552 -0.56637353
-1.9552999 -2.2744644 -0.56751579
-2.0576396 -2.3935089 -0.57008928
-2.1526411 -2.5040178 -0.56811279
-2.2741623 -2.645375 -0.57037431
-2.3849866 -2.7742891 -0.56699222
-2.5374014 -2.9515827 -0.57014179
-2.683208 -3.1211891 -0.56800312
-2.8710656 -3.3397112 -0.57051182
-3.0647323 -3.56499 -0.56930918
-3.2929525 -3.8304625 -0.56914783
-3.5687268 -4.1512518 -0.57077873
-3.885813 -4.5200963 -0.57145637
-4.2579818 -4.9530139 -0.57144648
-4.7213969 -5.4920726 -0.57302815
-5.2953238 -6.1596823 -0.57479483
-6.0233879 -7.006588 -0.57669097
-6.9622669 -8.0987206 -0.57751715
-8.2756739 -9.6265154 -0.58069324
-10.18306 -11.845245 -0.58448243
-13.234393 -15.39465 -0.59070778
-18.885666 -21.968382 -0.60202277
-32.992203 -38.377533 -0.63096189
-1.3592529 -1.621025 -0.5668425
-1.4145011 -1.686913 -0.57031518
-1.4493377 -1.7284588 -0.56439817
-1.502672 -1.7920644 -0.56455588
-1.5651804 -1.866611 -0.56665736
-1.6278527 -1.9413531 -0.56719381
-1.6959853 -2.0226071 -0.56793839
-1.7705653 -2.1115501 -0.56899279
-1.8436772 -2.1987422 -0.5676654
-1.9222829 -2.2924862 -0.56607187
-2.0269628 -2.4173257 -0.56978238
-2.1223583 -2.5310931 -0.56829172
-2.237299 -2.6681697 -0.56931442
-2.3643088 -2.8196399 -0.5702759
-2.4905462 -2.9701886 -0.56777722
-2.6519227 -3.1626437 -0.56956977
-2.8329375 -3.3785195 -0.57114738
-3.0191545 -3.6005991 -0.56902409
-3.2585123 -3.8860536 -0.57141107
-3.5288427 -4.2084455 -0.57263309
-3.8375001 -4.5765457 -0.57258409
-4.2028661 -5.0122757 -0.57227796
-4.6541338 -5.5504513 -0.57310474
-5.215354 -6.2197542 -0.57437271
-5.9204674 -7.0606618 -0.57510614
-6.8524408 -8.1721191 -0.57669896
-8.1475887 -9.7166939 -0.5800457
-10.026656 -11.957643 -0.58390063
-13.038449 -15.549462 -0.59045154
-18.602198 -22.184706 -0.60163701
-32.445999 -38.694618 -0.62956804
-1.3390081 -1.6373575 -0.56675333
-1.3799179 -1.6873826 -0.56469464
-1.4413046 -1.762447 -0.56966627
-1.4839188 -1.8145562 -0.56585038
-1.554448 -1.9008003 -0.5711906
-1.6102625 -1.9690511 -0.56945813
-1.6691732 -2.0410881 -0.56732154
-1.7334859 -2.1197305 -0.56541049
-1.8153731 -2.2198632 -0.56731224
-1.899742 -2.3230307 -0.56780291
-1.9891527 -2.4323633 -0.56751859
-2.0852461 -2.5498676 -0.56670707
-2.2027659 -2.6935723 -0.56891221
-2.3208365 -2.8379509 -0.56816459
-2.4545443 -3.0014508 -0.56794071
-2.6139913 -3.1964245 -0.56982166
-2.777936 -3.3968983 -0.56843674
-2.9746568 -3.6374512 -0.56902444
-3.203299 -3.9170382 -0.57013214
-3.4633532 -4.2350359 -0.57041335
-3.7811923 -4.6236939 -0.57262242
-4.1324887 -5.0532641 -0.57111281
-4.5774899 -5.5974174 -0.57209909
-5.1360364 -6.280416 -0.57409906
-5.8393364 -7.1404209 -0.57571059
-6.7644019 -8.2716036 -0.577806
-8.0265665 -9.8149958 -0.57997817
-9.8754368 -12.07582 -0.58369762
-12.834655 -15.694392 -0.58991748
-18.305346 -22.384029 -0.60089278
-31.913088 -39.023762 -0.62849104
-1.3147241 -1.6486182 -0.56501251
-1.3619034 -1.7077795 -0.5658735
-1.4125324 -1.7712666 -0.56685996
-1.4633601 -1.8350027 -0.56657225
-1.5237454 -1.9107237 -0.56849921
-1.5767914 -1.9772415 -0.56617665
-1.6496005 -2.0685418 -0.56927127
-1.705213 -2.1382775 -0.56472206
-1.7934681 -2.2489467 -0.56906587
-1.867677 -2.3420019 -0.56678367
-1.9599849 -2.4577529 -0.56777638
-2.052083 -2.5732408 -0.56625092
-2.171983 -2.7235913 -0.56956846
-2.2897253 -2.8712361 -0.56914848
-2.4244606 -3.0401895 -0.56958675
-2.5665703 -3.21839 -0.56806833
-2.7400148 -3.4358833 -0.56927937
-2.9311368 -3.6755438 -0.56930208
-3.1534114 -3.9542682 -0.56986409
-3.4083095 -4.2739015 -0.56996018
-3.7203188 -4.6651506 -0.57204789
-4.069253 -5.1027017 -0.57100183
-4.5062299 -5.6506553 -0.57183379
-5.0481086 -6.3301525 -0.57292795
-5.7524285 -7.2133451 -0.57584363
-6.6467657 -8.3348131 -0.57646853
-7.8931084 -9.8976831 -0.57908523
-9.7224884 -12.191663 -0.58347416
-12.624097 -15.830178 -0.58914202
-18.014343 -22.589359 -0.60041296
-31.377649 -39.346481 -0.6274271
-1.2954451 -1.6660621 -0.56548882
-1.3432187 -1.7275033 -0.56689322
-1.3908141 -1.7887154 -0.56692809
-1.4369903 -1.8481022 -0.56511837
-1.4923793 -1.9193376 -0.56555939
-1.5564206 -2.0017006 -0.56765723
-1.6177486 -2.0805743 -0.5670653
-1.6816568 -2.1627662 -0.56568551
-1.7659572 -2.2711842 -0.56915504
-1.8345441 -2.3593931 -0.56549042
-1.9246418 -2.4752672 -0.56631231
-2.0241833 -2.6032867 -0.56734252
-2.1266711 -2.7350955 -0.56646276
-2.2520874 -2.8963926 -0.56860274
-2.377934 -3.0582426 -0.5674479
-2.5385156 -3.2647657 -0.57070124
-2.6988924 -3.4710248 -0.56956017
-2.8940639 -3.7220337 -0.57094771
-3.104583 -3.9927807 -0.56986958
-3.3562887 -4.3164973 -0.57009381
-3.6597378 -4.7067609 -0.57158881
-4.0030012 -5.1482296 -0.5705452
-4.4394889 -5.7095928 -0.57223046
-4.9790616 -6.4035335 -0.5739848
-5.6622996 -7.2822404 -0.57574177
-6.5483727 -8.4218121 -0.57687294
-7.7815199 -10.007753 -0.57988304
-9.5583143 -12.292875 -0.58264899
-12.431148 -15.987605 -0.58926743
-17.720352 -22.790009 -0.59990913
-30.839741 -39.662758 -0.62637603
-1.2748605 -1.6818622 -0.5654881
-1.3247349 -1.7476593 -0.56811905
-1.3634714 -1.7987624 -0.56475586
-1.4175676 -1.8701289 -0.56648082
-1.4744027 -1.9451088 -0.56776804
-1.5316156 -2.020587 -0.56762934
-1.5952127 -2.1044877 -0.56819373
-1.6519676 -2.1793616 -0.56467038
-1.730215 -2.2825897 -0.56663877
-1.8140686 -2.3932137 -0.56820709
-1.8982331 -2.5042479 -0.5675596
-1.990748 -2.6262984 -0.56697983
-2.0975795 -2.767236 -0.56773454
-2.2123113 -2.9185963 -0.56757826
-2.3492901 -3.0993059 -0.56966394
-2.4779274 -3.2690108 -0.56607419
-2.6513298 -3.4977722 -0.56855655
-2.8453591 -3.7537458 -0.57040209
-3.0467682 -4.019455 -0.5682866
-3.3046925 -4.3597226 -0.57039267
-3.5951004 -4.7428436 -0.57055902
-3.9495955 -5.2105117 -0.57202208
-4.3723145 -5.7681851 -0.57267106
-4.8953624 -6.4582171 -0.57344735
-5.5577745 -7.3321052 -0.57423759
-6.4386024 -8.4941397 -0.57636046
-7.6500511 -10.092345 -0.57929015
-9.4071932 -12.41046 -0.58269542
-12.223263 -16.125565 -0.58876801
-17.418001 -22.978733 -0.59919375
-30.30537 -39.980419 -0.62546039
-1.2572452 -1.7016881 -0.56691325
-1.3026781 -1.7631817 -0.5679149
-1.3438832 -1.8189529 -0.56586391
-1.3924561 -1.8846966 -0.56566429
-1.4541844 -1.9682463 -0.56925929
-1.5148213 -2.0503185 -0.57070577
-1.5575703 -2.1081796 -0.56397688
-1.6361594 -2.2145503 -0.56853199
-1.7061548 -2.3092895 -0.56801581
-1.7788547 -2.4076893 -0.5664078
-1.8670567 -2.527071 -0.56748611
-1.9676231 -2.6631882 -0.56967747
-2.0616264 -2.7904222 -0.56724757
-2.1798084 -2.9503822 -0.56850415
-2.3011861 -3.1146677 -0.56724358
-2.4522061 -3.3190739 -0.56947875
-2.6059372 -3.5271499 -0.56808019
-2.8006272 -3.7906637 -0.57073575
-3.0051818 -4.0675297 -0.56981587
-3.2486498 -4.3970647 -0.57000875
-3.5408344 -4.7925382 -0.57125628
-3.8887608 -5.2634583 -0.57254177
-4.3064122 -5.8287516 -0.57338357
-4.8178539 -6.5209908 -0.57371753
-5.4713678 -7.4055252 -0.57467514
-6.337594 -8.5779667 -0.57671702
-7.5180235 -10.175684 -0.57872367
-9.2447653 -12.512838 -0.58212095
-12.004798 -16.248556 -0.58782446
-17.110271 -23.158842 -0.59835875
-29.760221 -40.280617 -0.62438458
-1.2330474 -1.7126017 -0.56545508
-1.283384 -1.782515 -0.5690161
-1.3197961 -1.8330885 -0.56516999
-1.3713968 -1.9047575 -0.56658113
-1.4219114 -1.9749182 -0.56608921
-1.4893569 -2.0685945 -0.57065207
-1.5335563 -2.1299839 -0.56472254
-1.6063415 -2.2310765 -0.56766081
-1.6750846 -2.326555 -0.56715339
-1.7576363 -2.4412127 -0.56916672
-1.83678 -2.5511367 -0.56777549
-1.9255762 -2.6744673 -0.56698239
-2.0274925 -2.8160207 -0.56734031
-2.1425326 -2.9758019 -0.56828278
-2.2735312 -3.1577482 -0.56995493
-2.4100945 -3.3474236 -0.56921512
-2.5686331 -3.5676205 -0.56946826
-2.7550712 -3.8265679 -0.57099777
-2.9509895 -4.0986824 -0.56905365
-3.1971955 -4.4406424 -0.57051831
-3.479881 -4.8332696 -0.57096767
-3.8222311 -5.3087654 -0.57231438
-4.2310781 -5.8766208 -0.57293117
-4.7418222 -6.5860019 -0.57426387
-5.3789587 -7.4709325 -0.57457471
-6.2322917 -8.6561422 -0.57677698
-7.3912253 -10.265805 -0.57863647
-9.085887 -12.619552 -0.58184379
-11.80724 -16.399288 -0.58798057
-16.807775 -23.344622 -0.59777361
-29.208223 -40.567825 -0.62322223
-1.2105397 -1.7256986 -0.5648219
-1.2561649 -1.79074 -0.56666797
-1.3008709 -1.8544713 -0.5667879
-1.3415753 -1.9124979 -0.56393385
-1.3901924 -1.9818045 -0.5631206
-1.4551505 -2.0744064 -0.56727636
-1.5142937 -2.1587183 -0.56736118
-1.5745173 -2.2445707 -0.56612533
-1.6514183 -2.3541982 -0.5688988
-1.7179867 -2.4490952 -0.56603646
-1.8050061 -2.5731471 -0.56769139
-1.9064456 -2.7177551 -0.57114637
-1.9911414 -2.8384943 -0.56689245
-2.1039522 -2.9993126 -0.56778908
-2.220485 -3.1654372 -0.56637174
-2.3670566 -3.3743842 -0.56880718
-2.5236835 -3.5976655 -0.56926757
-2.6968877 -3.8445787 -0.56869388
-2.9063966 -4.1432467 -0.57023591
-3.1411164 -4.4778538 -0.57029366
-3.4114149 -4.8631811 -0.56950271
-3.7505472 -5.3466349 -0.57138193
-4.1525402 -5.9197006 -0.57210976
-4.6576304 -6.6397376 -0.57391208
-5.289372 -7.5403237 -0.57486582
-6.1157942 -8.7184391 -0.57587355
-7.2541814 -10.34128 -0.57781911
-8.9248085 -12.722861 -0.58150321
-11.588101 -16.51955 -0.58713913
-16.505783 -23.530005 -0.59727836
-28.648335 -40.839958 -0.62194401
-1.1958189 -1.7500956 -0.56795138
-1.2402033 -1.8150525 -0.5694927
-1.2824242 -1.8768436 -0.56876302
-1.3325247 -1.9501661 -0.57016641
-1.3713248 -2.0069506 -0.56543159
-1.4258978 -2.0868189 -0.56583315
-1.483622 -2.171299 -0.56583005
-1.5477617 -2.2651682 -0.5664773
-1.6129669 -2.3605967 -0.5656094
-1.6872089 -2.4692509 -0.56585705
-1.7685541 -2.5883005 -0.56619394
-1.8617826 -2.7247415 -0.56776053
-1.9586947 -2.8665736 -0.56764728
-2.067637 -3.0260119 -0.56798744
-2.1852822 -3.1981871 -0.56738067
-2.3310163 -3.4114709 -0.57018399
-2.4737067 -3.6202998 -0.56799304
-2.6534426 -3.8833458 -0.56955892
-2.853503 -4.1761365 -0.56989032
-3.0866442 -4.5173416 -0.57044578
-3.3533919 -4.9077301 -0.5698477
-3.6828501 -5.3898959 -0.57112235
-4.0757065 -5.9648461 -0.57158613
-4.5754528 -6.6962314 -0.57388878
-5.1911359 -7.5972905 -0.57429898
-6.0055485 -8.7891932 -0.57562572
-7.1260548 -10.429069 -0.57778448
-8.7704887 -12.835717 -0.58168823
-11.373932 -16.645889 -0.58661419
-16.198862 -23.707232 -0.59667575
-28.08886 -41.108387 -0.62072504
-1.1677999 -1.755033 -0.56485087
-1.2186781 -1.8314954 -0.56990689
-1.2504091 -1.8791826 -0.56476969
-1.3013434 -1.9557294 -0.56707162
-1.3473133 -2.0248153 -0.56575441
-1.4051138 -2.111681 -0.56784666
-1.454622 -2.1860847 -0.56497931
-1.5206345 -2.2852919 -0.56679088
-1.5838281 -2.3802626 -0.5656122
-1.6651827 -2.5025268 -0.56874728
-1.7394838 -2.6141906 -0.56713557
-1.8249148 -2.7425807 -0.56675899
-1.9257888 -2.8941796 -0.56838161
-2.0282364 -3.0481436 -0.56741738
-2.1514449 -3.2333078 -0.56887496
-2.2810116 -3.4280274 -0.56822032
-2.4358327 -3.6607015 -0.56958938
-2.608475 -3.9201574 -0.57021052
-2.7950447 -4.2005444 -0.568488
-3.0255086 -4.5468984 -0.56943715
-3.3010848 -4.9610491 -0.57128233
-3.6158805 -5.4341412 -0.57105613
-4.0110316 -6.0279956 -0.57286787
-4.4828401 -6.7370543 -0.57261992
-5.1014585 -7.666748 -0.57476401
-5.8958592 -8.8606167 -0.57551181
-6.9957013 -10.513518 -0.57765371
-8.5925655 -12.913373 -0.58037531
-11.170074 -16.786991 -0.58670199
-15.8881 -23.877495 -0.59599888
-27.535089 -41.381222 -0.61968535
-1.1480534 -1.7722242 -0.56579751
-1.1871871 -1.8326339 -0.56567585
-1.23009 -1.8988622 -0.56609547
-1.2770435 -1.971343 -0.56700283
-1.3240838 -2.0439582 -0.56651103
-1.3731539 -2.1197069 -0.56542164
-1.432876 -2.2118983 -0.56705421
-1.4882801 -2.2974243 -0.56521839
-1.561257 -2.4100773 -0.56809211
-1.6239572 -2.506866 -0.56515247
-1.7123255 -2.6432781 -0.56883508
-1.7921687 -2.7665305 -0.56711131
-1.8835335 -2.9075682 -0.56641966
-1.9872499 -3.0676727 -0.56646115
-2.1048822 -3.2492592 -0.56708479
-2.2315416 -3.4447806 -0.56640607
-2.3937545 -3.6951849 -0.57033187
-2.5564363 -3.9463131 -0.56939954
-2.7491136 -4.2437449 -0.56971651
-2.9709713 -4.5862212 -0.56974351
-3.2264328 -4.9805713 -0.56891882
-3.5509512 -5.4815235 -0.57140362
-3.9256108 -6.0598764 -0.57126707
-4.3950438 -6.7845297 -0.57201844
-5.0035505 -7.7238684 -0.57439035
-5.7868938 -8.9330978 -0.57555419
-6.867188 -10.600723 -0.57776183
-8.4344578 -13.020082 -0.58046603
-10.945511 -16.896339 -0.58577549
-15.588813 -24.064098 -0.59582692
-26.975426 -41.641357 -0.61856687
-1.1237036 -1.7822845 -0.56455529
-1.1584772 -1.8374381 -0.56271917
-1.2007469 -1.9044813 -0.56332636
-1.2549332 -1.9904251 -0.56800991
-1.2975601 -2.0580349 -0.56594753
-1.3475003 -2.137244 -0.56563699
-1.3981192 -2.2175298 -0.56404781
-1.464144 -2.3222501 -0.56685388
-1.5265687 -2.4212608 -0.56626076
-1.6011804 -2.5396011 -0.56805068
-1.6698478 -2.6485131 -0.56550014
-1.7559379 -2.785059 -0.56644052
-1.8548871 -2.9420004 -0.56864107
-1.9547822 -3.1004419 -0.56803066
-2.0663111 -3.2773361 -0.56750757
-2.1995001 -3.4885845 -0.56911844
-2.3387153 -3.7093909 -0.56804287
-2.5113587 -3.9832172 -0.57022554
-2.6895828 -4.2658954 -0.56820732
-2.9225473 -4.6353955 -0.57134479
-3.173243 -5.0330191 -0.57040954
-3.4795835 -5.5188994 -0.57079649
-3.8502808 -6.1068554 -0.57118934
-4.3097544 -6.8356171 -0.57181436
-4.8974519 -7.7677531 -0.5731321
-5.6670403 -8.9883823 -0.57458299
-6.7393241 -10.689111 -0.57801884
-8.2732553 -13.12205 -0.58043265
-10.740314 -17.035004 -0.58595991
-15.260897 -24.205011 -0.59462464
-26.413513 -41.893959 -0.61744785
-1.1110722 -1.8112372 -0.56935567
-1.140695 -1.8595275 -0.56514573
-1.1838907 -1.9299438 -0.56650901
-1.2315221 -2.007591 -0.56854415
-1.2757043 -2.0796156 -0.56752545
-1.3168987 -2.1467695 -0.56382972
-1.3723485 -2.2371621 -0.5647065
-1.4289542 -2.3294392 -0.56427699
-1.4950082 -2.4371185 -0.56562728
-1.5746044 -2.5668738 -0.56977701
-1.6402729 -2.6739244 -0.56657648
-1.7245978 -2.8113885 -0.56743962
-1.8161981 -2.9607127 -0.56789833
-1.9134514 -3.1192522 -0.56712329
-2.0285497 -3.3068821 -0.5682615
-2.153779 -3.5110271 -0.56841618
-2.2875848 -3.7291532 -0.56671876
-2.4577749 -4.0065923 -0.5692023
-2.6395247 -4.3028755 -0.56876683
-2.8510804 -4.647747 -0.56850308
-3.1082706 -5.0670114 -0.56988722
-3.4060283 -5.5524068 -0.56988728
-3.773756 -6.151866 -0.57101589
-4.2269349 -6.8906245 -0.57202464
-4.8149281 -7.8491535 -0.57472622
-5.5655651 -9.0728207 -0.57556236
-6.5925846 -10.747037 -0.57672399
-8.1080465 -13.217499 -0.58020073
-10.511503 -17.135544 -0.58492798
-14.950926 -24.372559 -0.59417939
-25.842442 -42.127586 -0.61616111
-1.0841967 -1.8171834 -0.56699115
-1.1171325 -1.872386 -0.56483608
-1.1589893 -1.9425405 -0.56598049
-1.2012267 -2.0133333 -0.56594449
-1.2518754 -2.0982237 -0.56835973
-1.2945477 -2.1697452 -0.56564051
-1.3450375 -2.2543693 -0.56483233
-1.4118716 -2.3663876 -0.56897879
-1.4697014 -2.4633141 -0.56746978
-1.5283625 -2.5616338 -0.5643996
-1.6009905 -2.6833632 -0.56436241
-1.699412 -2.8483238 -0.57063365
-1.7749715 -2.9749663 -0.56640309
-1.8728392 -3.138999 -0.56648368
-1.9828316 -3.3233533 -0.5668593
-2.1018291 -3.5228004 -0.56609529
-2.2442751 -3.7615492 -0.56740522
-2.40487 -4.0307164 -0.56838548
-2.5894642 -4.3401084 -0.56943649
-2.7915659 -4.678844 -0.56806511
-3.0488329 -5.1100397 -0.570467
-3.3508458 -5.6162329 -0.57216591
-3.7003462 -6.2020183 -0.5714044
-4.1514459 -6.9580903 -0.57334423
-4.7098751 -7.8940535 -0.57372987
-5.4423671 -9.1217575 -0.57437801
-6.4577055 -10.82353 -0.57652402
-7.9378695 -13.30438 -0.57968611
-10.303114 -17.268681 -0.58510375
-14.631878 -24.52397 -0.59343946
-25.280048 -42.370987 -0.61512798
-1.065866 -1.8374352 -0.56917763
-1.1007323 -1.8975409 -0.56829846
-1.1325846 -1.9524508 -0.56476754
-1.178194 -2.0310764 -0.56681675
-1.2129277 -2.0909534 -0.56230783
-1.2702191 -2.1897173 -0.56673241
-1.3194027 -2.2745047 -0.56576961
-1.3711381 -2.3636909 -0.56423378
-1.4372978 -2.4777429 -0.56667936
-1.5057446 -2.5957375 -0.56779116
-1.5764457 -2.7176182 -0.56744707
-1.6557376 -2.8543088 -0.56771088
-1.741694 -3.0024881 -0.56752253
-1.8356038 -3.1643782 -0.56694752
-1.9412163 -3.3464427 -0.56668329
-2.0640488 -3.558192 -0.56766105
-2.2048926 -3.8009913 -0.56922203
-2.3586543 -4.0660596 -0.56923646
-2.5306773 -4.362608 -0.5682627
-2.7417963 -4.7265539 -0.56972122
-2.9821553 -5.1409068 -0.56977612
-3.2710502 -5.6389294 -0.5703373
-3.6194041 -6.2394528 -0.57070976
-4.0581932 -6.9958773 -0.5723027
-4.5987267 -7.9276977 -0.57202202
-5.3252921 -9.1802158 -0.57389235
-6.3267608 -10.906636 -0.57676327
-7.7725539 -13.399025 -0.57960171
-10.076927 -17.37151 -0.58434528
-14.316465 -24.680006 -0.59291053
-24.704813 -42.588371 -0.61382729
-1.0384045 -1.8419076 -0.56656486
-1.0683246 -1.8949796 -0.56355441
-1.1108056 -1.9703319 -0.56594604
-1.1418831 -2.0254567 -0.56128752
-1.2031347 -2.1341038 -0.56989038
-1.2472321 -2.2123232 -0.56857091
-1.2892624 -2.2868762 -0.56486082
-1.3466351 -2.3886428 -0.56619453
-1.4030225 -2.4886622 -0.56518829
-1.472062 -2.6111233 -0.56715441
-1.5401319 -2.7318649 -0.56642461
-1.620499 -2.874419 -0.56770456
-1.7036109 -3.0218418 -0.56717819
-1.7945 -3.1830597 -0.56629831
-1.905879 -3.3806221 -0.56845969
-2.0224373 -3.5873718 -0.56830585
-2.1553795 -3.8231831 -0.56853336
-2.3022542 -4.0837073 -0.56770086
-2.4786115 -4.3965273 -0.56866795
-2.6798186 -4.7534256 -0.56894529
-2.9196596 -5.1788521 -0.56995958
-3.2027326 -5.680963 -0.57056236
-3.545912 -6.28969 -0.57127345
-3.9637074 -7.0307703 -0.57112682
-4.5095615 -7.9989991 -0.57312232
-5.2100964 -9.2415981 -0.57368124
-6.1906633 -10.980914 -0.57662207
-7.6023722 -13.484983 -0.57923251
-9.859971 -17.489483 -0.58419108
-13.989836 -24.81498 -0.59197569
-24.135727 -42.811623 -0.6127212
-1.0112109 -1.8463784 -0.56407267
-1.0457188 -1.9093865 -0.56397223
-1.0872416 -1.9852035 -0.56633478
-1.1329607 -2.0686822 -0.56936234
-1.1723627 -2.1406267 -0.56773967
-1.2216291 -2.2305827 -0.56935996
-1.2714368 -2.321527 -0.56951487
-1.3111641 -2.3940656 -0.56361562
-1.3788265 -2.5176105 -0.56786919
-1.4357221 -2.6214967 -0.56553018
-1.5078268 -2.7531533 -0.56695145
-1.5861113 -2.8960936 -0.56809038
-1.6633281 -3.0370843 -0.56615746
-1.7656132 -3.2238476 -0.56964928
-1.8683286 -3.4113965 -0.56972826
-1.9798161 -3.6149626 -0.56877708
-2.1057935 -3.8449857 -0.56788206
-2.2479539 -4.1045575 -0.56671393
-2.4221652 -4.4226513 -0.56815159
-2.6265898 -4.7959123 -0.57012171
-2.8471105 -5.1985626 -0.56823289
-3.1297698 -5.7146726 -0.57003957
-3.4623108 -6.3218617 -0.57028556
-3.880141 -7.0847816 -0.57159531
-4.4021997 -8.0380125 -0.57199585
-5.0953102 -9.3035688 -0.57359546
-6.0504818 -11.047625 -0.57617474
-7.4334455 -13.572789 -0.57903409
-9.6331196 -17.589193 -0.58352095
-13.666906 -24.954517 -0.59125072
-23.561346 -43.020855 -0.61152297
-0.9870255 -1.8560269 -0.56326985
-1.0235432 -1.9246956 -0.56473386
-1.0619564 -1.9969287 -0.56591171
-1.0928133 -2.0549529 -0.56184268
-1.1421803 -2.1477838 -0.56587017
-1.1883525 -2.234607 -0.56661445
-1.2331268 -2.3188016 -0.5650838
-1.2870404 -2.420182 -0.56599545
-1.3367432 -2.5136447 -0.56322449
-1.4031609 -2.6385381 -0.56544161
-1.4705744 -2.7653039 -0.56568706
-1.5489739 -2.9127285 -0.56757432
-1.6268809 -3.0592265 -0.56651306
-1.7153738 -3.2256308 -0.56619442
-1.8145481 -3.4121206 -0.56608003
-1.931937 -3.6328616 -0.56781262
-2.0665913 -3.8860686 -0.57015347
-2.2070358 -4.1501641 -0.56922066
-2.3668795 -4.4507384 -0.56797796
-2.558125 -4.8103609 -0.568057
-2.7865598 -5.2399154 -0.5689646
-3.0557566 -5.7461195 -0.56938529
-3.3859813 -6.3670821 -0.57056576
-3.7949505 -7.1361179 -0.57192904
-4.3043594 -8.0940228 -0.57217193
-4.9830489 -9.3702478 -0.57388526
-5.9065785 -11.106874 -0.57543337
-7.2685266 -13.667915 -0.57923555
-9.4044695 -17.684393 -0.58279878
-13.346292 -25.096695 -0.59068632
-22.982878 -43.217567 -0.61025584
-0.96414006 -1.8680421 -0.56327569
-1.0052482 -1.9476899 -0.56781089
-1.0372791 -2.0097504 -0.56588787
-1.0796818 -2.0919065 -0.56827337
-1.1153718 -2.161057 -0.56571096
-1.1594354 -2.2464309 -0.56595474
-1.2055278 -2.3357358 -0.56555533
-1.2577033 -2.4368269 -0.56622851
-1.3161631 -2.5500941 -0.56772238
-1.3702612 -2.6549106 -0.56529659
-1.4399993 -2.7900298 -0.56707996
-1.5045371 -2.9150729 -0.56438345
-1.584406 -3.0698206 -0.56482434
-1.6775947 -3.2503755 -0.56687409
-1.7680103 -3.4255579 -0.56465983
-1.8795458 -3.6416602 -0.56553274
-2.009599 -3.893641 -0.56759602
-2.1467872 -4.1594462 -0.56683034
-2.3147604 -4.4848981 -0.56866187
-2.5000451 -4.8438911 -0.56834334
-2.7307563 -5.2908988 -0.57081127
-2.9873533 -5.7880611 -0.56985825
-3.3119893 -6.4170504 -0.57135081
-3.694325 -7.1578336 -0.56998557
-4.2018652 -8.1412039 -0.5718115
-4.8575916 -9.4116879 -0.57272172
-5.7695174 -11.178564 -0.57542849
-7.0872755 -13.731748 -0.57820374
-9.1814814 -17.789316 -0.58249182
-13.026131 -25.238409 -0.59020716
-22.414619 -43.428806 -0.60930067
-0.94093674 -1.8794322 -0.56317884
-0.97519869 -1.9478672 -0.56432402
-1.0042977 -2.0059898 -0.56130928
-1.0451053 -2.0874991 -0.56354243
-1.0829252 -2.1630409 -0.56270188
-1.1355147 -2.2680833 -0.56784904
-1.1782248 -2.3533926 -0.56627983
-1.2184273 -2.4336934 -0.56197655
-1.2863878 -2.569438 -0.56846434
-1.3343354 -2.6652088 -0.56395316
-1.4080188 -2.8123844 -0.56806165
-1.4716926 -2.9395666 -0.56557924
-1.5457295 -3.0874486 -0.56452793
-1.6409141 -3.2775707 -0.56805509
-1.7299217 -3.4553552 -0.56602234
-1.8396381 -3.6745031 -0.56707728
-1.9612751 -3.9174616 -0.56750995
-2.1074727 -4.2094774 -0.57007372
-2.2488399 -4.4918451 -0.56599373
-2.4434264 -4.8805132 -0.56907195
-2.6651218 -5.323329 -0.57073134
-2.9099603 -5.8123703 -0.56868571
-3.2265415 -6.4447117 -0.57023805
-3.614907 -7.2204351 -0.57138771
-4.1075644 -8.2044716 -0.57266432
-4.7511959 -9.4900646 -0.57389253
-5.6302743 -11.245941 -0.57528949
-6.9169984 -13.81605 -0.57812834
-8.954917 -17.886599 -0.58202767
-12.700027 -25.367104 -0.58952022
-21.83532 -43.613987 -0.60808581
-0.9159627 -1.8871627 -0.56207776
-0.95152116 -1.9604239 -0.56452948
-0.98436749 -2.0280974 -0.56406575
-1.024966 -2.1117427 -0.56664193
-1.0655886 -2.1954377 -0.56767815
-1.107748 -2.282299 -0.5679549
-1.1536624 -2.3768966 -0.56847894
-1.2001437 -2.4726622 -0.56752443
-1.24203 -2.5589609 -0.56272489
-1.2998872 -2.6781642 -0.56326967
-1.3739156 -2.8306854 -0.56830281
-1.4409845 -2.9688678 -0.56776476
-1.5138181 -3.1189275 -0.56683725
-1.6011533 -3.2988644 -0.56829029
-1.6848185 -3.4712403 -0.56518811
-1.7955638 -3.6994095 -0.56747067
-1.9199363 -3.9556546 -0.56957972
-2.046695 -4.2168164 -0.56761646
-2.1983187 -4.5292072 -0.56725258
-2.3834164 -4.9105649 -0.5691157
-2.5967057 -5.3500061 -0.57012504
-2.8419573 -5.855299 -0.56942368
-3.1474051 -6.4846148 -0.57030118
-3.5245035 -7.2615523 -0.57116872
-4.0050435 -8.2516117 -0.57247394
-4.6313529 -9.5419998 -0.57354599
-5.4875355 -11.305997 -0.57486635
-6.7397394 -13.88592 -0.57754052
-8.72964 -17.985722 -0.58171618
-12.370275 -25.486542 -0.58871645
-21.251926 -43.785454 -0.60678709
-0.8989976 -1.9116957 -0.56604946
-0.9269498 -1.9711354 -0.56428903
-0.96407741 -2.0500863 -0.56684148
-0.99627084 -2.1185448 -0.56513721
-1.0368694 -2.2048764 -0.5667792
-1.0740377 -2.2839141 -0.56502753
-1.1190969 -2.3797312 -0.5658229
-1.1656289 -2.4786806 -0.56557322
-1.2208099 -2.5960214 -0.56753063
-1.2762769 -2.7139707 -0.5674569
-1.3289065 -2.8258862 -0.56401598
-1.4073941 -2.9927878 -0.56898659
-1.4741948 -3.1348381 -0.56639159
-1.557029 -3.3109829 -0.56703681
-1.6427343 -3.493233 -0.56543726
-1.7528967 -3.7274904 -0.56842887
-1.8691145 -3.9746249 -0.56895882
-1.9990842 -4.2510023 -0.56886619
-2.1473992 -4.56639 -0.56855935
-2.317029 -4.927104 -0.56768751
-2.5191214 -5.3568478 -0.56751025
-2.7743905 -5.8996711 -0.57037801
-3.067888 -6.5237865 -0.5703854
-3.4344232 -7.3032146 -0.5710808
-3.8945336 -8.2816277 -0.57119083
-4.5073185 -9.5846987 -0.57273781
-5.3458896 -11.3679 -0.57462806
-6.5577073 -13.944799 -0.57659197
-8.4978628 -18.070492 -0.5810343
-12.046438 -25.616446 -0.58825099
-20.674313 -43.963406 -0.60568434
-0.8783837 -1.9291043 -0.567963
-0.89956766 -1.9756284 -0.56236613
-0.94530296 -2.0760722 -0.57076937
-0.97134304 -2.1332614 -0.56583399
-1.0097042 -2.21751 -0.56679231
-1.0497152 -2.305382 -0.56710237
-1.0883465 -2.390224 -0.56509304
-1.1288611 -2.4792023 -0.56248248
-1.1855508 -2.603704 -0.56598037
-1.2398902 -2.7230439 -0.56612343
-1.3007066 -2.8566089 -0.56691277
-1.364724 -2.9972038 -0.56659287
-1.4396996 -3.161865 -0.56803322
-1.51653 -3.3305998 -0.56715989
-1.6008136 -3.5157032 -0.56584543
-1.7039249 -3.742156 -0.56742728
-1.8144063 -3.9847949 -0.56717801
-1.9439591 -4.2693186 -0.56807554
-2.084352 -4.5776491 -0.56672722
-2.2657766 -4.9760938 -0.57007885
-2.4614172 -5.4057589 -0.56944233
-2.6993313 -5.9282651 -0.56989038
-2.9862485 -6.558392 -0.57015741
-3.3432572 -7.3424535 -0.57089132
-3.7902315 -8.3240976 -0.57086235
-4.3904905 -9.6423855 -0.57291555
-5.203402 -11.427699 -0.57437313
-6.3850741 -14.022885 -0.57653069
-8.2668362 -18.155607 -0.5804587
-11.713581 -25.72534 -0.5873996
-20.088465 -44.11824 -0.60436869
-0.85118568 -1.9320136 -0.56569523
-0.87967551 -1.9966794 -0.56523657
-0.91127658 -2.0684073 -0.56553864
-0.94810998 -2.1520116 -0.56767213
-0.97569007 -2.2146125 -0.56294256
-1.0113095 -2.2954612 -0.56156045
-1.057838 -2.4010711 -0.56453961
-1.1029077 -2.5033698 -0.56484598
-1.1570621 -2.6262891 -0.56775415
-1.2055314 -2.7363043 -0.56575561
-1.262554 -2.8657339 -0.56559992
-1.3294268 -3.0175209 -0.56730044
-1.3975232 -3.1720855 -0.56673926
-1.4721212 -3.3414075 -0.56587499
-1.5637466 -3.5493779 -0.56812751
-1.656284 -3.7594182 -0.56691372
-1.7692177 -4.0157542 -0.56844515
-1.8931327 -4.2970157 -0.56862044
-2.0342426 -4.6173053 -0.56849694
-2.1935716 -4.9789491 -0.56727296
-2.3896749 -5.4240627 -0.56823212
-2.6209905 -5.949101 -0.56875211
-2.9012287 -6.5851827 -0.56934196
-3.2483611 -7.3731008 -0.5701254
-3.6878088 -8.3705549 -0.57089531
-4.2654438 -9.6816664 -0.57208979
-5.0601549 -11.485494 -0.57410723
-6.2126107 -14.101328 -0.57657135
-8.0373411 -18.243086 -0.5800519
-11.39003 -25.852987 -0.58707184
-19.512188 -44.288589 -0.60336983
-0.82744724 -1.9425236 -0.56575066
-0.85450864 -2.0060532 -0.56487298
-0.88673007 -2.0816967 -0.56614816
-0.91759467 -2.1541545 -0.56521839
-0.95016128 -2.2306082 -0.56399608
-0.99088728 -2.3262172 -0.56606102
-1.028567 -2.4146743 -0.56472152
-1.0709902 -2.5142674 -0.56429076
-1.123576 -2.6377184 -0.5671953
-1.1666424 -2.7388217 -0.56326741
-1.2319102 -2.892045 -0.56776017
-1.28825 -3.0243087 -0.56555569
-1.3591282 -3.1907034 -0.56703681
-1.4362264 -3.3716996 -0.56797123
-1.521852 -3.5727155 -0.56882471
-1.6056848 -3.769522 -0.56541717
-1.7169622 -4.0307579 -0.56753749
-1.8387942 -4.316772 -0.56819981
-1.9750899 -4.6367412 -0.56785679
-2.130873 -5.002459 -0.56692332
-2.3230467 -5.453608 -0.56829184
-2.5497167 -5.9857411 -0.56921464
-2.8149176 -6.6083293 -0.56830764
-3.1613522 -7.4216223 -0.57082832
-3.5815396 -8.4080591 -0.57040644
-4.1499319 -9.7424221 -0.57262129
-4.9152975 -11.539203 -0.57372737
-6.0294008 -14.154682 -0.57567799
-7.8082623 -18.330755 -0.57974279
-11.056787 -25.957026 -0.58630264
-18.930641 -44.441769 -0.60223985
-0.80607688 -1.9588119 -0.56756485
-0.82331562 -2.0007031 -0.56047332
-0.86054891 -2.091182 -0.56580722
-0.89365429 -2.1716299 -0.56687742
-0.92370129 -2.2446458 -0.56463081
-0.96095628 -2.3351774 -0.56532329
-0.99975395 -2.4294579 -0.56526119
-1.0428904 -2.534282 -0.56586182
-1.0866015 -2.6405022 -0.56487811
-1.1433249 -2.7783432 -0.56846112
-1.1956214 -2.9054267 -0.56745815
-1.2545385 -3.0485985 -0.56717032
-1.3146502 -3.1946735 -0.56482679
-1.3974702 -3.3959308 -0.56911534
-1.4743123 -3.5826614 -0.56747895
-1.5646961 -3.802299 -0.56740475
-1.6718349 -4.0626526 -0.56909072
-1.7845844 -4.3366399 -0.56788361
-1.9227643 -4.6724248 -0.56928831
-2.0757308 -5.0441418 -0.56871158
-2.2565579 -5.4835615 -0.56847876
-2.4748604 -6.0140491 -0.56896961
-2.7390649 -6.6560812 -0.56947464
-3.0622194 -7.4413638 -0.56940752
-3.4820211 -8.4615059 -0.57108444
-4.0280542 -9.7883968 -0.57236904
-4.7692342 -11.589505 -0.57326925
-5.8583155 -14.236034 -0.57601327
-7.574626 -18.406765 -0.57915717
-10.718414 -26.046347 -0.58529896
-18.345829 -44.58139 -0.60102946
-0.77502376 -1.9511847 -0.56255102
-0.81224579 -2.044894 -0.57001185
-0.83617932 -2.1051488 -0.56676131
-0.86620891 -2.1807506 -0.5664351
-0.89593524 -2.255589 -0.56456965
-0.93693173 -2.3588011 -0.5682103
-0.97542089 -2.4557006 -0.56853336
-1.0104289 -2.5438361 -0.5651781
-1.0555019 -2.6573112 -0.56565464
-1.1043718 -2.7803447 -0.56604934
-1.158372 -2.9162951 -0.56675595
-1.212592 -3.052798 -0.56513488
-1.2745606 -3.2088087 -0.56451231
-1.3464892 -3.389895 -0.56528634
-1.4295846 -3.5990942 -0.56725454
-1.5174118 -3.8202064 -0.56724977
-1.6151407 -4.0662465 -0.5667693
-1.7248876 -4.3425436 -0.56583643
-1.860727 -4.6845298 -0.56793249
-2.0132058 -5.0684075 -0.56861335
-2.1873007 -5.5067053 -0.56804681
-2.3987281 -6.0389915 -0.56849581
-2.6554019 -6.6851883 -0.56912833
-2.9650395 -7.464726 -0.5683623
-3.3668523 -8.4763212 -0.56924713
-3.9017005 -9.8228455 -0.57153469
-4.6240268 -11.641359 -0.57297832
-5.6775427 -14.293671 -0.57547706
-7.3407469 -18.480921 -0.57860655
-10.386802 -26.149611 -0.58470511
-17.75561 -44.701176 -0.59965557
-0.75293571 -1.9656873 -0.56402028
-0.78696817 -2.0545356 -0.56995893
-0.81323701 -2.1231155 -0.56886321
-0.8377111 -2.18701 -0.56534261
-0.87230307 -2.2773192 -0.56728101
-0.90716678 -2.3683379 -0.56777757
-0.93957239 -2.452939 -0.56517649
-0.97845149 -2.5544405 -0.56481838
-1.0231926 -2.6712463 -0.56589997
-1.0646896 -2.7795825 -0.56318617
-1.1254724 -2.9382679 -0.56829369
-1.1773654 -3.0737448 -0.5662896
-1.2386143 -3.2336469 -0.56615973
-1.3017364 -3.3984396 -0.5639993
-1.3834997 -3.6118991 -0.56654859
-1.4696313 -3.8367624 -0.56698191
-1.5673325 -4.0918307 -0.56760609
-1.6811535 -4.3889828 -0.56915087
-1.8026829 -4.7062593 -0.56783658
-1.949788 -5.0903063 -0.56833744
-2.1228142 -5.5420251 -0.56895453
-2.3243952 -6.0682917 -0.56852049
-2.5700467 -6.7096138 -0.56847435
-2.8796577 -7.5179143 -0.56967294
-3.2651701 -8.5243702 -0.56973451
-3.7779038 -9.8629637 -0.57112283
-4.4778996 -11.69044 -0.5726406
-5.492682 -14.33973 -0.57456875
-7.1054821 -18.550262 -0.57799834
-10.054421 -26.24905 -0.58411998
-17.174646 -44.837803 -0.59861016
-0.72941864 -1.9767178 -0.56456912
-0.7571007 -2.0517359 -0.56655675
-0.78127289 -2.1172423 -0.56467283
-0.81090319 -2.19754 -0.56544435
-0.84234631 -2.2827508 -0.56601107
-0.86930001 -2.3557951 -0.5621655
-0.90949535 -2.4647241 -0.56527233
-0.94497663 -2.560878 -0.56362987
-0.98852319 -2.6788888 -0.56490123
-1.0343497 -2.8030782 -0.56532705
-1.0819825 -2.9321628 -0.56449699
-1.1366774 -3.0803852 -0.56489527
-1.1976825 -3.2457085 -0.56565022
-1.2636045 -3.4243565 -0.56567907
-1.3386307 -3.6276767 -0.56639868
-1.4204884 -3.8495102 -0.56624174
-1.5134506 -4.1014371 -0.56631434
-1.625187 -4.404242 -0.56849515
-1.7411675 -4.7185478 -0.56669319
-1.8842008 -5.1061668 -0.56747854
-2.0533807 -5.5646429 -0.56864136
-2.2440543 -6.0813665 -0.56711733
-2.4868152 -6.7392464 -0.56835121
-2.7840712 -7.5448079 -0.56907362
-3.1625102 -8.5703735 -0.57016695
-3.6624947 -9.9253273 -0.57208294
-4.3292055 -11.732106 -0.57203078
-5.3159251 -14.406108 -0.57456583
-6.8798342 -18.644287 -0.57824838
-9.7163401 -26.331194 -0.58324516
-16.590717 -44.96069 -0.59748197
-0.70784289 -1.9933777 -0.56679851
-0.73426491 -2.0677855 -0.56845248
-0.75555617 -2.1277444 -0.56495315
-0.78660977 -2.2151954 -0.56745547
-0.81336468 -2.2905407 -0.56541997
-0.84531152 -2.3805072 -0.56553942
-0.87727851 -2.4705305 -0.56408733
-0.91851622 -2.5866611 -0.56677586
-0.95267683 -2.682862 -0.56322622
-1.000947 -2.8187971 -0.56597215
-1.0506835 -2.9588614 -0.56710678
-1.1034433 -3.1074398 -0.56732553
-1.1567837 -3.2576532 -0.56521022
-1.226259 -3.4533048 -0.5679273
-1.2863969 -3.6226609 -0.56310326
-1.3735522 -3.8681018 -0.56644922
-1.4622885 -4.1179943 -0.56607497
-1.5654098 -4.4083977 -0.56650412
-1.6865712 -4.7496037 -0.56788933
-1.8185904 -5.121387 -0.56664199
-1.9819974 -5.5815625 -0.56783694
-2.173758 -6.1215854 -0.56833237
-2.403616 -6.7688951 -0.56831604
-2.6958902 -7.5919776 -0.57008803
-3.0586729 -8.6136208 -0.57049882
-3.5328782 -9.9490442 -0.57090288
-4.187768 -11.7933 -0.57246035
-5.1355534 -14.462386 -0.57424837
-6.6415191 -18.703382 -0.57750463
-9.3833637 -26.424772 -0.58271813
-16.004496 -45.070744 -0.59628409
-0.6842494 -2.0047712 -0.56760287
-0.70782405 -2.0738423 -0.56768185
-0.73414326 -2.1509545 -0.56867594
-0.75623512 -2.2156811 -0.56515509
-0.78683877 -2.3053463 -0.56664348
-0.81356001 -2.3836362 -0.56386352
-0.84331262 -2.4708083 -0.56174058
-0.87953782 -2.5769436 -0.56223434
-0.9258101 -2.7125163 -0.56701887
-0.96668231 -2.8322668 -0.56624717
-1.0109537 -2.961977 -0.56527865
-1.0609697 -3.1085179 -0.56509781
-1.1213766 -3.2855036 -0.56760699
-1.177693 -3.4505038 -0.56504232
-1.2522848 -3.669049 -0.56787729
-1.32269 -3.8753281 -0.56508291
-1.4132576 -4.1406808 -0.56676179
-1.5147882 -4.4381537 -0.56789136
-1.6240023 -4.7581387 -0.56647927
-1.7548314 -5.1414523 -0.56643176
-1.9138044 -5.6072249 -0.56801063
-2.0966086 -6.1428204 -0.56786734
-2.322742 -6.8053641 -0.56893694
-2.5966952 -7.6080155 -0.56885165
-2.9471672 -8.6348581 -0.56946212
-3.4132504 -10.000428 -0.57139981
-4.0385337 -11.832435 -0.57190621
-4.9511137 -14.506189 -0.57352692
-6.4036126 -18.761843 -0.5768348
-9.0491047 -26.512827 -0.58216214
-15.414308 -45.162132 -0.5949406
-0.65890288 -2.0110643 -0.56704777
-0.68442118 -2.0889497 -0.56947052
-0.70624137 -2.1555479 -0.56755149
-0.72734052 -2.2199454 -0.56391889
-0.75887036 -2.316179 -0.56696963
-0.78610635 -2.399307 -0.56524116
-0.81474328 -2.486711 -0.56303585
-0.85678601 -2.6150315 -0.56820267
-0.88970077 -2.715492 -0.56531125
-0.93456858 -2.8524346 -0.5679388
-0.97585291 -2.9784403 -0.56608766
-1.0241984 -3.1259978 -0.56594318
-1.0755383 -3.2826939 -0.56479406
-1.1362593 -3.4680233 -0.56558049
-1.2059199 -3.6806369 -0.56733286
-1.2790252 -3.9037647 -0.56689328
-1.3623599 -4.158114 -0.5668121
-1.4572574 -4.4477544 -0.56678414
-1.5663567 -4.7807407 -0.56683427
-1.6948037 -5.1727796 -0.56754416
-1.8427072 -5.6242013 -0.56739211
-2.0231707 -6.1750016 -0.56849957
-2.2329237 -6.8151975 -0.56742072
-2.5031071 -7.6398349 -0.5688864
-2.8421962 -8.6747828 -0.56974715
-3.2883348 -10.03646 -0.57110512
-3.8943558 -11.886122 -0.57214332
-4.7734871 -14.569353 -0.57366014
-6.1638923 -18.813066 -0.5760358
-8.7137327 -26.595535 -0.58158153
-14.829552 -45.261875 -0.59380746
-0.6348083 -2.0211864 -0.56765795
-0.65335757 -2.080246 -0.56486487
-0.67200184 -2.1396081 -0.56113642
-0.70765585 -2.2531281 -0.57009447
-0.72595668 -2.3113966 -0.56357127
-0.75564039 -2.4059074 -0.56456441
-0.79027045 -2.5161672 -0.56746209
-0.81911933 -2.6080201 -0.56444806
-0.85857683 -2.73365 -0.56685072
-0.89267772 -2.8422248 -0.56367779
-0.93908441 -2.9899807 -0.56604362
-0.98243427 -3.1280038 -0.56407666
-1.0381317 -3.3053403 -0.56645131
-1.0939915 -3.4831946 -0.56581807
-1.1590881 -3.6904578 -0.56660688
-1.2319781 -3.922534 -0.56737614
-1.3089783 -4.1676979 -0.56588167
-1.4033608 -4.468205 -0.56714833
-1.5075701 -4.8000007 -0.56687701
-1.6283516 -5.1845603 -0.56659704
-1.7718614 -5.6414862 -0.56689501
-1.9431336 -6.1868048 -0.56734353
-2.1531038 -6.8553362 -0.56851524
