# .PCD v0.7 - Point Cloud Data file format
VERSION 0.7
FIELDS x y z
SIZE 4 4 4
TYPE F F F
COUNT 1 1 1
WIDTH 1434
HEIGHT 1
VIEWPOINT 0 0 0 1 0 0 0
POINTS 1434
DATA ascii
-3.7446043 -1.1382804 -0.5732848
-3.9637725 -1.2049029 -0.57171017
-4.2231436 -1.2837462 -0.57177895
-4.5174146 -1.3731983 -0.57176346
-4.8773432 -1.4826092 -0.57437271
-5.2704611 -1.6021086 -0.57434636
-5.7516131 -1.7483686 -0.57631731
-6.3162403 -1.9200033 -0.57756549
-6.9863162 -2.1236923 -0.57772946
-7.8360863 -2.3820043 -0.57954925
-8.9110813 -2.7087798 -0.58130431
-10.348791 -3.1458132 -0.5848906
-12.323172 -3.7459831 -0.58916467
-15.195307 -4.6190515 -0.59425581
-19.871077 -6.0403867 -0.60431153
-28.648098 -8.708415 -0.62222463
-51.265106 -15.583507 -0.66801238
-18.564898 -5.6433358 2.0231023
-15.865087 -4.8226504 1.868327
-15.067444 -4.580184 1.9070674
-14.53194 -4.4174018 1.9675052
-14.114393 -4.2904768 2.0357733
-14.012928 -4.2596335 2.1453264
-2.0297062 -0.6443544 -0.57060504
-2.0953345 -0.66518891 -0.56951529
-2.170563 -0.68907106 -0.56980824
-2.2348938 -0.70949364 -0.56603068
-2.333358 -0.74075234 -0.56947917
-2.4291067 -0.77114886 -0.5705626
-2.5190749 -0.79971039 -0.56867033
-2.6371605 -0.83719808 -0.57130986
-2.7372999 -0.86898851 -0.56815946
-2.8672576 -0.91024512 -0.56919527
-3.0090067 -0.95524508 -0.57019937
-3.1512201 -1.0003923 -0.56881583
-3.3131793 -1.0518082 -0.56834686
-3.5182147 -1.1168993 -0.57206255
-3.718261 -1.1804063 -0.57143074
-3.940583 -1.2509851 -0.57054108
-4.2151155 -1.3381387 -0.57287651
-4.4984689 -1.4280927 -0.57154495
-4.8518248 -1.5402696 -0.57355458
-5.2482948 -1.6661339 -0.57412004
-5.7134175 -1.8137926 -0.57468146
-6.285409 -1.995378 -0.5769462
-6.9672813 -2.2118466 -0.5783608
-7.8192291 -2.4823077 -0.5805161
-8.8954458 -2.8239653 -0.58250552
-10.302042 -3.2705061 -0.58447719
-12.265011 -3.8936741 -0.58862859
-15.159948 -4.8127065 -0.59514242
-19.787848 -6.281888 -0.60408384
-28.520393 -9.0541391 -0.62182206
-51.051868 -16.207026 -0.66778016
-17.792868 -5.6485581 1.9463925
-16.118137 -5.1168952 1.9053928
-15.254389 -4.8426876 1.9381192
-14.684825 -4.6618729 1.9958152
-14.238296 -4.5201168 2.0615051
-14.119562 -4.4824233 2.1699262
-2.0132647 -0.6664927 -0.56824392
-2.0911415 -0.69227386 -0.57064617
-2.1557586 -0.71366543 -0.56818265
-2.2365391 -0.74040788 -0.56871027
-2.3149879 -0.7663784 -0.56725287
-2.4012802 -0.79494554 -0.56627977
-2.5125759 -0.83178997 -0.56946903
-2.6048396 -0.86233395 -0.56656224
-2.7335367 -0.90493929 -0.56964499
-2.8652568 -0.94854528 -0.57107037
-2.9822149 -0.98726434 -0.56737995
-3.1557825 -1.044724 -0.57191497
-3.3031189 -1.0934998 -0.56888461
-3.5004079 -1.1588125 -0.57144088
-3.6992614 -1.2246431 -0.57078195
-3.9385741 -1.3038677 -0.57252824
-4.1927986 -1.3880289 -0.57211983
-4.4942122 -1.487812 -0.57328516
-4.836544 -1.6011413 -0.57403225
-5.2314234 -1.7318664 -0.57456058
-5.6976409 -1.8862081 -0.57538396
-6.2435627 -2.0669358 -0.57539457
-6.9243207 -2.2923012 -0.5770908
-7.7621975 -2.5696809 -0.57858413
-8.8416033 -2.9270189 -0.58129269
-10.254765 -3.3948469 -0.58411908
-12.221239 -4.0458498 -0.588871
-15.075317 -4.9906945 -0.59418422
-19.691629 -6.5189276 -0.60354799
-28.392725 -9.3994322 -0.62151152
-50.807053 -16.81971 -0.66723275
-14.417574 -4.7729483 0.18934138
-13.782623 -4.562747 0.30169907
-13.632748 -4.5131311 0.41784343
-13.529944 -4.4790978 0.53327435
-13.465349 -4.4577136 0.64881748
-13.452696 -4.4535246 0.7662757
-13.455132 -4.4543309 0.88460994
-13.520005 -4.4758072 1.0077636
-13.650672 -4.5190649 1.1376823
-17.233891 -5.7052917 1.5882418
-17.142889 -5.6751652 1.7311978
-17.015495 -5.6329918 1.8687903
-16.387224 -5.4250026 1.9449415
-15.422785 -5.1057239 1.9673424
-14.805918 -4.9015098 2.0203116
-14.380604 -4.7607093 2.0904272
-14.238217 -4.713572 2.1969028
-2.0111847 -0.69335711 -0.5700202
-2.0712676 -0.71407074 -0.56757605
-2.1492331 -0.74094933 -0.56882107
-2.2329006 -0.76979381 -0.57014894
-2.3111989 -0.79678714 -0.56868213
-2.3960936 -0.82605463 -0.5674091
-2.494585 -0.86000961 -0.56774539
-2.6114104 -0.90028524 -0.57035613
-2.7186594 -0.93725938 -0.56890339
-2.8547666 -0.98418242 -0.57134843
-2.974689 -1.0255258 -0.56830436
-3.1326389 -1.0799791 -0.57008433
-3.2983608 -1.1371118 -0.57043016
-3.4799116 -1.1997015 -0.57046002
-3.682327 -1.2694844 -0.57053447
-3.9293451 -1.3546439 -0.57356471
-4.1784072 -1.4405082 -0.57252979
-4.4783535 -1.5439149 -0.57364053
-4.8307643 -1.6654087 -0.5757333
-5.2245159 -1.801155 -0.57619089
-5.6637301 -1.9525741 -0.5743407
-6.2358832 -2.1498244 -0.57707947
-6.8955579 -2.3772476 -0.57708621
-7.7618465 -2.6759009 -0.58096665
-8.8044834 -3.0353508 -0.58126217
-10.220407 -3.5234909 -0.58458573
-12.162308 -4.1929626 -0.58847123
-15.025518 -5.1800561 -0.59468704
-19.616753 -6.7628865 -0.60375619
-28.277632 -9.7487297 -0.62156922
-50.549271 -17.426889 -0.66661119
-14.223288 -4.9034863 -0.062519632
-13.544526 -4.6694832 0.059536085
-13.328893 -4.5951433 0.17577283
-13.156963 -4.5358706 0.28920254
-13.035618 -4.4940367 0.40120482
-12.951421 -4.4650097 0.51259744
-12.901398 -4.4477639 0.62423199
-12.865974 -4.4355521 0.73590666
-12.855245 -4.4318528 0.8486889
-12.914666 -4.4523387 0.96665025
-12.97672 -4.4737315 1.0860161
-13.090159 -4.5128403 1.2113861
-13.287632 -4.5809188 1.3474561
-13.637048 -4.7013803 1.5039753
-16.030796 -5.5266266 1.9105597
-15.711186 -5.4164405 2.012475
-14.958644 -5.157001 2.0496495
-14.480518 -4.992167 2.1137147
-14.365417 -4.9524856 2.2257571
-1.9948817 -0.71529895 -0.56784952
-2.0728464 -0.74325448 -0.57046992
-2.1427042 -0.76830322 -0.56955045
-2.1977491 -0.78804046 -0.56360501
-2.3046687 -0.82637829 -0.56953257
-2.3850224 -0.85519052 -0.56723469
-2.4873016 -0.89186454 -0.56854075
-2.5966094 -0.93105865 -0.56958085
-2.7114861 -0.97224963 -0.56986094
-2.8300302 -1.0147556 -0.56885201
-2.9583437 -1.0607647 -0.56763065
-3.1218491 -1.1193923 -0.57058257
-3.2871146 -1.1786511 -0.5709486
-3.4642015 -1.2421486 -0.5703454
-3.6694458 -1.3157425 -0.57100224
-3.8976855 -1.3975818 -0.57140875
-4.1557484 -1.4901146 -0.5718925
-4.4543285 -1.5971756 -0.57303554
-4.7922282 -1.7183354 -0.57361543
-5.1871996 -1.8599591 -0.57455432
-5.6505857 -2.026114 -0.57549071
-6.1993065 -2.2228673 -0.57618052
-6.8727336 -2.4643362 -0.57766843
-7.699945 -2.760947 -0.57883078
-8.7762022 -3.1468573 -0.58190566
-10.17977 -3.6501305 -0.58478445
-12.107786 -4.3414536 -0.58837175
-14.962176 -5.364944 -0.59474605
-19.541855 -7.0070662 -0.60405725
-28.124859 -10.084649 -0.6208899
-13.632494 -4.8881636 -0.18055554
-13.259029 -4.7542515 -0.058533698
-13.006692 -4.6637716 0.057419725
-12.795653 -4.5881 0.16947201
-12.65712 -4.5384264 0.27942106
-12.525647 -4.4912848 0.38717961
-12.44611 -4.4627652 0.4947325
-12.405666 -4.4482636 0.6028471
-12.353192 -4.4294481 0.70963836
-12.356006 -4.4304571 0.81926441
-12.368448 -4.4349184 0.92977786
-12.40857 -4.4493051 1.0429678
-12.499161 -4.4817877 1.1617062
-12.615615 -4.5235443 1.2848525
-12.826917 -4.5993099 1.420759
-13.18693 -4.7283988 1.578436
-15.253654 -5.4694581 1.9623351
-15.062922 -5.4010677 2.072881
-14.606064 -5.2372537 2.141279
-14.517982 -5.2056708 2.2591424
-1.9822465 -0.73839867 -0.56679457
-2.0432355 -0.76111746 -0.56485373
-2.1238089 -0.79113144 -0.56707084
-2.2135634 -0.82456559 -0.57021761
-2.3021321 -0.85755801 -0.57146847
-2.3839371 -0.88803083 -0.56953061
-2.4677451 -0.91924977 -0.56661141
-2.593925 -0.96625257 -0.57155508
-2.6927533 -1.0030667 -0.56847322
-2.8149507 -1.048586 -0.56836975
-2.9546218 -1.1006143 -0.56947023
-3.1015744 -1.155355 -0.56943047
-3.2658541 -1.2165502 -0.56981105
-3.4592113 -1.288577 -0.57208931
-3.652982 -1.3607577 -0.57100093
-3.880034 -1.4453359 -0.5713833
-4.1412244 -1.5426308 -0.57246095
-4.4206157 -1.6467059 -0.57126021
-4.7669706 -1.7757251 -0.57316244
-5.1603451 -1.9222594 -0.5741545
-5.6197639 -2.0933955 -0.57492977
-6.1743159 -2.2999697 -0.57644284
-6.8454747 -2.5499802 -0.57796907
-7.6678553 -2.8563218 -0.57901496
-8.7368402 -3.2545252 -0.58190525
-10.126393 -3.7721422 -0.58433861
-12.047202 -4.4876547 -0.58806479
-14.880308 -5.5430036 -0.59415627
-19.430004 -7.2377925 -0.60330528
-13.535796 -5.0421648 -0.30016494
-13.069659 -4.868526 -0.17388082
-12.745199 -4.747663 -0.056518782
-12.503059 -4.6574645 0.055445012
-12.333085 -4.5941477 0.16408132
-12.180197 -4.5371962 0.27010366
-12.088235 -4.5029397 0.37534195
-12.005954 -4.4722896 0.47938606
-11.947305 -4.4504428 0.58318847
-11.90546 -4.434855 0.68699878
-11.904202 -4.4343863 0.79286307
-11.913637 -4.437901 0.89962238
-11.944747 -4.4494896 1.0085049
-12.014277 -4.47539 1.1216698
-12.095299 -4.5055714 1.2374094
-12.221561 -4.5526047 1.3598053
-12.432569 -4.631206 1.4948447
-12.823334 -4.7767687 1.6571132
-14.58182 -5.4318151 2.0157137
-14.500228 -5.4014215 2.1353388
-14.621038 -5.4464245 2.2854276
-1.9819717 -0.76617706 -0.56936687
-2.0442085 -0.79023618 -0.56776613
-2.1116295 -0.8162992 -0.56645614
-2.1934433 -0.84792632 -0.56767762
-2.2922707 -0.88613027 -0.5716821
-2.3586493 -0.91179049 -0.56612498
-2.4649112 -0.95286852 -0.56860805
-2.5707428 -0.99378014 -0.56909662
-2.6739795 -1.0336887 -0.56715035
-2.8045764 -1.0841739 -0.56892383
-2.9440141 -1.1380768 -0.57007986
-3.0991025 -1.1980298 -0.57163805
-3.2625825 -1.2612268 -0.57190281
-3.4367568 -1.328558 -0.57103437
-3.6366742 -1.4058406 -0.57111079
-3.8545105 -1.4900503 -0.57027972
-4.1232224 -1.593927 -0.57263845
-4.4133463 -1.7060812 -0.57298851
-4.744173 -1.83397 -0.57308948
-5.1294122 -1.982893 -0.57338238
-5.5909386 -2.1613069 -0.57465631
-6.1364012 -2.3721681 -0.5755828
-6.8102093 -2.6326442 -0.57768112
-7.649446 -2.9570704 -0.58032674
-8.699502 -3.362994 -0.5821287
-10.078855 -3.8962147 -0.58431584
-11.989082 -4.6346574 -0.58796519
-14.814837 -5.7270184 -0.59430903
-14.209594 -5.4930477 -0.44327435
-12.988827 -5.021132 -0.28938285
-12.57108 -4.859642 -0.16802995
-12.291626 -4.7516127 -0.054762367
-12.083862 -4.6712971 0.053836726
-11.916938 -4.6067686 0.15928644
-11.796522 -4.5602188 0.26281908
-11.692605 -4.5200472 0.36475578
-11.632036 -4.4966331 0.4666284
-11.580315 -4.4766388 0.56791854
-11.561346 -4.469306 0.67026246
-11.552558 -4.4659085 0.77304137
-11.553885 -4.4664221 0.8765378
-11.559553 -4.4686131 0.98054785
-11.601 -4.4846349 1.0881518
-11.664184 -4.5090599 1.1988857
-11.766853 -4.5487494 1.3153371
-11.909286 -4.6038098 1.438625
-12.114684 -4.6832118 1.5728598
-12.571154 -4.8596706 1.7458982
-14.247115 -5.5075521 2.1078787
-14.787692 -5.7165246 2.3222895
-1.9582566 -0.78481972 -0.56528372
-2.0428717 -0.81873131 -0.57014787
-2.110208 -0.84571797 -0.56882149
-2.1894827 -0.87748921 -0.56940204
-2.2840393 -0.91538513 -0.57239318
-2.3602188 -0.945916 -0.56925046
-2.4687529 -0.98941374 -0.57225752
-2.5561426 -1.0244373 -0.56861019
-2.6774421 -1.073051 -0.57064021
-2.7882061 -1.1174425 -0.56834739
-2.9298053 -1.1741918 -0.57008123
-3.0665579 -1.2289988 -0.56837964
-3.2331827 -1.2957778 -0.56949925
-3.425936 -1.3730285 -0.57199842
-3.6163261 -1.449332 -0.5706709
-3.8298161 -1.5348934 -0.56937546
-4.0962591 -1.641677 -0.57165414
-4.3930078 -1.7606063 -0.57311535
-4.7295532 -1.8954853 -0.57409555
-5.1104026 -2.04812 -0.57402921
-5.5781488 -2.2355809 -0.57612365
-6.1180377 -2.4519546 -0.57664478
-6.780344 -2.7173905 -0.5779385
-7.595109 -3.0439277 -0.57900029
-8.6589556 -3.4702902 -0.58222687
-10.033981 -4.0213656 -0.58453691
-11.946688 -4.78793 -0.5887289
-14.721408 -5.8999677 -0.59342653
-13.232181 -5.303123 -0.4147864
-12.504371 -5.0114355 -0.27994123
-12.124739 -4.8592887 -0.16285034
-11.880334 -4.7613373 -0.053186778
-11.701259 -4.6895685 0.052385077
-11.565944 -4.6353378 0.15534502
-11.456242 -4.5913715 0.25647625
-11.413802 -4.5743632 0.35778606
-11.367351 -4.5557466 0.45822299
-11.328793 -4.5402932 0.55827922
-11.315504 -4.5349674 0.65919292
-11.295897 -4.5271096 0.75953448
-11.297165 -4.5276179 0.86122018
-11.313547 -4.5341835 0.96433669
-11.320808 -4.5370936 1.0670227
-11.369104 -4.5564494 1.1742265
-11.43631 -4.5833836 1.2845908
-11.542306 -4.6258645 1.4010597
-11.675327 -4.6791759 1.5231726
-11.89105 -4.7656322 1.6594577
-12.461679 -4.9943256 1.8526672
-13.783843 -5.5242152 2.1751461
-1.950545 -0.80970418 -0.56588894
-2.0143836 -0.83620465 -0.56502408
-2.0934603 -0.86903077 -0.56714469
-2.1735096 -0.90226066 -0.56809044
-2.2655942 -0.94048655 -0.57062578
-2.3425488 -0.97243166 -0.56782979
-2.4494562 -1.0168107 -0.57063967
-2.5371852 -1.0532285 -0.56723118
-2.6577113 -1.1032609 -0.56928331
-2.7677517 -1.1489406 -0.56701493
-2.9062359 -1.2064277 -0.56833875
-3.069243 -1.2740947 -0.57173795
-3.2110224 -1.3329498 -0.56844002
-3.4075553 -1.4145339 -0.5717904
-3.6083293 -1.4978786 -0.57227224
-3.8228786 -1.5869416 -0.57120198
-4.0829091 -1.6948847 -0.57265633
-4.3684998 -1.8134382 -0.57278383
-4.7059689 -1.9535272 -0.5741052
-5.087347 -2.1118438 -0.57431298
-5.5517678 -2.3046327 -0.57628232
-6.0791941 -2.5235763 -0.57586491
-6.760201 -2.8062737 -0.57911909
-7.5627389 -3.1394207 -0.57943165
-8.6128778 -3.5753512 -0.58204079
-9.9678001 -4.1378026 -0.58360142
-11.873563 -4.9289165 -0.58806759
-14.645709 -6.0796814 -0.59334373
-12.701025 -5.2724104 -0.40013841
-12.083702 -5.016149 -0.27188385
-11.755674 -4.8799791 -0.15868731
-11.552884 -4.7957978 -0.051980905
-11.416574 -4.739213 0.051367592
-11.322357 -4.7001019 0.15283805
-11.273547 -4.6798401 0.25365534
-11.241625 -4.6665888 0.35416088
-11.239041 -4.6655159 0.45532891
-11.240589 -4.6661587 0.55671805
-11.279655 -4.6823759 0.66040879
-11.324383 -4.700943 0.76527882
-11.299227 -4.6905003 0.86570883
-11.226939 -4.6604924 0.96176654
-11.21048 -4.6536593 1.0619371
-11.206517 -4.6520147 1.1632543
-11.219922 -4.6575794 1.2666223
-11.268801 -4.6778698 1.3747387
-11.363542 -4.7171984 1.4899516
-11.515237 -4.7801695 1.6150917
-11.786044 -4.8925862 1.7610321
-13.279656 -5.51261 2.1061211
-13.387227 -5.5572643 2.246387
-1.9485363 -0.83710343 -0.56824952
-2.0123777 -0.86453015 -0.5674004
-2.0869844 -0.89658165 -0.56833404
-2.1540418 -0.92538989 -0.56593341
-2.2424855 -0.96338588 -0.56774622
-2.3251216 -0.99888688 -0.56653988
-2.4333711 -1.0453916 -0.56984401
-2.5300016 -1.0869046 -0.5685702
-2.6348529 -1.1319494 -0.56732559
-2.7757292 -1.1924707 -0.57160997
-2.8966486 -1.2444185 -0.56941324
-3.0496175 -1.3101349 -0.57103992
-3.2045197 -1.3766818 -0.57024252
-3.383405 -1.4535321 -0.57069397
-3.5803888 -1.5381576 -0.57079744
-3.80812 -1.6359924 -0.57195938
-4.0621033 -1.7451051 -0.57270455
-4.3398833 -1.8644413 -0.57199448
-4.6788197 -2.0100505 -0.5737651
-5.054574 -2.1714768 -0.5735842
-5.5128961 -2.3683748 -0.57522684
-6.0501437 -2.5991797 -0.57609701
-6.7162647 -2.8853495 -0.5783509
-7.5159116 -3.228883 -0.57884216
-8.556942 -3.6761162 -0.58127159
-9.9211855 -4.2622037 -0.58389658
-11.809271 -5.0733371 -0.58792865
-14.585056 -6.2658319 -0.59396303
-12.353318 -5.3070631 -0.39121044
-11.715282 -5.032959 -0.26496685
-11.466268 -4.9259806 -0.15558656
-11.329701 -4.867311 -0.051242135
-11.262758 -4.8385515 0.050939362
-11.267509 -4.8405924 0.15288958
-11.536488 -4.9561477 0.260923
-11.477432 -4.9307771 0.36347249
-11.445078 -4.9168777 1.1942029
-11.425694 -4.9085503 1.2965678
-11.208838 -4.8153877 1.3745433
-11.197771 -4.8106332 1.4758607
-11.26897 -4.8412204 1.5887805
-11.450019 -4.9190001 1.7197319
-11.780122 -5.0608144 1.8780261
-12.883629 -5.5348883 2.1731391
-1.9382275 -0.86105675 -0.56828797
-2.0013473 -0.88909769 -0.56733
-2.0838368 -0.92574358 -0.57053369
-2.1543071 -0.95705009 -0.56905204
-2.2225804 -0.98738039 -0.56573778
-2.3170857 -1.0293643 -0.56762314
-2.4038055 -1.0678896 -0.5659526
-2.5121586 -1.1160254 -0.56760144
-2.6197195 -1.1638093 -0.56710559
-2.7542818 -1.2235886 -0.5702486
-2.8740733 -1.2768059 -0.56801879
-3.0199673 -1.3416193 -0.56853402
-3.1891367 -1.4167726 -0.57056212
-3.3610804 -1.4931586 -0.56998229
-3.5675833 -1.5848974 -0.57181966
-3.7897015 -1.6835732 -0.57225907
-4.0364695 -1.7931999 -0.57215607
-4.3252859 -1.9215065 -0.5731414
-4.6538124 -2.0674543 -0.57377261
-5.0268517 -2.2331767 -0.57351112
-5.4790235 -2.4340539 -0.57477206
-6.0174828 -2.673264 -0.57607353
-6.6632309 -2.9601376 -0.57687485
-7.4644189 -3.3160648 -0.57797307
-8.5131092 -3.781945 -0.5814091
-9.872098 -4.3856754 -0.58413732
-11.74937 -5.2196527 -0.58809739
-14.484523 -6.4347429 -0.59304637
-11.851502 -5.2650251 -0.37734044
-11.467565 -5.094461 -0.26076129
-11.299306 -5.019712 -0.15414694
-11.258853 -5.0017409 -0.051196001
-11.383355 -5.0570507 0.051762134
-11.504831 -5.1110168 0.15695076
-14.567461 -6.4715881 1.2611903
-14.369002 -6.3834233 1.3755922
-14.125943 -6.2754445 1.4818695
-13.850393 -6.1530313 1.5801848
-11.435555 -5.0802402 1.4098995
-11.347416 -5.0410848 1.5036401
-11.180621 -4.9669862 1.5848156
-11.226661 -4.9874396 1.6952678
-11.432127 -5.0787177 1.8323652
-12.626066 -5.6091247 2.1411667
-1.9286501 -0.88535404 -0.56862891
-1.9941316 -0.9154135 -0.56843245
-2.0735137 -0.95185417 -0.57086879
-2.1506665 -0.98727143 -0.5712539
-2.2169845 -1.017715 -0.56745595
-2.3105774 -1.0606792 -0.56918079
-2.3954263 -1.0996294 -0.56712049
-2.5091317 -1.1518263 -0.5700745
-2.6148145 -1.2003404 -0.56919593
-2.7283316 -1.2524508 -0.56802148
-2.8746307 -1.3196099 -0.5712927
-3.008008 -1.3808373 -0.56943607
-3.1528606 -1.4473325 -0.56721318
-3.3557241 -1.5404576 -0.57224292
-3.5415146 -1.6257455 -0.57080239
-3.7532492 -1.7229431 -0.56991076
-3.9995127 -1.8359911 -0.5700745
-4.2927489 -1.9706025 -0.57199758
-4.6301236 -2.1254756 -0.57403094
-5.0086293 -2.2992299 -0.57461423
-5.4415822 -2.4979787 -0.57402319
-5.9800897 -2.7451825 -0.57568187
-6.6358013 -3.0461893 -0.57769936
-7.4257236 -3.4088061 -0.57817882
-8.4685574 -3.8875227 -0.5815872
-9.8110523 -4.5037999 -0.583758
-11.682609 -5.3629451 -0.58801216
-14.407564 -6.6138458 -0.59318036
-11.583097 -5.3172636 -0.37084836
-11.322075 -5.1974406 -0.25888667
-11.252548 -5.165524 -0.15436392
-11.44294 -5.252924 -0.052322835
-11.536671 -5.2959518 0.052751418
-13.918298 -6.3892465 0.190933
-14.161343 -6.5008168 0.32380837
-14.334299 -6.5802135 0.4589318
-14.385664 -6.6037927 0.59227872
-14.40526 -6.6127882 0.72504932
-14.395841 -6.6084642 0.85655308
-14.378466 -6.6004882 0.98745638
-14.229137 -6.5319386 1.1079035
-14.138494 -6.4903288 1.2308686
-13.92861 -6.3939805 1.3408575
-13.666983 -6.2738795 1.4417067
-13.356179 -6.1312037 1.5322857
-12.927814 -5.9345613 1.6027573
-11.440802 -5.2519426 1.5244569
-11.346012 -5.2084289 1.6172152
-11.154881 -5.1206899 1.6938089
-11.244761 -5.1619496 1.8123705
-11.679838 -5.3616729 1.9917325
-1.9187493 -0.90953696 -0.56896424
-1.975499 -0.93643785 -0.56636071
-2.0588555 -0.9759509 -0.57009399
-2.1314974 -1.010385 -0.56941932
-2.212333 -1.0487033 -0.56952298
-2.2873242 -1.084251 -0.56669414
-2.3927665 -1.1342335 -0.56974971
-2.472652 -1.1721013 -0.56501818
-2.5997171 -1.2323333 -0.56916511
-2.726341 -1.2923564 -0.57087237
-2.8612618 -1.3563124 -0.5719071
-2.9909501 -1.4177879 -0.56946415
-3.1412027 -1.4890116 -0.56836689
-3.3276629 -1.5773985 -0.57072222
-3.5199876 -1.6685654 -0.57059652
-3.7347114 -1.7703501 -0.57035828
-3.9853129 -1.8891417 -0.57131845
-4.273149 -2.0255835 -0.57266152
-4.5951562 -2.1782234 -0.57297307
-4.9612775 -2.3517742 -0.57245624
-5.4173059 -2.5679436 -0.57474983
-5.9369774 -2.8142812 -0.57481951
-6.5946469 -3.1260338 -0.57741934
-7.3933148 -3.5046232 -0.57896703
-8.405612 -3.9844782 -0.58058524
-9.7484503 -4.6210184 -0.58337003
-11.598781 -5.4981227 -0.58715135
-14.32103 -6.7885399 -0.59300959
-11.450313 -5.4277453 -0.36870608
-11.264067 -5.3394599 -0.25904197
-11.314654 -5.3634396 -0.15610883
-11.473685 -5.4388247 -0.052765228
-12.769608 -6.0531259 0.058724925
-13.17281 -6.2442536 0.18174587
-13.610779 -6.4518623 0.31300977
-13.787222 -6.535501 0.44395578
-13.921812 -6.5992999 0.57647866
-13.908287 -6.5928888 0.70406276
-13.917303 -6.5971627 0.8328439
-13.906696 -6.592135 0.96055144
-13.880334 -6.5796385 1.0869625
-13.691628 -6.4901872 1.1988225
-13.491916 -6.3955183 1.3062904
-13.248927 -6.2803354 1.4056468
-12.996247 -6.1605582 1.49957
-12.617984 -5.9812517 1.5733448
-12.127594 -5.7487946 1.6252666
-11.420669 -5.413693 1.6372211
-11.210608 -5.3141193 1.7120636
-11.176975 -5.2981768 1.8118086
-11.404361 -5.4059629 1.9559439
-1.9001615 -0.9295091 -0.56679881
-1.9610181 -0.95927852 -0.56554812
-2.03462 -0.99528271 -0.56672925
-2.1096587 -1.0319896 -0.56693238
-2.178699 -1.0657623 -0.56419551
-2.2879906 -1.1192249 -0.57022583
-2.3748202 -1.1616997 -0.56883478
-2.4736378 -1.2100387 -0.56860048
-2.5968442 -1.270308 -0.57191271
-2.697665 -1.3196268 -0.56822264
-2.8292608 -1.3840001 -0.56886935
-2.9588194 -1.4473767 -0.56669235
-3.136512 -1.5342994 -0.57088864
-3.3052518 -1.6168424 -0.57024527
-3.5023596 -1.7132624 -0.57111084
-3.7287118 -1.823988 -0.572824
-3.9664543 -1.9402852 -0.57199198
-4.2424731 -2.0753064 -0.57192713
-4.5604262 -2.2308407 -0.57201976
-4.9223738 -2.407896 -0.57134056
-5.3723664 -2.6280205 -0.57336712
-5.9142261 -2.8930843 -0.57601756
-6.5443501 -3.2013242 -0.57641858
-7.3408184 -3.5909355 -0.57827014
-8.357132 -4.0880895 -0.58066487
-9.6934872 -4.7417994 -0.58352602
-11.537487 -5.6438355 -0.5875172
-14.224281 -6.9581447 -0.59250152
-11.363645 -5.5587969 -0.36808854
-11.265554 -5.5108137 -0.26061484
-11.403642 -5.578362 -0.15827101
-11.507234 -5.6290369 -0.053233806
-12.364932 -6.0485997 0.057201616
-12.760645 -6.2421722 0.17710485
-12.990464 -6.3545942 0.30051854
-13.172297 -6.4435415 0.42667395
-13.28969 -6.500967 0.55357182
-13.383861 -6.5470328 0.68153912
-13.413683 -6.5616212 0.80747336
-13.384343 -6.5472693 0.9299624
-13.305521 -6.5087118 1.0481373
-13.220298 -6.4670224 1.1644281
-13.080793 -6.3987803 1.2740071
-12.885812 -6.3034005 1.3752414
-12.737006 -6.2306089 1.4783859
-12.436263 -6.0834932 1.5598955
-11.921646 -5.8317561 1.6071553
-11.432912 -5.5926805 1.6487103
-11.320511 -5.5376964 1.7391154
-11.156077 -5.4572601 1.8191612
-11.307633 -5.5313973 1.9508723
-1.8963125 -0.95669883 -0.56911671
-1.9538695 -0.98573661 -0.56693929
-2.0359924 -1.027168 -0.5705865
-2.1061983 -1.0625873 -0.5694707
-2.1819477 -1.1008033 -0.56849915
-2.2692163 -1.1448307 -0.56901222
-2.3692856 -1.1953161 -0.57098657
-2.4666059 -1.2444147 -0.57045829
-2.5782399 -1.3007345 -0.57129472
-2.6791854 -1.351662 -0.56778818
-2.8048546 -1.4150628 -0.5674178
-2.9562671 -1.4914511 -0.569673
-3.1069419 -1.5674672 -0.56897163
-3.2865968 -1.6581041 -0.57050127
-3.4879146 -1.7596699 -0.57224047
-3.7006183 -1.86698 -0.57199168
-3.9391384 -1.9873145 -0.57153362
-4.2158823 -2.1269331 -0.57182503
-4.5402622 -2.2905843 -0.57298017
-4.9056559 -2.4749272 -0.57288909
-5.360373 -2.7043343 -0.57559264
-5.8803592 -2.9666698 -0.57622844
-6.5116115 -3.2851396 -0.57704937
-7.297246 -3.6814961 -0.57836008
-8.3019581 -4.1883779 -0.5803659
-9.6351109 -4.86096 -0.58356595
-11.458811 -5.7810259 -0.58708638
-14.135574 -7.1314659 -0.59241444
-11.344065 -5.7231359 -0.36970592
-11.255796 -5.6786036 -0.26198465
-11.402208 -5.75247 -0.15922083
-11.488332 -5.7959194 -0.05347202
-11.821584 -5.9640465 0.05502313
-12.350419 -6.2308464 0.17246166
-12.609637 -6.3616233 0.29349604
-12.76125 -6.4381127 0.41589233
-12.867633 -6.4917831 0.53927571
-12.93272 -6.5246201 0.66260135
-12.967275 -6.5420532 0.78538382
-12.957529 -6.5371366 0.90582347
-12.911201 -6.5137634 1.0233071
-12.85137 -6.4835782 1.1388693
-12.76432 -6.4396615 1.2508019
-12.621327 -6.3675208 1.3552681
-12.410312 -6.2610626 1.4492929
-12.048818 -6.0786867 1.5205584
-11.644025 -5.8744674 1.5793478
-11.436683 -5.7698622 1.6593601
-11.326351 -5.7141995 1.7506747
-11.155412 -5.6279597 1.8301991
-11.314634 -5.7082882 1.9640417
-1.8754687 -0.97529513 -0.56641757
-1.9558018 -1.0170705 -0.57108569
-2.0178435 -1.0493338 -0.56907332
-2.0806539 -1.081997 -0.56611854
-2.1689339 -1.1279051 -0.56867903
-2.2505577 -1.1703517 -0.56789929
-2.342392 -1.2181081 -0.56807214
-2.4378729 -1.2677606 -0.56737554
-2.5617607 -1.3321857 -0.57122982
-2.6714165 -1.3892097 -0.5697189
-2.7891157 -1.4504166 -0.56779885
-2.9267983 -1.5220153 -0.56755793
-3.0923693 -1.6081167 -0.56988114
-3.2730162 -1.7020581 -0.57173365
-3.4479613 -1.7930343 -0.56925982
-3.6779261 -1.9126223 -0.5720762
-3.9124517 -2.0345821 -0.57124835
-4.1815581 -2.1745248 -0.57075304
-4.5066376 -2.343575 -0.5723303
-4.8800597 -2.5377648 -0.57350081
-5.3198166 -2.7664504 -0.57484704
-5.847568 -3.0408955 -0.57663572
-6.465457 -3.3622148 -0.57657945
-7.2574415 -3.7740684 -0.57883972
-8.242012 -4.2860723 -0.5798158
-9.5803843 -4.9820623 -0.58391768
-11.383923 -5.9199519 -0.58693475
-14.040487 -7.3014379 -0.59214735
-11.429696 -5.9437551 -0.37485024
-11.262003 -5.8565502 -0.26378536
-11.363237 -5.9091949 -0.15967922
-11.48931 -5.9747562 -0.053814463
-11.564652 -6.013936 0.054167356
-11.864244 -6.1697321 0.1667195
-12.167649 -6.3275108 0.28499794
-12.372313 -6.4339418 0.40576446
-12.498728 -6.499681 0.52712476
-12.54289 -6.522646 0.646689
-12.575941 -6.539834 0.76649469
-12.566947 -6.5351567 0.88406986
-12.508647 -6.5048389 0.99766588
-12.496295 -6.4984159 1.1144003
-12.330602 -6.4122505 1.2159355
-12.25023 -6.3704553 1.3237314
-12.017104 -6.2492232 1.4122407
-11.749506 -6.110065 1.4921541
-11.48624 -5.9731598 1.5677904
-11.423835 -5.9407072 1.6679686
-11.242137 -5.8462191 1.7486373
-11.139395 -5.7927904 1.8391186
-1.8717538 -1.0027915 -0.5689767
-1.9334605 -1.0358509 -0.56823838
-1.9976308 -1.0702301 -0.56704152
-2.0695364 -1.1087536 -0.56676036
-2.1504736 -1.1521156 -0.56751043
-2.2352052 -1.1975105 -0.567698
-2.3323147 -1.249537 -0.56931144
-2.4258649 -1.2996565 -0.56825733
-2.5386662 -1.3600898 -0.56976634
-2.6378706 -1.4132384 -0.56622803
-2.7765517 -1.4875368 -0.56892186
-2.9164288 -1.5624759 -0.56922978
-3.0775642 -1.6488042 -0.57084596
-3.2408111 -1.7362636 -0.56979436
-3.4383287 -1.8420836 -0.57136595
-3.6628392 -1.962365 -0.57343942
-3.9009559 -2.089936 -0.57327873
-4.1477752 -2.2221694 -0.56982845
-4.4805603 -2.4004591 -0.57272387
-4.8353691 -2.5905478 -0.57194912
-5.2645884 -2.8205016 -0.57258356
-5.807179 -3.1111946 -0.57638186
-6.4167929 -3.4377949 -0.57596588
-7.2079291 -3.8616459 -0.5786342
-8.1965437 -4.3912959 -0.58037192
-9.5022774 -5.0908422 -0.58292836
-11.316625 -6.0628786 -0.58726436
-13.967628 -7.4831529 -0.59291047
-18.204479 -9.7530451 -0.60092491
-11.271237 -6.0385623 -0.26572075
-11.271851 -6.0388904 -0.15942644
-11.415748 -6.115984 -0.053818088
-11.469181 -6.1446104 0.054069992
-11.560231 -6.1933904 0.16350524
-11.741417 -6.2904611 0.27680531
-11.909962 -6.3807588 0.39314461
-12.058343 -6.4602537 0.51186341
-12.135895 -6.5018024 0.62977952
-12.127613 -6.497365 0.74398267
-12.145173 -6.506773 0.85996217
-12.129511 -6.4983821 0.97372633
-12.09018 -6.4773107 1.0852044
-12.011856 -6.4353485 1.1922168
-11.84285 -6.3448033 1.288044
-11.64749 -6.2401395 1.3777173
-11.494204 -6.1580162 1.4692369
-11.414137 -6.1151204 1.5680937
-11.342673 -6.0768342 1.6669027
-11.188146 -5.9940462 1.7515713
-11.178201 -5.9887176 1.857543
-1.8449864 -1.0178431 -0.56460184
-1.9084069 -1.0528309 -0.56463736
-1.995623 -1.1009464 -0.57027125
-2.0557382 -1.1341108 -0.5667578
-2.1418695 -1.1816278 -0.56903124
-2.229382 -1.2299067 -0.57001698
-2.3094556 -1.2740818 -0.56751287
-2.4208128 -1.3355154 -0.57087761
-2.5179198 -1.3890874 -0.56890064
-2.6257668 -1.4485844 -0.56741047
-2.7630565 -1.5243247 -0.56995428
-2.9035897 -1.601854 -0.57052517
-3.05952 -1.6878777 -0.57130551
-3.2140796 -1.7731452 -0.56888491
-3.4085798 -1.8804473 -0.57022178
-3.6219273 -1.9981469 -0.57083786
-3.8655872 -2.1325693 -0.57189149
-4.1356359 -2.2815499 -0.57197177
-4.4488792 -2.4543602 -0.57248867
-4.8146768 -2.6561637 -0.57332152
-5.2444968 -2.8932869 -0.57422441
-5.7498999 -3.1721082 -0.57452476
-6.3800721 -3.5197618 -0.57651114
-7.1628447 -3.9516022 -0.57887197
-8.1478939 -4.4950347 -0.58079696
-9.446703 -5.2115622 -0.58340627
-11.234869 -6.1980591 -0.58693242
-13.850766 -7.6411986 -0.59189355
-18.053713 -9.9598818 -0.59994555
-25.979879 -14.332594 -0.61658698
-11.236921 -6.1991911 -0.15999848
-11.289352 -6.228116 -0.053579204
-11.391798 -6.2846336 0.054065414
-11.45835 -6.3213487 0.16315131
-11.506375 -6.3478436 0.27308372
-11.558081 -6.3763685 0.38408825
-11.641511 -6.4223952 0.49748406
-11.711094 -6.4607825 0.61181134
-11.744931 -6.4794507 0.72533953
-11.749543 -6.4819942 0.83752918
-11.725275 -6.4686065 0.94758904
-11.669772 -6.4379864 1.0544949
-11.595137 -6.3968115 1.1585754
-11.507259 -6.348331 1.2599396
-11.421079 -6.300787 1.3599979
-11.417622 -6.2988796 1.4692372
-11.339793 -6.2559433 1.5683299
-11.203067 -6.1805139 1.6574296
-11.140584 -6.1460433 1.7558241
-1.8396479 -1.0446055 -0.56685609
-1.9045882 -1.0814805 -0.56739926
-1.9734254 -1.1205682 -0.56782264
-2.0455275 -1.1615099 -0.56783748
-2.1235271 -1.2058003 -0.56805438
-2.2035809 -1.2512572 -0.56731117
-2.2966075 -1.3040805 -0.56825322
-2.3845441 -1.3540134 -0.56620818
-2.4962332 -1.4174336 -0.56789583
-2.606519 -1.4800572 -0.56714112
-2.7486198 -1.5607462 -0.57089192
-2.8817377 -1.6363343 -0.57014197
-3.0445864 -1.7288045 -0.57244325
-3.1999099 -1.8170017 -0.57028842
-3.3873363 -1.9234279 -0.57058144
-3.59021 -2.0386255 -0.56974679
-3.8439744 -2.1827202 -0.57262152
-4.1103606 -2.333982 -0.57240212
-4.421617 -2.5107224 -0.57291001
-4.7811465 -2.7148738 -0.57326072
-5.2113924 -2.9591799 -0.5745405
-5.7212777 -3.2487078 -0.57561284
-6.3460727 -3.6034842 -0.57739913
-7.1154041 -4.0403328 -0.57900929
-8.0796928 -4.5878839 -0.57991296
-9.3810158 -5.3268132 -0.58335072
-11.15114 -6.3319411 -0.58658147
-13.752166 -7.8088789 -0.59173858
-17.944622 -10.189477 -0.60043865
-25.796413 -14.647952 -0.61646092
-45.830353 -26.023804 -0.65706855
-11.235219 -6.3796835 -0.053690542
-11.262569 -6.3952136 0.053821243
-11.334135 -6.4358511 0.16249721
-11.386143 -6.4653821 0.27209646
-11.457707 -6.5060186 0.38338226
-11.441949 -6.4970708 0.49233288
-11.475517 -6.5161319 0.60364461
-11.458708 -6.5065866 0.71255022
-11.462528 -6.5087562 0.82271308
-11.454102 -6.5039711 0.93206668
-11.429366 -6.4899259 1.039904
-11.421916 -6.4856958 1.1491492
-11.411143 -6.479578 1.2580445
-11.361198 -6.4512186 1.3622108
-11.265878 -6.3970923 1.4597226
-11.191796 -6.3550272 1.5585513
-11.153019 -6.3330078 1.6614207
-16.802277 -9.5408211 2.6664302
-1.8425491 -1.0764256 -0.57178533
-1.8849269 -1.1011829 -0.5655331
-1.9672699 -1.1492881 -0.57007468
-2.0419812 -1.1929349 -0.57088196
-2.1094303 -1.2323388 -0.56829405
-2.1905286 -1.279717 -0.56795919
-2.2778215 -1.3307139 -0.5676108
-2.376518 -1.3883727 -0.56831318
-2.4770455 -1.4471014 -0.56753588
-2.5930061 -1.5148461 -0.56821096
-2.7347159 -1.5976335 -0.57204115
-2.8595755 -1.6705772 -0.56977844
-3.0085032 -1.7575814 -0.56967932
-3.1799672 -1.8577515 -0.57076234
-3.3752544 -1.9718391 -0.57258731
-3.5749891 -2.0885251 -0.57136369
-3.811106 -2.2264655 -0.5717603
-4.0828924 -2.3852446 -0.57261813
-4.394486 -2.5672789 -0.57344162
-4.7344089 -2.7658634 -0.57169151
-5.1686215 -3.0195324 -0.57387513
-5.6887426 -3.3233895 -0.57640743
-6.2932091 -3.6765215 -0.57665908
-7.0442076 -4.1152587 -0.57728994
-8.0316963 -4.6921535 -0.58056533
-9.304306 -5.4356184 -0.58269286
-11.06612 -6.4648786 -0.58624655
-13.644224 -7.9710183 -0.59126681
-17.798491 -10.397961 -0.59978187
-25.582861 -14.945625 -0.61570293
-45.463009 -26.559698 -0.65643466
-11.293402 -6.5976572 0.054352168
-11.21759 -6.5533676 0.16196938
-11.239224 -6.5660062 0.27049449
-11.279532 -6.5895543 0.38010293
-11.311561 -6.6082659 0.4901818
-11.352547 -6.6322098 0.60142046
-11.387506 -6.6526337 0.71315569
-11.382651 -6.6497974 0.82278669
-11.372055 -6.6436067 0.9319675
-11.330352 -6.6192436 1.0382223
-11.293331 -6.5976157 1.1442881
-11.236964 -6.5646863 1.2476469
-11.17766 -6.5300403 1.3497299
-11.147755 -6.5125694 1.4546835
-18.295946 -10.688576 2.5659726
-17.229448 -10.065523 2.5848444
-17.066868 -9.9705429 2.7276695
-1.8140349 -1.0899032 -0.56705278
-1.884071 -1.1319821 -0.56940943
-1.9403157 -1.1657749 -0.56637508
-2.0216064 -1.2146157 -0.56931823
-2.0987794 -1.2609826 -0.56955892
-2.1753764 -1.3070035 -0.56815457
-2.2605288 -1.3581644 -0.56742036
-2.3527589 -1.4135778 -0.56674528
-2.4632411 -1.4799575 -0.56849962
-2.5842848 -1.5526826 -0.57044053
-2.702713 -1.6238363 -0.5694806
-2.8386841 -1.70553 -0.56975138
-2.9893775 -1.7960693 -0.57019663
-3.1535466 -1.8947047 -0.57015872
-3.3232386 -1.9966586 -0.56788528
-3.5417502 -2.127944 -0.57019019
-3.7935722 -2.279243 -0.57329118
-4.0493536 -2.4329212 -0.57206684
-4.3509793 -2.6141427 -0.57191575
-4.7221856 -2.8371699 -0.57438475
-5.1303372 -3.0823946 -0.57378942
-5.6448779 -3.3915393 -0.57614493
-6.2420797 -3.7503483 -0.57615614
-6.9988933 -4.2050548 -0.57777011
-7.9585333 -4.7816229 -0.57948309
-9.2423677 -5.5529728 -0.58304608
-10.982592 -6.5985293 -0.5860756
-13.541939 -8.1362286 -0.59112513
-17.66646 -10.614312 -0.59968555
-25.39024 -15.25489 -0.61553508
-45.057568 -27.071358 -0.65533745
-11.238976 -6.7525697 0.38150552
-11.216887 -6.7392983 0.48963329
-11.211146 -6.7358484 0.5982722
-11.211946 -6.7363291 0.70729506
-11.213881 -6.7374916 0.81651407
-11.218233 -6.7401071 0.92608362
-11.173424 -6.7131844 1.0313288
-11.152412 -6.7005601 1.1382719
-19.71376 -11.844364 2.3978903
-19.564116 -11.754456 2.5716109
-18.471544 -11.09802 2.6095417
-17.378227 -10.441136 2.6262279
-1.7969921 -1.1099606 -0.56594896
-1.8609269 -1.1494516 -0.5666436
-1.937597 -1.1968091 -0.56983411
-2.0161247 -1.2453138 -0.5720436
-2.0677478 -1.2772002 -0.56535691
-2.1505871 -1.3283681 -0.56590354
-2.2384694 -1.382651 -0.56610805
-2.3512087 -1.4522874 -0.57063055
-2.4368954 -1.5052142 -0.56664813
-2.5563083 -1.5789727 -0.56850785
-2.6776738 -1.6539375 -0.56844693
-2.8179374 -1.740575 -0.56984001
-2.9686255 -1.8336515 -0.57049596
-3.1271889 -1.9315925 -0.56964457
-3.2996531 -2.0381196 -0.56809455
-3.5199342 -2.1741822 -0.57093889
-3.7394893 -2.3097963 -0.56936729
-4.0131364 -2.478822 -0.57121325
-4.3204408 -2.6686366 -0.57217169
-4.6745992 -2.8873923 -0.57287192
-5.0955105 -3.1473794 -0.57417935
-5.592504 -3.4543607 -0.57509124
-6.1968451 -3.8276484 -0.57628167
-6.9466157 -4.2907643 -0.57776642
-7.9132476 -4.8878307 -0.58051813
-9.1505747 -5.6520991 -0.58159584
-10.905996 -6.7363825 -0.58636415
-13.440079 -8.3016272 -0.59109008
-17.527708 -10.826461 -0.59944928
-25.186012 -15.556819 -0.61517501
-44.680588 -27.598169 -0.65474081
-19.1005 -11.797939 2.5295489
-18.641163 -11.514216 2.6533058
-17.540989 -10.834664 2.6707563
-1.7883258 -1.1352199 -0.56757301
-1.8493981 -1.1739885 -0.56748593
-1.9303232 -1.2253592 -0.572083
-1.981414 -1.2577914 -0.56654054
-2.0619855 -1.3089378 -0.5681392
-2.1540904 -1.3674055 -0.57120675
-2.2321386 -1.4169501 -0.56887037
-2.3233073 -1.4748235 -0.56821728
-2.4379733 -1.5476128 -0.5712806
-2.5458682 -1.616104 -0.57056242
-2.664942 -1.6916915 -0.57011706
-2.8044105 -1.7802253 -0.57148808
-2.9481571 -1.8714749 -0.57094175
-3.1206982 -1.9810032 -0.57285619
-3.2858741 -2.085856 -0.57009506
-3.4925959 -2.2170818 -0.57088339
-3.7271793 -2.3659942 -0.57187945
-3.9927673 -2.5345881 -0.57270676
-4.3029861 -2.7315133 -0.57426488
-4.6529431 -2.9536641 -0.57462549
-5.053781 -3.2081141 -0.57387894
-5.5422821 -3.5182121 -0.57433212
-6.152072 -3.9053037 -0.57654017
-6.8916359 -4.3747749 -0.57762414
-7.8393793 -4.9763975 -0.57954437
-9.0879374 -5.7689757 -0.58207941
-10.805642 -6.8593659 -0.58545923
-13.340887 -8.4687262 -0.59126282
-17.375666 -11.029984 -0.59884274
-24.964165 -15.847123 -0.61446947
-44.274693 -28.105347 -0.65380782
-18.6509 -11.839496 2.6752114
-17.712786 -11.243985 2.7177598
-1.7703271 -1.1545756 -0.5663237
-1.8460628 -1.203969 -0.57096207
-1.9058001 -1.2429287 -0.56930166
-1.9624486 -1.2798738 -0.56557494
-2.0494394 -1.3366076 -0.56916779
-2.1163521 -1.3802468 -0.56565726
-2.2084594 -1.4403176 -0.5673064
-2.3171325 -1.5111922 -0.57120866
-2.4048464 -1.5683978 -0.56799436
-2.5265675 -1.6477821 -0.57073468
-2.6404192 -1.7220342 -0.56935781
-2.776129 -1.8105416 -0.57021862
-2.9145811 -1.9008375 -0.56892288
-3.0736847 -2.004602 -0.56870788
-3.2564087 -2.1237714 -0.5694707
-3.459928 -2.2565031 -0.57003599
-3.6985028 -2.4120972 -0.57198715
-3.9495533 -2.5758278 -0.57100827
-4.2600393 -2.7783213 -0.57304937
-4.6070194 -3.0046155 -0.57347345
-5.01299 -3.2693822 -0.57376868
-5.5026693 -3.5887423 -0.57475668
-6.0990486 -3.9776902 -0.57611126
-6.8261948 -4.4519219 -0.57668388
-7.7693334 -5.0670199 -0.57892841
-9.0223522 -5.8842163 -0.58246893
-10.731951 -6.9991856 -0.58608538
-13.221579 -8.6228762 -0.5906297
-17.241724 -11.244744 -0.59894669
-24.738062 -16.13372 -0.61374092
-43.877636 -28.616207 -0.65309125
-18.988054 -12.383669 2.7452056
-17.89282 -11.669377 2.7671909
-1.76097 -1.1795865 -0.56792754
-1.8172737 -1.2173016 -0.56664473
-1.8890939 -1.2654104 -0.56891632
-1.9557148 -1.3100364 -0.56823385
-2.0236154 -1.3555197 -0.5665822
-2.1072226 -1.4115241 -0.5678134
-2.1913126 -1.4678516 -0.56749529
-2.2841709 -1.5300528 -0.56767821
-2.3945444 -1.6039866 -0.57017642
-2.4936907 -1.6703999 -0.56790495
-2.6102047 -1.7484468 -0.56743568
-2.7426286 -1.8371511 -0.56793475
-2.8947263 -1.9390336 -0.5696584
-3.0651169 -2.05317 -0.5717507
-3.2351036 -2.1670356 -0.57036173
-3.4353993 -2.3012037 -0.57061362
-3.6588545 -2.4508853 -0.57047307
-3.9168904 -2.6237307 -0.57090724
-4.2136669 -2.8225267 -0.571437
-4.5641842 -3.0573208 -0.57277775
-4.9632778 -3.3246539 -0.57271463
-5.4584007 -3.656312 -0.57478535
-6.0504398 -4.0528898 -0.57618362
-6.7812996 -4.5424566 -0.57756621
-7.7127361 -5.1663795 -0.57940108
-8.9361858 -5.985908 -0.58161408
-10.637295 -7.1253967 -0.5856567
-13.111402 -8.7826786 -0.5904876
-17.08997 -11.447723 -0.59851974
-24.526363 -16.428995 -0.6134544
-43.47913 -29.124514 -0.65244091
-19.170408 -12.841306 2.7941873
-18.094669 -12.120723 2.8212442
-1.7429518 -1.1988236 -0.56682783
-1.8033762 -1.2403843 -0.56702429
-1.8691761 -1.2856423 -0.56763595
-1.9396342 -1.3341042 -0.56828505
-2.013196 -1.3847009 -0.56838924
-2.0864003 -1.4350518 -0.56691462
-2.1685123 -1.4915295 -0.56629759
-2.2646492 -1.5576534 -0.5675438
-2.3539464 -1.6190733 -0.56520736
-2.4798696 -1.7056848 -0.56949091
-2.5932298 -1.7836553 -0.56847048
-2.7341862 -1.8806069 -0.57093197
-2.8658278 -1.9711515 -0.56869829
-3.0280783 -2.0827494 -0.56957591
-3.2066047 -2.2055421 -0.57007563
-3.4052322 -2.3421605 -0.57034349
-3.6439097 -2.5063257 -0.57290483
-3.8945134 -2.6786942 -0.57240337
-4.1806951 -2.8755336 -0.5717175
-4.5268788 -3.1136429 -0.57285762
-4.9301667 -3.3910294 -0.5736621
-5.4026532 -3.7160113 -0.57368338
-5.9892278 -4.1194644 -0.57513481
-6.7127051 -4.6170812 -0.57651585
-7.6602058 -5.2687836 -0.58027804
-8.8615541 -6.0950861 -0.58159071
-10.546779 -7.2542043 -0.58554006
-12.997764 -8.9400215 -0.59027606
-16.930548 -11.645039 -0.59790611
-24.320354 -16.727839 -0.6134001
-43.039688 -29.603226 -0.65125984
-19.352846 -13.311125 2.8444207
-19.672167 -13.530758 3.0929084
-1.7190791 -1.2138083 -0.5638755
-1.7899729 -1.263865 -0.56765354
-1.8492464 -1.3057169 -0.56641662
-1.9192319 -1.3551322 -0.56714672
-1.9920429 -1.4065428 -0.56725723
-2.0742419 -1.4645818 -0.56846142
-2.1607668 -1.5256755 -0.56913108
-2.2406988 -1.5821139 -0.5663743
-2.3459425 -1.6564244 -0.56813318
-2.4589517 -1.736218 -0.56954688
-2.5713017 -1.8155462 -0.56851447
-2.6995034 -1.9060669 -0.56854093
-2.8526406 -2.014194 -0.57095313
-3.0121992 -2.1268551 -0.57146513
-3.1741281 -2.24119 -0.56915826
-3.3764598 -2.3840525 -0.57039136
-3.6030343 -2.5440323 -0.57135344
-3.8534896 -2.7208741 -0.57124805
-4.1404076 -2.9234612 -0.57108092
-4.4931254 -3.1725085 -0.57347959
-4.8781581 -3.4443727 -0.5724954
-5.3746405 -3.794929 -0.57562035
-5.9447145 -4.1974473 -0.57577312
-6.664259 -4.7055039 -0.57728082
-7.5794249 -5.3516846 -0.57909989
-8.7937317 -6.2090831 -0.58210641
-10.454373 -7.3816295 -0.58540487
-12.874376 -9.0903473 -0.58970428
-16.78805 -11.853715 -0.59797609
-24.083178 -17.004663 -0.61264557
-42.617081 -30.091091 -0.65041488
-19.541061 -13.797563 2.8968012
-18.640648 -13.161798 2.9559524
-1.7135878 -1.2417836 -0.56703997
-1.7670888 -1.2805542 -0.56534719
-1.8361454 -1.3305973 -0.5673725
-1.9045056 -1.3801358 -0.56776708
-1.9896332 -1.4418252 -0.57157648
-2.0517969 -1.4868731 -0.56727797
-2.1268294 -1.5412469 -0.56514126
-2.2263224 -1.6133463 -0.56771195
-2.3300397 -1.6885071 -0.56926703
-2.4373171 -1.7662476 -0.56952327
-2.5593958 -1.8547143 -0.57088143
-2.6826725 -1.9440491 -0.56998771
-2.8262022 -2.0480604 -0.57065886
-2.9752011 -2.1560354 -0.56943268
-3.1469173 -2.2804728 -0.56926423
-3.3457739 -2.424578 -0.57020086
-3.5721076 -2.5885949 -0.57145357
-3.831759 -2.776756 -0.57304496
-4.104476 -2.9743857 -0.57112646
-4.4384494 -3.2164059 -0.57150578
-4.847084 -3.5125303 -0.57387406
-5.3182645 -3.8539803 -0.57461452
-5.8830156 -4.263238 -0.57483119
-6.6026611 -4.7847428 -0.57699788
-7.511066 -5.4430351 -0.57894695
-8.7079782 -6.3104 -0.58152241
-10.345907 -7.4973559 -0.58444935
-12.759992 -9.246768 -0.58962846
-16.638409 -12.057336 -0.59788179
-23.860561 -17.291004 -0.61234498
-42.199467 -30.580635 -0.64973116
-19.731142 -14.298543 2.9508202
-19.043789 -13.80044 3.0465603
-1.6925324 -1.2585524 -0.56515092
-1.7540284 -1.3042803 -0.56625706
-1.8194406 -1.3529203 -0.56730843
-1.8815856 -1.3991307 -0.56602037
-1.9561354 -1.4545653 -0.56704867
-2.0246601 -1.5055197 -0.56485093
-2.1110103 -1.569729 -0.56602401
-2.2127473 -1.6453798 -0.56936657
-2.3153031 -1.7216393 -0.57079571
-2.4194334 -1.7990696 -0.57047057
-2.5327725 -1.8833477 -0.5700655
-2.6533003 -1.9729711 -0.56885862
-2.7854693 -2.0712507 -0.56753397
-2.9574533 -2.1991365 -0.57116818
-3.1181026 -2.318594 -0.56916618
-3.3288553 -2.4753077 -0.57246155
-3.5394764 -2.6319239 -0.5713675
-3.7857809 -2.815074 -0.57130253
-4.0828795 -3.0359936 -0.57327259
-4.4117336 -3.2805269 -0.57321662
-4.7972474 -3.5671916 -0.57312363
-5.2680812 -3.9172993 -0.57435346
-5.8290114 -4.3344026 -0.57471877
-6.5363717 -4.8603892 -0.57638425
-7.4468498 -5.5374126 -0.57920182
-8.6346369 -6.4206409 -0.58185303
-10.255448 -7.6258626 -0.58459228
-12.647232 -9.4043722 -0.58971703
-16.472561 -12.248854 -0.59728938
-23.626432 -17.568409 -0.61183417
-41.762062 -31.053907 -0.64882684
-19.906284 -14.80214 3.0040064
-1.6942731 -1.2924984 -0.57099587
-1.7459526 -1.3319228 -0.56889421
-1.799083 -1.372454 -0.56618011
-1.8755616 -1.4307966 -0.56945771
-1.9509535 -1.4883103 -0.57080853
-2.012665 -1.5353879 -0.56672883
-2.1006238 -1.6024883 -0.56847954
-2.1876681 -1.6688912 -0.56815082
-2.2888343 -1.7460672 -0.56952041
-2.3867342 -1.8207514 -0.56799662
-2.4964993 -1.9044871 -0.56712937
-2.6382589 -2.0126305 -0.57089663
-2.7679169 -2.1115415 -0.56920487
-2.9158676 -2.2244077 -0.56837642
-3.1016502 -2.3661344 -0.57143074
-3.2763102 -2.4993761 -0.56866765
-3.4896891 -2.6621549 -0.56857187
-3.7476704 -2.8589594 -0.57081336
-4.0464039 -3.0868518 -0.57343727
-4.3597851 -3.3259189 -0.57173741
-4.75773 -3.6294963 -0.57369101
-5.2191496 -3.9814966 -0.57431298
-5.777863 -4.4077182 -0.57497609
-6.4804578 -4.9437017 -0.57677054
-7.3758821 -5.6267881 -0.57901978
-8.5505781 -6.5229206 -0.58154964
-10.166468 -7.7556224 -0.58491206
-12.522161 -9.5526943 -0.5893178
-16.30356 -12.437385 -0.59666181
-23.389128 -17.842703 -0.61132443
-41.323448 -31.524132 -0.64798582
-20.0725 -15.312569 3.0572729
-1.6636883 -1.3018358 -0.56604046
-1.7241307 -1.3491319 -0.56714648
-1.7802608 -1.3930538 -0.56560469
-1.8396832 -1.4395517 -0.56389618
-1.929674 -1.5099695 -0.56997192
-2.0016611 -1.5662994 -0.56901056
-2.0820026 -1.6291666 -0.56881857
-2.1761856 -1.7028648 -0.57056367
-2.2673595 -1.7742083 -0.56956238
-2.3786292 -1.861277 -0.57147127
-2.4802525 -1.9407971 -0.56881696
-2.6128371 -2.0445445 -0.57079262
-2.7452867 -2.1481862 -0.56994015
-2.8913283 -2.2624638 -0.568973
-3.0723734 -2.4041317 -0.57144016
-3.2545369 -2.5466745 -0.57028067
-3.4772007 -2.7209089 -0.57194513
-3.7223027 -2.9127011 -0.57236147
-3.9889166 -3.1213264 -0.57068658
-4.3234859 -3.383127 -0.57238942
-4.7018213 -3.6791742 -0.57236141
-5.1713896 -4.0466113 -0.57448953
-5.7380185 -4.4899983 -0.57646173
-6.4225168 -5.0256181 -0.57707018
-7.3042898 -5.7156053 -0.5788731
-8.4614792 -6.6211057 -0.58098316
-10.058916 -7.8710999 -0.5842486
-12.400121 -9.7030916 -0.58914489
-16.141443 -12.630675 -0.59636766
-23.144661 -18.110691 -0.61070919
-40.860115 -31.97303 -0.64683646
-20.268581 -15.86016 3.116607
-22.33753 -17.479113 3.6741741
-22.41227 -17.537596 3.9272206
-22.471893 -17.584251 4.1796165
-22.525761 -17.626404 4.4327545
-22.559147 -17.652529 4.6834321
-22.638685 -17.714767 4.9455795
-22.728113 -17.784744 5.2124276
-1.6580311 -1.3305999 -0.56963938
-1.7069358 -1.3698468 -0.56698829
-1.7709165 -1.4211925 -0.56814516
-1.8307097 -1.4691776 -0.56664032
-1.910961 -1.5335808 -0.56997156
-1.975492 -1.585368 -0.56707025
-2.0578313 -1.6514467 -0.56771988
-2.1384721 -1.7161626 -0.5661658
-2.2364173 -1.7947654 -0.5672906
-2.3448217 -1.8817618 -0.56886512
-2.4484131 -1.9648958 -0.5670132
-2.5857284 -2.075094 -0.57040161
-2.7145069 -2.1784408 -0.56906825
-2.869962 -2.3031964 -0.57029843
-3.0258341 -2.4282866 -0.56829482
-3.2180295 -2.5825267 -0.56940508
-3.4298458 -2.7525134 -0.56968009
-3.6772869 -2.9510891 -0.57097626
-3.9563341 -3.1750298 -0.57156748
-4.2826738 -3.436923 -0.57253808
-4.6611724 -3.740675 -0.57296914
-5.1127663 -4.1030874 -0.5735386
-5.6796889 -4.558053 -0.57618892
-6.3556294 -5.1005077 -0.57665199
-7.2221966 -5.7959433 -0.5779717
-8.3811579 -6.7260308 -0.58110303
-9.9689465 -8.0002594 -0.5846926
-12.275678 -9.8514528 -0.58894336
-15.987484 -12.830245 -0.5964632
-22.912539 -18.387728 -0.61050433
-40.405132 -32.42585 -0.64589703
-20.474783 -16.431383 3.1791413
-21.70002 -17.414658 3.6042635
-21.82803 -17.517389 3.8622987
-21.922329 -17.593065 4.1173263
-21.985674 -17.643902 4.3688369
-1.6301104 -1.3414755 -0.56567132
-1.6807798 -1.3831732 -0.56390709
-1.7619596 -1.4499789 -0.57094854
-1.8054582 -1.4857754 -0.56443661
-1.8807094 -1.5477023 -0.56658208
-1.9606167 -1.6134609 -0.56845236
-2.0386984 -1.6777171 -0.56808996
-2.1199155 -1.7445536 -0.56688946
-2.2067518 -1.8160142 -0.56538731
-2.3113086 -1.9020578 -0.56636608
-2.4311769 -2.0007017 -0.56867594
-2.562654 -2.1088986 -0.57098883
-2.6857669 -2.2102127 -0.56869775
-2.8350372 -2.3330524 -0.56901616
-2.9990823 -2.468051 -0.56892729
-3.1919935 -2.6268044 -0.57047039
-3.4052994 -2.8023412 -0.57128328
-3.6485868 -3.0025511 -0.57220942
-3.9068336 -3.2150717 -0.57008451
-4.2408419 -3.489939 -0.57263947
-4.6281462 -3.808665 -0.57462293
-5.0687585 -4.1712604 -0.57431227
-5.6073198 -4.6144619 -0.57456017
-6.286521 -5.1734009 -0.57610995
-7.1521125 -5.8857265 -0.57811117
-8.2913723 -6.8232641 -0.58065122
-9.8613234 -8.1152325 -0.58418894
-12.144263 -9.9939442 -0.58848995
-15.809486 -13.010186 -0.59574598
-22.668293 -18.654541 -0.61006224
-39.949909 -32.876194 -0.6450336
-1.6157838 -1.3633502 -0.56647444
-1.6722431 -1.4109888 -0.5668211
-1.7371947 -1.465793 -0.56872123
-1.7990795 -1.5180097 -0.56823516
-1.8678051 -1.5759982 -0.56848973
-1.9389744 -1.6360487 -0.56796736
-2.0222137 -1.7062836 -0.56929994
-2.1079602 -1.778634 -0.56949794
-2.1880603 -1.8462199 -0.56637198
-2.3017366 -1.9421368 -0.5698294
-2.4157913 -2.0383728 -0.5708968
-2.5331795 -2.1374214 -0.5702346
-2.6610529 -2.245317 -0.56926781
-2.8066797 -2.3681924 -0.56912625
-2.9770503 -2.5119462 -0.57056421
-3.159023 -2.6654892 -0.57039255
-3.3733914 -2.8463669 -0.57175881
-3.6153164 -3.0504961 -0.57283109
-3.8785813 -3.2726312 -0.57179081
-4.1908507 -3.5361147 -0.5717172
-4.5626302 -3.8498111 -0.57232285
-5.0135055 -4.2302461 -0.57390225
-5.5579095 -4.6895981 -0.5753625
-6.2216339 -5.249629 -0.57603574
-7.0780792 -5.9722719 -0.57801932
-8.2031527 -6.9215751 -0.58038962
-9.7574081 -8.2330093 -0.5839861
-12.014493 -10.137471 -0.58819759
-15.646288 -13.20187 -0.59566844
-22.405491 -18.905085 -0.6091997
-39.488331 -33.319077 -0.6441474
-1.5955505 -1.3802179 -0.56528831
-1.6519585 -1.4290131 -0.56585884
-1.7045144 -1.4744761 -0.56391543
-1.788186 -1.5468554 -0.57075894
-1.8458157 -1.5967077 -0.56772989
-1.9105899 -1.6527401 -0.5655632
-2.0057106 -1.7350234 -0.57061696
-2.0809603 -1.8001175 -0.56814069
-2.1695189 -1.8767246 -0.56750315
-2.2707007 -1.9642509 -0.56808251
-2.3652411 -2.0460324 -0.56485367
