# .PCD v0.7 - Point Cloud Data file format
VERSION 0.7
FIELDS x y z
SIZE 4 4 4
TYPE F F F
COUNT 1 1 1
WIDTH 1442
HEIGHT 1
VIEWPOINT 0 0 0 1 0 0 0
POINTS 1442
DATA ascii
9.2722626 -3.9160442 -0.54427737
10.896418 -4.6019893 -0.54106253
13.168817 -5.5617132 -0.53488475
16.70719 -7.056109 -0.52770638
22.817087 -9.6365614 -0.51470828
35.935085 -15.176811 -0.48632976
1.9409378 -0.79175651 -0.56167823
2.0027974 -0.81699055 -0.56035411
2.061481 -0.84092909 -0.55706936
2.1427395 -0.87407643 -0.55863231
2.2352378 -0.91180879 -0.56155688
2.3077567 -0.94139099 -0.55798215
2.4028597 -0.98018587 -0.55836916
2.5059242 -1.0222285 -0.55882603
2.6140223 -1.0663242 -0.55850965
2.7311916 -1.1141206 -0.55811065
2.8655672 -1.1689358 -0.55896902
2.986073 -1.218093 -0.55483896
3.1633615 -1.2904134 -0.55858707
3.3181229 -1.3535444 -0.55537611
3.5095999 -1.4316527 -0.55520695
3.7281599 -1.5208086 -0.55564129
3.9573836 -1.6143147 -0.5536474
4.2433696 -1.7309753 -0.55497068
4.5375233 -1.850968 -0.55215639
4.9192028 -2.0066645 -0.5539273
5.3295789 -2.174067 -0.55182028
5.8342624 -2.3799398 -0.55126613
6.4410481 -2.6274629 -0.55038375
7.1739221 -2.9264202 -0.5482524
8.1056938 -3.3065128 -0.54638165
9.3043804 -3.7954869 -0.54338199
10.930345 -4.4587579 -0.53998393
13.260729 -5.4093795 -0.5358758
16.793407 -6.8504462 -0.52772909
22.924019 -9.3512745 -0.51448762
36.106255 -14.728634 -0.48615849
1.9450805 -0.76568812 -0.56011015
2.0122778 -0.7921406 -0.56023902
2.0726299 -0.81589842 -0.55732888
2.1590188 -0.84990561 -0.56010944
2.2332041 -0.87910903 -0.55828798
2.3147333 -0.91120321 -0.55691773
2.42325 -0.95392126 -0.56033933
2.5100794 -0.98810196 -0.55700099
2.6380455 -1.0384763 -0.56087172
2.7390063 -1.0782199 -0.55695617
2.8788803 -1.1332818 -0.55880541
3.0127671 -1.1859869 -0.55704713
3.1707094 -1.2481614 -0.5571323
3.3393402 -1.3145436 -0.55617982
3.5295126 -1.3894056 -0.55561233
3.7423706 -1.4731979 -0.55501741
3.9966073 -1.5732791 -0.55638629
4.2617669 -1.6776602 -0.5546369
4.5689726 -1.7985928 -0.55325025
4.9432287 -1.9459202 -0.55389649
5.3610311 -2.1103895 -0.55234814
5.8643222 -2.308512 -0.5513826
6.4699903 -2.5469356 -0.55013913
7.2052617 -2.8363776 -0.54794061
8.1552114 -3.2103288 -0.54701716
9.3664045 -3.6871197 -0.54431534
10.969781 -4.3182945 -0.5392682
13.315018 -5.2415056 -0.53542459
16.857143 -6.6358762 -0.52712792
23.030151 -9.0659037 -0.51432878
36.251114 -14.270384 -0.48570952
1.9611382 -0.74429142 -0.56205618
2.0264604 -0.76908255 -0.56151223
2.0946436 -0.79495943 -0.56057739
2.1555982 -0.81809282 -0.55657017
2.2481983 -0.85323644 -0.55937123
2.3268001 -0.88306743 -0.55716628
2.4338226 -0.92368472 -0.5601154
2.5337582 -0.96161222 -0.55958927
2.6494722 -1.005528 -0.56063002
2.7520347 -1.0444524 -0.5569517
2.8908207 -1.0971246 -0.5584622
3.0226476 -1.1471556 -0.55622381
3.2035234 -1.2158016 -0.56022888
3.3547912 -1.2732108 -0.55610365
3.5511417 -1.3477297 -0.55636626
3.7576945 -1.4261206 -0.55464739
4.0055504 -1.5201869 -0.55498695
4.2754745 -1.6226287 -0.55378228
4.6027493 -1.7468361 -0.55469733
4.9433007 -1.8760821 -0.55127794
5.3732247 -2.039247 -0.55097932
5.8933167 -2.2366323 -0.55148119
6.5023899 -2.4677877 -0.55027217
7.2402754 -2.7478302 -0.54799235
8.1831665 -3.1056764 -0.54628944
9.3803616 -3.5600359 -0.54254138
11.031418 -4.186645 -0.53972661
13.367434 -5.0732102 -0.5349834
16.948545 -6.4323134 -0.52747291
23.130354 -8.7784348 -0.514117
36.402203 -13.815369 -0.48542106
1.9538013 -0.71414924 -0.55739456
2.0280478 -0.74128765 -0.55938399
2.1093495 -0.77100492 -0.56193328
2.1863215 -0.79913956 -0.56192327
2.256016 -0.82461411 -0.55875123
2.3492525 -0.85869378 -0.55997199
2.4391143 -0.89153981 -0.55876797
2.5362394 -0.92704082 -0.55757755
2.6476033 -0.96774626 -0.55767435
2.7734332 -1.0137393 -0.55871737
2.9118271 -1.0643249 -0.55994976
3.0425167 -1.1120942 -0.55732149
3.1923902 -1.1668756 -0.55573064
3.3859494 -1.237625 -0.55870366
3.5740559 -1.3063813 -0.55739743
3.784586 -1.3833338 -0.55606389
4.0267954 -1.4718658 -0.55538094
4.2865472 -1.5668097 -0.55267924
4.6107044 -1.6852947 -0.55311674
4.9870005 -1.8228377 -0.55360979
5.4111958 -1.9778887 -0.55233723
5.9294963 -2.1673369 -0.55233109
6.532433 -2.3877208 -0.55028832
7.2705698 -2.6575232 -0.54777056
8.20893 -3.0005105 -0.54550505
9.4344511 -3.4484603 -0.54317617
11.093469 -4.0548611 -0.54028219
13.428576 -4.9083848 -0.53497446
17.025434 -6.2231007 -0.52744448
23.217899 -8.486557 -0.51370454
36.543343 -13.357244 -0.48507625
1.9665465 -0.69151825 -0.55856252
2.0320461 -0.71455055 -0.55802119
2.1115289 -0.74249989 -0.56003922
2.186156 -0.76874191 -0.5594089
2.2557209 -0.79320371 -0.55622041
2.3461616 -0.82500637 -0.55677497
2.4530947 -0.86260843 -0.55949843
2.5473971 -0.89576912 -0.55756682
2.6603074 -0.93547291 -0.55788517
2.7774048 -0.97664911 -0.55705601
2.9026699 -1.0206975 -0.5557332
3.0515013 -1.0730326 -0.55650824
3.2221315 -1.1330333 -0.55844045
3.3914671 -1.1925786 -0.55715221
3.5754149 -1.2572621 -0.55515629
3.8029826 -1.3372843 -0.55630875
4.0359817 -1.4192164 -0.55419916
4.3116531 -1.5161536 -0.55347061
4.636085 -1.6302372 -0.55371487
5.0110855 -1.7621026 -0.55383629
5.438489 -1.9123952 -0.55268103
5.9382033 -2.0881152 -0.55070877
6.5528498 -2.30425 -0.54957986
7.3132238 -2.5716288 -0.54856026
8.243968 -2.8989165 -0.54542339
9.4841509 -3.3350155 -0.54363549
11.133229 -3.9148989 -0.53983331
13.484127 -4.7415705 -0.53482425
17.074766 -6.0041866 -0.52664572
23.308741 -8.1963072 -0.51344573
36.68586 -12.900249 -0.48482576
1.9735599 -0.66683322 -0.55818337
2.0515478 -0.69318408 -0.56099343
2.1013319 -0.71000528 -0.55497718
2.1861141 -0.73865181 -0.55703187
2.2852716 -0.77215546 -0.56112343
2.3695269 -0.80062395 -0.55994129
2.4471331 -0.82684577 -0.55577779
2.5664454 -0.86715943 -0.55935985
2.6798975 -0.90549308 -0.55961609
2.7946451 -0.94426429 -0.55814284
2.9251668 -0.98836553 -0.55767137
3.0752842 -1.0390877 -0.55847317
3.2185247 -1.0874863 -0.55545574
3.4049494 -1.1504761 -0.55700094
3.5921924 -1.2137424 -0.55540198
3.8183973 -1.2901733 -0.55620086
4.0572886 -1.3708907 -0.5547682
4.3330607 -1.4640695 -0.55386579
4.6709061 -1.5782218 -0.55551386
5.0082002 -1.692188 -0.55117601
5.4541588 -1.84287 -0.55192882
5.9675002 -2.0163195 -0.55108476
6.5937567 -2.2279212 -0.5506714
7.3338976 -2.4780025 -0.54778391
8.2745609 -2.7958374 -0.54513174
9.5208263 -3.2169297 -0.5434292
11.171852 -3.7747838 -0.53941464
13.551272 -4.5787506 -0.53521389
17.174599 -5.8030128 -0.52748412
23.406311 -7.9086056 -0.51341403
36.825447 -12.442709 -0.48461181
2.0055254 -0.65027118 -0.56491995
2.054323 -0.66609335 -0.5594703
2.1254086 -0.68914211 -0.55905569
2.1995573 -0.71318412 -0.55818051
2.2813303 -0.73969817 -0.55788016
2.3820655 -0.7723605 -0.56061757
2.4702082 -0.80093992 -0.55873942
2.5752406 -0.83499563 -0.55899674
2.6862509 -0.87098956 -0.55866408
2.8104393 -0.91125643 -0.55901712
2.9533501 -0.95759374 -0.5607571
3.0826497 -0.99951786 -0.55753666
3.2377384 -1.0498037 -0.55650175
3.4281054 -1.1115284 -0.5585109
3.6065972 -1.1694025 -0.55536389
3.8240106 -1.2398965 -0.55475575
4.070169 -1.3197109 -0.55426854
4.3653345 -1.4154154 -0.55572444
4.6904631 -1.520835 -0.5555737
5.0326757 -1.631794 -0.55161965
5.475595 -1.7754061 -0.55184716
5.9802208 -1.9390259 -0.55001605
6.6118741 -2.1438332 -0.54994136
7.3600836 -2.3864324 -0.54750663
8.3333931 -2.702018 -0.54677731
9.555027 -3.0981205 -0.5431658
11.197701 -3.6307404 -0.53846633
13.598294 -4.4091086 -0.53488928
17.214954 -5.5817742 -0.52657574
23.492739 -7.6172819 -0.51321644
36.945396 -11.97917 -0.48421529
1.9970393 -0.6204893 -0.56033802
2.0781808 -0.64570028 -0.56376272
2.1362331 -0.66373742 -0.55971378
2.2296736 -0.69276989 -0.56361878
2.2939701 -0.71274704 -0.55878562
2.3928592 -0.74347234 -0.56096387
2.4803102 -0.77064371 -0.55883873
2.5980775 -0.80723459 -0.56175673
2.6913188 -0.83620507 -0.55753744
2.8134542 -0.87415314 -0.55743659
2.9556873 -0.91834563 -0.55901456
3.0956433 -0.96183062 -0.55770546
3.242558 -1.0074776 -0.55515885
3.4355538 -1.0674423 -0.55754375
3.6261764 -1.1266696 -0.55620342
3.8429306 -1.1940161 -0.55532855
4.0896811 -1.2706826 -0.55475599
4.3663888 -1.356657 -0.55369306
4.6940932 -1.4584763 -0.5538376
5.0549631 -1.5706003 -0.55190396
5.4993215 -1.7086644 -0.55207914
6.0206947 -1.8706574 -0.5515812
6.6244187 -2.0582373 -0.54883814
7.3928356 -2.296988 -0.54780054
8.3540363 -2.5956376 -0.54599637
9.5829105 -2.9774542 -0.54262859
11.268558 -3.5011926 -0.53976262
13.645533 -4.2397299 -0.53465635
17.288954 -5.3717575 -0.526779
23.573948 -7.3245335 -0.51298416
37.069908 -11.517791 -0.48395437
1.9911472 -0.59191304 -0.55660051
2.0789354 -0.61801004 -0.56186342
2.1440368 -0.6373629 -0.5596627
2.2176359 -0.65924186 -0.55848449
2.2947524 -0.68216646 -0.55689079
2.4048278 -0.71488887 -0.56166643
2.4888177 -0.73985672 -0.55866355
2.5887606 -0.76956701 -0.55765402
2.6971736 -0.80179513 -0.55666578
2.8132372 -0.83629763 -0.55531406
2.9643517 -0.8812198 -0.55856162
3.1102648 -0.92459577 -0.55824918
3.2616553 -0.96959996 -0.55634516
3.4253435 -1.01826 -0.55381286
3.6387286 -1.0816935 -0.55604655
3.8407569 -1.1417508 -0.55294383
4.114037 -1.2229896 -0.55597788
4.383347 -1.303048 -0.55376983
4.6952491 -1.3957678 -0.55190724
5.0811138 -1.5104748 -0.55268949
5.5193987 -1.6407647 -0.55202752
6.0294375 -1.7923852 -0.5503214
6.655396 -1.9784653 -0.54934752
7.4211297 -2.2060969 -0.54784554
8.3860607 -2.4929442 -0.54604465
9.6233101 -2.8607442 -0.54288328
11.300033 -3.3591874 -0.53925091
13.683122 -4.0676141 -0.53412896
17.338165 -5.1541572 -0.52630752
23.6602 -7.0335236 -0.51294029
37.193417 -11.056576 -0.48375529
2.0062716 -0.56965673 -0.55882806
2.0719767 -0.58831286 -0.55798542
2.1322925 -0.60543883 -0.55461174
2.2352214 -0.6346643 -0.5609054
2.3195448 -0.65860689 -0.56089973
2.4047842 -0.68280959 -0.55965292
2.4895401 -0.70687503 -0.55683255
2.5998261 -0.7381894 -0.55804008
2.7169118 -0.77143449 -0.55873954
2.8272276 -0.80275732 -0.55608517
2.9804621 -0.84626639 -0.55959415
3.1138835 -0.88414985 -0.55690521
3.2819271 -0.93186378 -0.55780631
3.462553 -0.9831503 -0.55783218
3.645658 -1.0351409 -0.55511838
3.8811765 -1.1020135 -0.55676997
4.109416 -1.1668193 -0.55337256
4.396863 -1.2484363 -0.55349606
4.7170563 -1.3393515 -0.55249292
5.0985546 -1.4476733 -0.55260849
5.5424085 -1.5737003 -0.55235171
6.0483975 -1.7173698 -0.55008286
6.6727271 -1.8946407 -0.54881352
7.4389958 -2.1122136 -0.54720575
8.4089394 -2.3876173 -0.5455814
9.6525345 -2.7407212 -0.54258972
11.343188 -3.220762 -0.53937966
13.730769 -3.8986871 -0.53407717
17.393145 -4.9385743 -0.52609324
23.743795 -6.7417655 -0.51291656
37.302906 -10.591713 -0.48344886
2.0098429 -0.54405719 -0.55791712
2.084271 -0.56420463 -0.55938566
2.1586721 -0.58434474 -0.55956191
2.236625 -0.60544634 -0.55934709
2.3147819 -0.62660313 -0.55784261
2.3987329 -0.64932835 -0.55634445
2.5168912 -0.6813134 -0.56103384
2.6070175 -0.70571023 -0.55767888
2.7217836 -0.73677707 -0.55783612
2.8347991 -0.76736993 -0.55567646
2.9814007 -0.80705446 -0.55786496
3.1218886 -0.84508401 -0.55643636
3.2936964 -0.89159173 -0.55790108
3.4643145 -0.93777746 -0.55621618
3.6634188 -0.9916743 -0.555924
3.8817523 -1.0507764 -0.55495703
4.1344423 -1.1191787 -0.55484748
4.4190984 -1.1962341 -0.55440164
4.7360067 -1.28202 -0.55282432
5.1177845 -1.3853658 -0.55280459
5.561657 -1.5055206 -0.5523833
6.0676951 -1.6425033 -0.54995948
6.7219992 -1.819621 -0.55098408
7.471036 -2.0223825 -0.54769188
8.4293909 -2.2818058 -0.54504669
9.6930103 -2.623863 -0.54301029
11.3706 -3.0779805 -0.53884262
13.783639 -3.7311814 -0.53430867
17.446827 -4.7227931 -0.52592069
23.816597 -6.4470673 -0.51273793
37.416607 -10.128541 -0.48327175
2.0154333 -0.51906008 -0.5576551
2.0925639 -0.53892452 -0.55979049
2.1591237 -0.55606645 -0.55786437
2.2400792 -0.57691598 -0.55839467
2.3335803 -0.60099649 -0.5605495
2.4089215 -0.62040007 -0.55689603
2.5038412 -0.6448459 -0.5563153
2.6105547 -0.67232925 -0.55662501
2.7337294 -0.70405191 -0.55846781
2.8530352 -0.73477834 -0.5574379
2.9849014 -0.76873946 -0.55670911
3.1273608 -0.80542886 -0.55560446
3.2856357 -0.84619135 -0.55473131
3.462306 -0.89169157 -0.55409139
3.6809697 -0.94800675 -0.55677629
3.8964415 -1.0035 -0.555251
4.1543417 -1.0699202 -0.55571038
4.4407067 -1.1436714 -0.5553062
4.753305 -1.2241789 -0.55304456
5.1459832 -1.3253102 -0.5540483
5.5759883 -1.4360549 -0.55201113
6.1016273 -1.5714295 -0.55124199
6.7252984 -1.7320514 -0.54946727
7.4969068 -1.9307734 -0.54780656
8.4707928 -2.1815906 -0.54594791
9.722641 -2.5039947 -0.54290426
11.420395 -2.9412391 -0.53944767
13.818316 -3.5588059 -0.53391618
17.515409 -4.5109653 -0.52627623
23.863705 -6.1459222 -0.51208639
37.545181 -9.669486 -0.48336017
2.0239592 -0.49480128 -0.5582884
2.095201 -0.512218 -0.55876881
2.1632202 -0.52884674 -0.55720049
2.2527435 -0.55073267 -0.55982113
2.3406968 -0.57223475 -0.56052637
2.430656 -0.59422731 -0.56018907
2.5413477 -0.62128836 -0.56290877
2.6171021 -0.63980818 -0.55630153
2.7281604 -0.66695881 -0.55561274
2.8693433 -0.70147407 -0.55889666
3.0048969 -0.73461312 -0.55871147
3.132879 -0.76590115 -0.55486971
3.3141673 -0.81022102 -0.55782419
3.4869864 -0.85247052 -0.5563215
3.6782627 -0.89923221 -0.55465239
3.9047415 -0.95459992 -0.55471909
4.1467409 -1.013762 -0.55298442
4.4427552 -1.0861292 -0.55385035
4.755754 -1.1626486 -0.55162436
5.1408815 -1.2568015 -0.5517934
5.5968742 -1.368279 -0.55237138
6.1045508 -1.4923917 -0.54980659
6.745892 -1.6491816 -0.54945141
7.5175052 -1.8378195 -0.54761899
8.4766445 -2.0723021 -0.54464155
9.7522221 -2.384145 -0.54287797
11.442611 -2.7973979 -0.53883153
13.872726 -3.3914931 -0.53436673
17.560658 -4.2930889 -0.52600986
23.946753 -5.8543105 -0.51228505
37.612743 -9.195262 -0.48273781
2.0282652 -0.46950215 -0.5578416
2.0954783 -0.4850606 -0.55720991
2.1853311 -0.50585973 -0.56125116
2.2502337 -0.52088332 -0.55756354
2.3427677 -0.54230303 -0.55938309
2.4353318 -0.56372976 -0.55962682
2.5298843 -0.58561677 -0.55873233
2.6298475 -0.60875618 -0.5573774
2.7658634 -0.64024109 -0.56164545
2.8709941 -0.66457677 -0.55758435
3.0012827 -0.69473588 -0.556409
3.1769724 -0.73540449 -0.56103516
3.3136439 -0.76704121 -0.55610657
3.4918163 -0.8082844 -0.55546439
3.699465 -0.8563509 -0.55621958
3.9020417 -0.90324324 -0.55271596
4.1760697 -0.96667516 -0.55526835
4.4551859 -1.0312849 -0.55377728
4.777678 -1.1059353 -0.55254823
5.1804786 -1.1991754 -0.55441892
5.6088243 -1.2983286 -0.55193341
6.1144161 -1.415363 -0.54908615
6.7706537 -1.5672686 -0.54985696
7.5284142 -1.7426748 -0.54681134
8.5337915 -1.9753991 -0.54671133
9.788969 -2.2659473 -0.54333144
11.48992 -2.6596825 -0.53947842
13.903735 -3.2184319 -0.5339964
17.606297 -4.0754995 -0.52583605
24.006861 -5.5570998 -0.51207036
37.713791 -8.7299757 -0.48262045
2.0438523 -0.44670656 -0.56057543
2.1120374 -0.46160915 -0.56006145
2.1864204 -0.47786641 -0.55997944
2.2645347 -0.49493915 -0.55955678
2.333009 -0.50990498 -0.55551398
2.4382148 -0.53289884 -0.55874127
2.5339243 -0.55381727 -0.55807841
2.6491742 -0.57900637 -0.55992228
2.7550635 -0.60214967 -0.55790669
2.8921797 -0.63211793 -0.56014687
3.0134602 -0.65862507 -0.55712301
3.1863739 -0.69641733 -0.56114072
3.3257117 -0.72687113 -0.55658972
3.4996545 -0.76488823 -0.5551731
3.6996646 -0.80860269 -0.55471277
3.9196596 -0.85668504 -0.5536775
4.1877813 -0.915286 -0.55528712
4.4693108 -0.97681743 -0.55399817
4.7974062 -1.0485263 -0.55329686
5.1902857 -1.1343944 -0.55393374
5.6235695 -1.2290934 -0.5518555
6.1499715 -1.3441443 -0.55075318
6.7616806 -1.4778402 -0.54761106
7.5695648 -1.6544123 -0.54828119
8.5323868 -1.8648477 -0.54511106
9.8071661 -2.1434648 -0.5428375
11.522127 -2.5182884 -0.53949594
13.939873 -3.0467136 -0.53390509
17.647537 -3.8570647 -0.52561152
24.078863 -5.2627025 -0.51218718
37.805889 -8.2628965 -0.48246235
2.0394042 -0.41952941 -0.55789834
2.1050432 -0.43303213 -0.55675268
2.1826425 -0.4489952 -0.55755568
2.2759774 -0.46819526 -0.56091923
2.3542912 -0.48430535 -0.55912119
2.4500294 -0.50399983 -0.55998617
2.5345635 -0.52138948 -0.55676508
2.6501615 -0.54516935 -0.55867183
2.761857 -0.56814641 -0.55782551
2.8756959 -0.59156448 -0.55550355
3.0139244 -0.61999965 -0.5557574
3.1813722 -0.65444565 -0.55880046
3.3392129 -0.68691534 -0.55739349
3.5061231 -0.72125071 -0.55475038
3.7144809 -0.76411235 -0.55548346
3.944701 -0.81147134 -0.55576324
4.1881547 -0.86155266 -0.55389005
4.4725823 -0.92006272 -0.55295944
4.8101926 -0.9895131 -0.55332643
5.1783805 -1.0652537 -0.55122352
5.6395569 -1.1601231 -0.5519827
6.1734228 -1.2699456 -0.55141318
6.8067889 -1.4002364 -0.54982823
7.5833964 -1.5599937 -0.54785216
8.5660658 -1.7621404 -0.5458371
9.8278255 -2.0216992 -0.54256403
11.543321 -2.3745966 -0.53908032
13.965245 -2.8728149 -0.53348356
17.69524 -3.6401186 -0.52565938
24.143456 -4.9665923 -0.5122233
37.895489 -7.795547 -0.482346
2.0446894 -0.39447635 -0.55797505
2.1258466 -0.41013378 -0.56087863
2.1936872 -0.42322206 -0.55900538
2.2756062 -0.43902647 -0.55945504
2.3699188 -0.45722193 -0.56145489
2.4405768 -0.47085381 -0.55646026
2.5451121 -0.49102151 -0.55771375
2.653888 -0.51200736 -0.558088
2.767648 -0.53395474 -0.55762684
2.8962994 -0.55877513 -0.55811411
3.0305421 -0.58467424 -0.55745381
3.1790173 -0.6133191 -0.55702001
3.3351316 -0.6434378 -0.55534959
3.5202203 -0.67914647 -0.55561757
3.7287416 -0.71937591 -0.55625117
3.9517815 -0.76240635 -0.55539799
4.1965137 -0.80962187 -0.55363703
4.4813347 -0.86457163 -0.55268538
4.806777 -0.92735827 -0.55158007
5.2006907 -1.003355 -0.55224335
5.6448436 -1.0890442 -0.55114782
6.1778812 -1.1918818 -0.5504607
6.8009043 -1.3120798 -0.54800826
7.5849676 -1.4633471 -0.54662442
8.5892019 -1.6570913 -0.54597169
9.8490362 -1.9001477 -0.54240406
11.566185 -2.2314324 -0.53882599
14.003425 -2.7016425 -0.53363264
17.735884 -3.4217355 -0.52557713
24.177616 -4.6645212 -0.51169252
37.961277 -7.3237653 -0.48200068
2.0515022 -0.36968747 -0.55855143
2.1276982 -0.38341823 -0.56008095
2.2157214 -0.39928028 -0.56332654
2.2763345 -0.41020298 -0.55835176
2.3752575 -0.42802924 -0.56143034
2.452075 -0.441872 -0.55780089
2.5429041 -0.4582397 -0.55595315
2.6560521 -0.47862932 -0.55726331
2.781518 -0.5012387 -0.55913728
2.896224 -0.52190912 -0.55682081
3.0273058 -0.54553044 -0.55558252
3.1871238 -0.57433015 -0.55716085
3.3551648 -0.60461169 -0.55740529
3.523561 -0.63495731 -0.55487055
3.7347715 -0.6730181 -0.55587411
3.9749866 -0.71630567 -0.55737925
4.2236381 -0.76111352 -0.55593878
4.4821653 -0.80770093 -0.55152124
4.8302498 -0.87042689 -0.55300361
5.2191286 -0.94050419 -0.55293137
5.6548839 -1.0190287 -0.55086303
6.1973662 -1.1167858 -0.55093157
6.8182726 -1.2286751 -0.54814893
7.6149607 -1.372241 -0.54752851
8.6064663 -1.5509136 -0.54581565
9.8779764 -1.7800438 -0.54275137
11.599646 -2.0902944 -0.5391466
14.028956 -2.528064 -0.53338063
17.772888 -3.202733 -0.52546698
24.234911 -4.3672109 -0.5117299
38.059097 -6.8583741 -0.48213544
2.0640395 -0.34580004 -0.56076473
2.1269429 -0.35633862 -0.55868644
2.205138 -0.36943907 -0.55943853
2.2791555 -0.38183963 -0.55784982
2.3682683 -0.3967692 -0.5585829
2.4460826 -0.40980589 -0.55524939
2.5553303 -0.42810878 -0.55747682
2.6614647 -0.44589004 -0.55720645
2.7728698 -0.46455437 -0.55620855
2.8995028 -0.4857699 -0.5562607
3.049288 -0.51086426 -0.55842173
3.1829143 -0.5332514 -0.5552367
3.3661478 -0.56394953 -0.55803567
3.5339062 -0.59205502 -0.5553112
3.7328262 -0.62538123 -0.55439812
3.9565294 -0.66285944 -0.55360639
4.2311087 -0.70886129 -0.55573273
4.5134206 -0.75615859 -0.55418116
4.8434033 -0.81144243 -0.55332536
5.2337728 -0.87684315 -0.55329865
5.6543527 -0.94730532 -0.54963499
6.2102699 -1.0404413 -0.55089974
6.8455915 -1.1468801 -0.54916996
7.6258349 -1.2775987 -0.54713947
8.6137047 -1.443102 -0.54510808
9.8991718 -1.6584636 -0.54275447
11.627458 -1.9480128 -0.53928512
14.068017 -2.3568933 -0.53372353
17.828856 -2.9869678 -0.52599597
24.271112 -4.0662751 -0.51139987
38.112255 -6.385159 -0.48177782
2.0654602 -0.31998101 -0.56003946
2.1378417 -0.33119437 -0.56043714
2.2037508 -0.34140503 -0.55797946
2.291224 -0.35495633 -0.55969316
2.3639128 -0.36621729 -0.55645144
2.4606407 -0.38120234 -0.55744785
2.5588572 -0.39641806 -0.55714065
2.6660268 -0.41302076 -0.55705619
2.7824295 -0.43105388 -0.55702078
2.9082282 -0.4505426 -0.55682969
3.0493288 -0.47240192 -0.55732328
3.1956723 -0.49507344 -0.55635822
3.3632758 -0.52103853 -0.55645531
3.542408 -0.54878974 -0.55554479
3.7609153 -0.58264089 -0.55746371
3.9818048 -0.61686105 -0.55603963
4.2310009 -0.6554665 -0.55461806
4.5211015 -0.70040888 -0.55402488
4.846561 -0.75082904 -0.55258954
5.2400641 -0.81179053 -0.5528667
5.6737785 -0.87898153 -0.55043101
6.2229877 -0.96406502 -0.55093467
6.8445845 -1.0603628 -0.54800171
7.654376 -1.1858157 -0.54809958
8.6341505 -1.3376023 -0.54531986
9.9068422 -1.5347676 -0.5420993
11.635046 -1.8025008 -0.53856838
14.085062 -2.1820574 -0.5333119
17.861204 -2.7670572 -0.52590674
24.326906 -3.7687235 -0.51156032
38.183079 -5.9153214 -0.4817172
2.0759704 -0.2955192 -0.56186152
2.139823 -0.30460876 -0.55993229
2.2046385 -0.31383538 -0.55718493
2.2845004 -0.32520393 -0.55703181
2.3751616 -0.33810976 -0.55807847
2.4813426 -0.35322487 -0.56111139
2.5646942 -0.36509016 -0.55739194
2.6841402 -0.38209358 -0.55981684
2.7821102 -0.39603981 -0.55593991
2.9312065 -0.41726401 -0.56020457
3.0510798 -0.43432826 -0.55662507
3.2004182 -0.45558697 -0.55616719
3.3550968 -0.47760582 -0.55408859
3.5582471 -0.50652474 -0.55700994
3.7552669 -0.53457093 -0.55561012
3.9884782 -0.56776911 -0.55595452
4.2327933 -0.60254788 -0.55383986
4.5297246 -0.64481676 -0.55406803
4.8599334 -0.69182277 -0.55310249
5.2404952 -0.74599659 -0.55190259
5.7060981 -0.81227624 -0.55255574
6.2347703 -0.88753396 -0.55096996
6.8807611 -0.97949231 -0.54989225
7.6545811 -1.0896474 -0.54711348
8.6572342 -1.2323774 -0.54577947
9.9257956 -1.4129599 -0.54214466
11.667248 -1.6608598 -0.53907293
14.111443 -2.0087965 -0.53333521
17.881672 -2.5454974 -0.52554804
24.370293 -3.4691675 -0.51153696
38.245876 -5.4443893 -0.48162845
2.0704722 -0.26880649 -0.5594365
2.1476512 -0.27882653 -0.56104112
2.2071936 -0.28655684 -0.55689806
2.2988439 -0.29845566 -0.55959201
2.395617 -0.31101957 -0.56194365
2.4619148 -0.3196269 -0.55578732
2.5695913 -0.33360642 -0.55752259
2.675637 -0.3473742 -0.55711043
2.7961688 -0.36302266 -0.55781502
2.9185331 -0.37890905 -0.5568499
3.0602515 -0.39730811 -0.55736488
3.2083046 -0.41652966 -0.55660546
3.375572 -0.43824574 -0.55653799
3.55338 -0.46133029 -0.555318
3.7680631 -0.48920229 -0.5565713
3.9873803 -0.51767594 -0.55487227
4.2351184 -0.5498395 -0.55321765
4.5406604 -0.58950758 -0.5544771
4.8834419 -0.63401037 -0.55484873
5.2554698 -0.68231022 -0.55255431
5.709537 -0.74126112 -0.55196434
6.2334652 -0.80928195 -0.54993361
6.8710375 -0.89205706 -0.54819709
7.6569595 -0.99409223 -0.54636848
8.6650791 -1.124975 -0.54536068
9.9372845 -1.2901436 -0.54186475
11.689034 -1.5175707 -0.53917652
14.155903 -1.8378409 -0.53412104
17.89163 -2.322845 -0.52496153
24.395729 -3.167263 -0.51121473
38.29533 -4.9718289 -0.48144495
2.0760212 -0.24361026 -0.5600841
2.1549535 -0.25287256 -0.56209397
2.2200518 -0.26051149 -0.55929178
2.3169887 -0.27188653 -0.56315243
2.3909793 -0.28056896 -0.56000417
2.4913819 -0.29235068 -0.56158566
2.5663493 -0.30114773 -0.55597371
2.6777279 -0.31421739 -0.55669916
2.7979579 -0.32832578 -0.55732441
2.9366195 -0.34459698 -0.55944997
3.0576599 -0.35880044 -0.55604732
3.2154176 -0.37731248 -0.55699247
3.3895102 -0.39774135 -0.55798745
3.5704167 -0.41896978 -0.55713326
3.7718854 -0.44261107 -0.55628991
3.9965472 -0.46897396 -0.55530345
4.2520595 -0.49895701 -0.55458724
4.5410924 -0.53287351 -0.55368781
4.8743443 -0.57197893 -0.55297422
5.2619352 -0.61746067 -0.55239403
5.712419 -0.67032254 -0.55140442
6.2416906 -0.73242986 -0.54982316
6.897326 -0.80936527 -0.54945892
7.6738777 -0.90048957 -0.54674423
8.6689939 -1.0172613 -0.54477865
9.9675407 -1.1696389 -0.54268926
11.680095 -1.3705982 -0.53794616
14.154753 -1.6609864 -0.53326672
17.927612 -2.1037118 -0.52521861
24.441328 -2.8680623 -0.51139253
38.341667 -4.4991946 -0.48129556
2.0811877 -0.21831025 -0.56071132
2.1328552 -0.22373003 -0.5555703
2.2343531 -0.23437683 -0.5621261
2.301059 -0.24137409 -0.5585171
2.3924575 -0.25096151 -0.55958533
2.4816487 -0.26031739 -0.5586279
2.5781598 -0.27044111 -0.55776972
2.6922412 -0.28240791 -0.55895227
2.8045788 -0.29419178 -0.55788046
2.9269657 -0.30702981 -0.55684954
3.0774744 -0.32281771 -0.55888653
3.2266986 -0.33847088 -0.55818349
3.3808658 -0.35464251 -0.55580449
3.5666053 -0.37412605 -0.55577862
3.7798498 -0.39649472 -0.55670339
3.9992907 -0.4195134 -0.55492592
4.2642784 -0.44730982 -0.55542153
4.5546918 -0.47777328 -0.55458772
4.8959808 -0.51357347 -0.55467039
5.2550859 -0.55124253 -0.5509218
5.718586 -0.59986222 -0.55124605
6.2627292 -0.65694124 -0.55092323
6.9202104 -0.72590899 -0.55052924
7.7044206 -0.80817026 -0.54817086
8.7013693 -0.91274714 -0.54606658
9.9685087 -1.0456662 -0.54200095
11.713533 -1.228714 -0.53874964
14.169382 -1.486325 -0.53308898
17.960772 -1.8840302 -0.52547163
24.472486 -2.5670893 -0.51134539
38.394417 -4.0274572 -0.48129967
2.0761218 -0.19200224 -0.5586682
2.1600215 -0.19976139 -0.56196433
2.2161407 -0.20495135 -0.55686808
2.2933168 -0.21208869 -0.55596292
2.3871205 -0.22076377 -0.55765992
2.4947038 -0.23071319 -0.56088567
2.5788045 -0.23849092 -0.55723262
2.7077036 -0.25041166 -0.56148076
2.8094056 -0.25981718 -0.55816287
2.9364297 -0.27156454 -0.55797255
3.0750942 -0.28438839 -0.55777705
3.2225349 -0.29802388 -0.55678719
3.3758118 -0.31219912 -0.55430061
3.5834961 -0.331406 -0.55773354
3.7757952 -0.34919006 -0.55543184
3.9960163 -0.36955637 -0.55379915
4.2629194 -0.39423987 -0.55457115
4.5463238 -0.42044947 -0.55289757
4.8772616 -0.45105499 -0.55187958
5.2970748 -0.48987982 -0.55465031
5.7179599 -0.52880377 -0.55051726
6.26369 -0.57927352 -0.55033952
6.9131699 -0.6393382 -0.54930222
7.7063785 -0.71269512 -0.54764521
8.6875534 -0.80343533 -0.54453838
10.001487 -0.92494947 -0.54313457
11.731865 -1.0849769 -0.5389384
14.186077 -1.3119453 -0.53306985
17.966995 -1.6616093 -0.52501631
24.496042 -2.2654233 -0.51121688
38.440479 -3.5550215 -0.48129272
2.0849655 -0.16699249 -0.560453
2.1575911 -0.17280933 -0.56073678
2.232255 -0.17878942 -0.5603224
2.3053203 -0.1846415 -0.55828023
2.3944578 -0.19178085 -0.55878091
2.4925916 -0.19964075 -0.55981654
2.5804281 -0.20667589 -0.55699217
2.7002969 -0.21627662 -0.55935115
2.8028095 -0.22448723 -0.5562619
2.9336169 -0.23496407 -0.55684698
3.0759249 -0.24636203 -0.55733609
3.2243831 -0.25825259 -0.55651575
3.390166 -0.27153075 -0.55606729
3.5647423 -0.28551319 -0.55422634
3.783422 -0.30302805 -0.55596364
4.010746 -0.32123527 -0.55525112
4.2827439 -0.34302056 -0.55655938
4.5542331 -0.36476514 -0.55327213
4.8978705 -0.3922883 -0.55362391
5.2819819 -0.42305321 -0.55248344
5.7326174 -0.4591462 -0.5513432
6.2680917 -0.50203431 -0.55014229
6.9140692 -0.55377299 -0.54879111
7.7159662 -0.61799985 -0.54774511
8.7008915 -0.69688612 -0.54479611
9.9909868 -0.80021459 -0.54198903
11.727612 -0.93930727 -0.53817177
14.193624 -1.136819 -0.53278786
17.987087 -1.4406514 -0.52504605
24.515278 -1.9635179 -0.51107579
38.46825 -3.0810623 -0.48112971
2.0836263 -0.14112498 -0.55958426
2.1622968 -0.14645337 -0.56144923
2.2161963 -0.15010402 -0.55578619
2.3091192 -0.15639773 -0.55869222
2.403733 -0.16280596 -0.56043583
2.4978082 -0.16917771 -0.56047851
2.5817285 -0.17486167 -0.55676669
2.6898839 -0.18218711 -0.55668801
2.8093114 -0.19027598 -0.55704588
2.9363866 -0.19888283 -0.55686641
3.063184 -0.20747089 -0.55452341
3.2186365 -0.21799976 -0.55501926
3.3996222 -0.230258 -0.5571118
3.5815732 -0.24258164 -0.5563373
3.7759809 -0.25574896 -0.55436611
4.0189414 -0.27220476 -0.55588025
4.2644701 -0.28883454 -0.55368119
4.5513883 -0.30826765 -0.55242419
4.890923 -0.3312645 -0.55233639
5.2915392 -0.35839844 -0.55298036
5.7397747 -0.38875765 -0.55153012
6.2709384 -0.42473361 -0.54989219
6.9188986 -0.46862021 -0.5486756
7.7146678 -0.52251804 -0.5471555
8.7195044 -0.59057611 -0.54546559
9.9995413 -0.67727357 -0.5419603
11.741921 -0.79528582 -0.5383389
14.223203 -0.96334416 -0.53341323
17.993446 -1.2187046 -0.52475458
24.538416 -1.6619984 -0.5110935
38.514507 -2.6086056 -0.48127067
2.0809565 -0.11525974 -0.55844432
2.1578679 -0.1195197 -0.55987531
2.2317219 -0.12361031 -0.55925626
2.3173771 -0.12835456 -0.56026602
2.3974054 -0.13278717 -0.5585376
2.5013683 -0.13854545 -0.56085271
2.5893273 -0.14341731 -0.55798292
2.7017694 -0.14964524 -0.5587247
2.8137338 -0.15584671 -0.5575006
2.9408717 -0.16288862 -0.55729502
3.0952368 -0.17143856 -0.55990189
3.2313385 -0.17897694 -0.55678797
3.4091995 -0.18882829 -0.55825859
3.5953133 -0.19913673 -0.55804908
3.7812855 -0.20943734 -0.55472487
4.0012622 -0.22162138 -0.55301625
4.2787123 -0.23698875 -0.55511004
4.568913 -0.25306237 -0.55413175
4.9071636 -0.27179733 -0.55375117
5.2896123 -0.29298034 -0.55236071
5.741488 -0.31800878 -0.55127734
6.2775292 -0.34769896 -0.5500536
6.9252434 -0.38357446 -0.54876322
7.7143064 -0.42727897 -0.54671586
8.7335873 -0.48373479 -0.54593319
10.016282 -0.55478048 -0.54245692
11.735729 -0.65001702 -0.53764796
14.233057 -0.78833866 -0.5333789
18.027946 -0.99852949 -0.52536291
24.568369 -1.3607895 -0.51133013
38.528267 -2.1339984 -0.48107836
2.0788777 -0.089520775 -0.55754894
2.1708896 -0.093483001 -0.56291312
2.2443724 -0.096647315 -0.56208611
2.3275154 -0.10022762 -0.56237662
2.4054883 -0.1035853 -0.5600816
2.4856296 -0.10703635 -0.55698657
2.5997574 -0.11195093 -0.55989158
2.7064862 -0.11654689 -0.55936152
2.812237 -0.12110075 -0.55686694
2.93015 -0.12617831 -0.55492723
3.0818012 -0.13270873 -0.55713421
3.2311454 -0.1391398 -0.55641788
3.4009109 -0.14645025 -0.55656433
3.5785954 -0.15410171 -0.55511808
3.7924256 -0.16330968 -0.55602252
4.0127521 -0.1727974 -0.55426866
4.2838163 -0.18446998 -0.55543596
4.5677581 -0.1966971 -0.55365646
4.9021587 -0.21109709 -0.55285168
5.2884693 -0.22773242 -0.55190724
5.7538433 -0.24777238 -0.55212933
6.2884855 -0.2707952 -0.55068022
6.9169145 -0.29785663 -0.54777157
7.7152953 -0.33223656 -0.54645514
8.7082052 -0.37499329 -0.5440172
10.024961 -0.43169552 -0.54259843
11.76948 -0.50681812 -0.53886789
14.24817 -0.61355567 -0.53362221
18.038506 -0.77677536 -0.52535254
24.56288 -1.0577284 -0.51090658
38.552757 -1.6601614 -0.48109284
2.0901258 -0.064269938 -0.56031138
2.146215 -0.065994643 -0.55626249
2.2382989 -0.068826154 -0.56031072
2.2938638 -0.070534736 -0.55399424
2.3883591 -0.073440403 -0.55584109
2.5024095 -0.076947369 -0.56049222
2.5862639 -0.079525843 -0.55673283
2.707608 -0.083257087 -0.55933946
2.8035367 -0.086206831 -0.55489224
2.9458265 -0.090582147 -0.55764306
3.0948806 -0.095165454 -0.55924487
3.2281013 -0.099261902 -0.55564147
3.3990748 -0.10451922 -0.5560115
3.5817709 -0.11013699 -0.55535859
3.7941446 -0.11666735 -0.55602217
4.0200272 -0.12361307 -0.5550217
4.2742786 -0.13143115 -0.55394793
4.5679545 -0.14046146 -0.55342907
4.9146118 -0.15112095 -0.55400467
5.3068094 -0.16318075 -0.55356997
5.7428017 -0.17658722 -0.55081987
6.2855086 -0.19327508 -0.55016983
6.9295745 -0.21307966 -0.54852521
7.7262573 -0.23757713 -0.5469833
8.7231913 -0.26823214 -0.54470617
10.032565 -0.30849448 -0.54276365
11.768301 -0.36186719 -0.53856945
14.242019 -0.43793231 -0.53314984
18.024385 -0.55423748 -0.52470315
24.584917 -0.75596935 -0.51113296
38.561405 -1.1857368 -0.48098251
2.0849986 -0.03845961 -0.55876791
2.1781335 -0.040177565 -0.56436455
2.2252183 -0.041046087 -0.5568679
2.2954662 -0.042341869 -0.55421364
2.3975098 -0.04422415 -0.55780196
2.4826493 -0.045794621 -0.55589819
2.5941949 -0.047852177 -0.55827123
2.7057271 -0.049909487 -0.55878192
2.8108969 -0.051849432 -0.55618078
2.9538081 -0.054485552 -0.55898488
3.0941076 -0.057073504 -0.55893612
3.2414896 -0.059792094 -0.55777723
3.4165614 -0.063021444 -0.55870289
3.5956213 -0.066324361 -0.55733758
3.8041575 -0.070170991 -0.55732095
4.0353093 -0.07443478 -0.55696309
4.2798872 -0.07894624 -0.55450702
4.5750313 -0.084390424 -0.55411881
4.9133978 -0.090631887 -0.55370033
5.2933149 -0.097639792 -0.55199534
5.7498064 -0.10606017 -0.5513249
6.2851763 -0.11593553 -0.54997438
6.934289 -0.12790899 -0.5487324
7.7279668 -0.14254907 -0.5469389
8.7261391 -0.16096121 -0.54472548
10.032958 -0.18506663 -0.54262078
11.779842 -0.21728943 -0.53893465
14.235405 -0.26258442 -0.53274107
18.041527 -0.33279163 -0.52504331
24.587793 -0.45354322 -0.51103818
38.575336 -0.71155554 -0.48101074
2.0804021 -0.01279032 -0.55745178
2.171495 -0.013350357 -0.56255937
2.2375543 -0.01375649 -0.5598703
2.2989521 -0.014133964 -0.55497128
2.4046121 -0.014783562 -0.5593698
2.5066245 -0.015410734 -0.56118166
2.6006498 -0.015988803 -0.55957574
2.7004707 -0.016602501 -0.557612
2.8279698 -0.017386368 -0.55947435
2.951026 -0.018142916 -0.55837393
3.0988657 -0.019051837 -0.55971104
3.235285 -0.019890543 -0.55662543
3.4100065 -0.020964731 -0.55754668
3.6001642 -0.02213382 -0.55795735
3.8049173 -0.023392644 -0.55734801
4.0185566 -0.024706099 -0.55456704
4.2860646 -0.026350738 -0.55522341
4.5678201 -0.028082972 -0.5531618
4.9126186 -0.030202795 -0.55352885
5.3188338 -0.032700207 -0.55457264
5.7511768 -0.035358254 -0.55137295
6.2922368 -0.038684689 -0.55050898
6.9389181 -0.04266049 -0.5490157
7.7428908 -0.047603317 -0.54791224
8.7455158 -0.053767458 -0.54585248
10.022671 -0.061619412 -0.54198247
11.775636 -0.072396643 -0.53866071
14.247445 -0.087593332 -0.53311104
18.049215 -0.11096664 -0.52518767
24.592453 -0.15119448 -0.51105779
38.564541 -0.23709491 -0.48080343
2.0857704 0.012823323 -0.55889016
2.1493759 0.01321437 -0.55682909
2.2337739 0.013733249 -0.55892444
2.3134763 0.014223259 -0.55847746
2.4112146 0.014824154 -0.56090569
2.4970686 0.015351986 -0.55904233
2.5965989 0.015963897 -0.55870408
2.7000072 0.016599651 -0.55751634
2.8175139 0.017322086 -0.55740583
2.9385803 0.018066401 -0.55601907
3.0755723 0.018908627 -0.55550379
3.2469296 0.019962134 -0.55862886
3.3969173 0.020884259 -0.55540657
3.5893524 0.022067349 -0.55628169
3.8024364 0.023377391 -0.5569846
4.0229592 0.024733165 -0.55517459
4.2849517 0.026343897 -0.55507928
4.5810699 0.028164433 -0.55476636
4.926724 0.030289514 -0.55511814
5.2892165 0.032518119 -0.55148453
5.752625 0.035367154 -0.55151176
6.2932472 0.038690906 -0.55059737
6.9439664 0.042691525 -0.54941511
7.7170544 0.047444474 -0.54608399
8.7267714 0.053652216 -0.54468256
10.034343 0.061691172 -0.54261363
11.76839 0.072352096 -0.5383293
14.250366 0.087611295 -0.53322041
18.046965 0.1109528 -0.52512223
24.583551 0.15113975 -0.51087278
38.584831 0.23721966 -0.48105639
2.0817635 0.038399935 -0.55790085
2.1544623 0.039740931 -0.55823123
2.2383747 0.041288767 -0.56016028
2.3211331 0.042815316 -0.56041062
2.4052832 0.044367537 -0.55961049
2.4955819 0.046033178 -0.55879396
2.5823002 0.047632772 -0.55571151
2.7058485 0.049911726 -0.55880696
2.8152821 0.051930323 -0.5570485
2.952652 0.054464232 -0.55876607
3.0814395 0.056839827 -0.55664772
3.2408199 0.059779741 -0.55766201
3.3905637 0.062541895 -0.55445158
3.5851471 0.066131152 -0.55571401
3.8015592 0.070123062 -0.55694032
4.0185704 0.07412602 -0.55465275
4.2840261 0.079022586 -0.55504328
4.5929885 0.084721662 -0.55629379
4.8955712 0.090303056 -0.55169141
5.2969804 0.097707406 -0.55237758
5.7426815 0.10592875 -0.55064172
6.2724271 0.11570036 -0.54885876
6.9384913 0.12798651 -0.54906493
7.7318439 0.14262058 -0.54721326
8.7318249 0.16106609 -0.54508036
10.022631 0.18487613 -0.54206222
11.763582 0.2169895 -0.53819078
14.241936 0.26270488 -0.53298551
18.033463 0.33264288 -0.52480865
24.585056 0.45349273 -0.51098132
38.56889 0.71143669 -0.48093039
2.0878844 0.06420102 -0.5597105
2.1627309 0.066502497 -0.56054318
2.23434 0.068704419 -0.55931967
2.319102 0.071310796 -0.56008959
2.4166486 0.074310288 -0.56242484
2.5000689 0.076875404 -0.55996799
2.5956495 0.079814442 -0.55875325
2.7008655 0.083049759 -0.55794656
2.8177471 0.086643793 -0.55770487
2.9489238 0.090677388 -0.55822939
3.0879893 0.094953559 -0.55799967
3.2247005 0.099157333 -0.5550561
3.3975863 0.10447345 -0.55576801
3.5870602 0.11029964 -0.55617875
3.7891803 0.1165147 -0.55529469
4.0304861 0.12393469 -0.55646569
4.2857056 0.1317825 -0.5554288
4.5693879 0.14050554 -0.55360276
4.9072175 0.15089357 -0.5531711
5.3078213 0.16321187 -0.55367553
5.7396345 0.17648983 -0.55051607
6.2925506 0.19349161 -0.55078626
6.9365606 0.21329448 -0.54907823
7.7324333 0.23776703 -0.5474205
8.7202387 0.26814136 -0.54452181
10.022564 0.30818695 -0.54222256
11.77527 0.36208147 -0.53888839
14.244185 0.43799895 -0.53323096
18.04422 0.55484742 -0.52528059
24.561384 0.75524569 -0.51064372
38.562687 1.1857761 -0.48099846
2.0942831 0.090184167 -0.56168067
2.1479721 0.092496112 -0.55697054
2.2228692 0.095721334 -0.55670077
2.3117886 0.099550396 -0.5585767
2.4083669 0.10370926 -0.56075186
2.4892499 0.10719224 -0.55779779
2.5947571 0.1117356 -0.55881464
2.7027779 0.1163872 -0.55859512
2.8152778 0.12123168 -0.55746901
2.9343283 0.12635824 -0.5557186
3.0879567 0.13297379 -0.55824697
3.2271993 0.13896987 -0.55573833
3.4017599 0.14648682 -0.55670327
3.5766635 0.15401852 -0.55481839
3.7924144 0.1633092 -0.55602092
4.0153856 0.17291081 -0.55463248
4.2786398 0.18424708 -0.55476481
4.5681005 0.19671185 -0.55369794
4.8984079 0.21093556 -0.55242866
5.3047996 0.22843564 -0.55361146
5.7399998 0.24717626 -0.55080098
6.2824078 0.27053347 -0.55014801
6.9315538 0.29848704 -0.54893088
7.7120023 0.33209476 -0.54622191
8.7185507 0.37543884 -0.54466349
10.009721 0.43103927 -0.54177356
11.757885 0.50631887 -0.53833705
14.24707 0.61350828 -0.53358102
18.026386 0.77625346 -0.52499962
24.565962 1.0578611 -0.51097071
38.552906 1.6601678 -0.48109472
2.0850391 0.11548587 -0.55953997
2.1564214 0.11943958 -0.55950004
2.2385356 0.12398771 -0.56096375
2.2998297 0.12738267 -0.55602366
2.4011109 0.1329924 -0.55940086
2.4938276 0.13812779 -0.55916196
2.5795128 0.14287372 -0.55586797
2.6966536 0.14936188 -0.55766678
2.8194704 0.15616445 -0.5586372
2.9566708 0.16376369 -0.56028891
3.0829809 0.17075974 -0.5576849
3.229852 0.17889461 -0.55653185
3.3986347 0.18824312 -0.55652857
3.5661371 0.19752073 -0.55352044
3.7856097 0.20967685 -0.55535924
4.0202374 0.22267237 -0.55563885
4.2749882 0.23678248 -0.55462688
4.5708318 0.25316861 -0.55436444
4.9125128 0.27209359 -0.55435479
5.2815089 0.29253152 -0.55151457
5.7490878 0.31842971 -0.55200702
6.2827549 0.3479884 -0.55051154
6.9214706 0.38336551 -0.5484643
7.7169461 0.42742518 -0.54690295
8.7249498 0.48325637 -0.54539329
10.011249 0.55450165 -0.54218429
11.75369 0.65101182 -0.53847075
14.230824 0.78821498 -0.53329521
18.024668 0.99834794 -0.52526736
24.553251 1.3599522 -0.51101553
38.535088 2.1343763 -0.48116353
2.0874825 0.14138617 -0.56061989
2.1589928 0.14622958 -0.56059134
2.2332768 0.15126088 -0.56006968
2.3258724 0.15753242 -0.56274569
2.3969605 0.16234726 -0.55885679
2.4888031 0.16856779 -0.55845791
2.5805678 0.17478307 -0.55651635
2.6953428 0.18255682 -0.55781776
2.8070889 0.19012544 -0.55660516
2.9433532 0.19935468 -0.55818754
3.0795991 0.20858268 -0.55749494
3.2316496 0.21888115 -0.55726326
3.3946819 0.22992338 -0.55630219
3.5812726 0.24256127 -0.55629063
3.7837024 0.25627193 -0.55549973
4.0039625 0.27119026 -0.55380851
4.2854352 0.29025453 -0.55640322
4.5677404 0.3093752 -0.55440903
4.8966713 0.33165383 -0.55298555
5.2856479 0.35799938 -0.55236471
5.7394605 0.38873634 -0.5514999
6.284893 0.42567873 -0.55111581
6.910017 0.46801868 -0.54797125
7.722065 0.52301908 -0.54768008
8.7112055 0.59001404 -0.54494643
10.005978 0.67770952 -0.54230917
11.739988 0.79515493 -0.53825033
14.226468 0.96356535 -0.53353566
18.001343 1.2192394 -0.52498484
24.531855 1.661554 -0.51095682
38.510849 2.6083577 -0.48122495
2.0954516 0.16783234 -0.5632717
2.1483836 0.17207187 -0.55834383
2.2207859 0.17787084 -0.55744356
2.2965555 0.1839395 -0.55615765
2.3950896 0.19183145 -0.55892831
2.4849546 0.19902906 -0.5581013
2.5814056 0.20675418 -0.55720317
2.6871712 0.21522532 -0.55663222
2.8032358 0.22452137 -0.55634648
2.9319837 0.23483326 -0.55653697
3.0640073 0.24540751 -0.55517673
3.2319829 0.25886127 -0.55782741
3.3896685 0.2714909 -0.55598569
3.5879614 0.28737292 -0.55783635
3.7846801 0.30312884 -0.55614853
4.0167975 0.32171994 -0.55608892
4.2658439 0.34166697 -0.55436313
4.5565052 0.36494711 -0.55354816
4.8990035 0.39237905 -0.55375195
5.270081 0.42210001 -0.55123866
5.7307343 0.45899537 -0.55116212
6.2667933 0.5019303 -0.55002832
6.9112086 0.55354387 -0.54856408
7.714488 0.61788148 -0.5476402
8.7095032 0.69757587 -0.54533529
9.9892216 0.80007315 -0.54189324
11.740745 0.940359 -0.53877437
14.20367 1.1376237 -0.53316498
17.99472 1.4412627 -0.52526885
24.511633 1.9632261 -0.5109998
38.485836 3.0824709 -0.48134968
2.0805876 0.19241524 -0.55986989
2.1604447 0.19980052 -0.56207442
2.2263424 0.20589481 -0.55943155
2.3040268 0.21307915 -0.55855924
2.3914437 0.22116359 -0.55866992
2.4835343 0.22968023 -0.5583744
2.5806253 0.23865931 -0.55762601
2.6804893 0.24789485 -0.55583751
2.8039925 0.25931656 -0.55708742
2.9276166 0.27074948 -0.5562979
3.0632598 0.28329393 -0.55563045
3.2153463 0.29735908 -0.55554515
3.3961253 0.31407773 -0.55763602
3.5828958 0.33135048 -0.55764008
3.7817788 0.34974343 -0.55631208
4.0075612 0.37062407 -0.55539918
4.2638583 0.39432675 -0.55469334
4.5512581 0.4209058 -0.55349761
4.8927393 0.45248637 -0.55363095
5.2759047 0.48792198 -0.55243361
5.7354546 0.53042167 -0.55220163
6.2792659 0.58071399 -0.55170804
6.9053812 0.63861793 -0.54868335
7.6888356 0.71107274 -0.54639858
8.7011824 0.80469573 -0.54539263
9.9900932 0.92389578 -0.54251581
11.71235 1.0831722 -0.53804195
14.201595 1.3133806 -0.53365302
17.979837 1.6627969 -0.52539152
24.503586 2.2661209 -0.51137429
38.439156 3.5548992 -0.48127615
2.0809348 0.21828373 -0.5606432
2.1443927 0.22494027 -0.55857557
2.2154319 0.23239206 -0.55736583
2.2954028 0.24078076 -0.55714417
2.3956833 0.25129989 -0.56033981
2.474333 0.25955001 -0.55698115
2.5840275 0.27105662 -0.55903918
2.6885521 0.28202093 -0.55818635
2.8089449 0.29464975 -0.55874896
2.9179311 0.3060821 -0.55513072
3.066133 0.32162803 -0.55682689
3.2188249 0.33764493 -0.55682141
3.3727217 0.35378826 -0.55446565
3.584996 0.37605515 -0.55864441
3.7798495 0.39649472 -0.55670333
4.00108 0.4197011 -0.55517417
4.2480397 0.44560641 -0.5533064
4.5461226 0.47687438 -0.55354434
4.8838091 0.51229668 -0.55329144
5.2673821 0.55253232 -0.55221087
5.7285657 0.60090911 -0.55220807
6.2651978 0.65720016 -0.55114037
6.8961458 0.72338468 -0.5486148
7.6790981 0.80551404 -0.54636919
8.680666 0.91057545 -0.54476732
9.9792681 1.0467948 -0.54258591
11.710509 1.2283968 -0.53861052
14.18573 1.4880399 -0.53370404
17.954369 1.8833586 -0.52528429
24.468504 2.5666716 -0.51126218
38.399269 4.0279665 -0.4813605
2.0688245 0.24276577 -0.55814254
2.1421082 0.25136521 -0.55874342
2.2195511 0.26045275 -0.55916566
2.3136208 0.27149132 -0.56233388
2.3837886 0.27972516 -0.55831999
2.4852026 0.29162556 -0.56019276
2.5854931 0.30339414 -0.560121
2.6809304 0.3145932 -0.55736494
2.7934704 0.3277992 -0.55643052
2.905581 0.34095478 -0.55353689
3.057596 0.35879293 -0.5560357
3.2042358 0.37600034 -0.5550555
3.3784828 0.39644733 -0.55617213
3.5618916 0.41796941 -0.55580294
3.7673118 0.44207439 -0.55561537
3.9955356 0.46885529 -0.55516291
4.2543736 0.49922857 -0.55488908
4.5456629 0.53340983 -0.55424511
4.8674555 0.57117057 -0.55219269
5.2592549 0.61714613 -0.55211264
5.711679 0.67023569 -0.55133301
6.2486534 0.73324686 -0.5504365
6.8974266 0.80937707 -0.54946697
7.6804194 0.90125716 -0.54721034
8.6830254 1.0189077 -0.54566038
9.9679461 1.1696864 -0.54271132
11.70307 1.3732942 -0.53900427
14.165544 1.6622527 -0.53367323
17.920376 2.1028626 -0.52500659
24.452272 2.8693466 -0.51162153
38.361588 4.5015321 -0.4815456
2.0669794 0.26835302 -0.55849278
2.1415944 0.27804017 -0.55945885
2.2256229 0.28894949 -0.56154799
2.3012466 0.2987676 -0.56017691
2.3701725 0.30771613 -0.55597508
2.47701 0.3215867 -0.55919516
2.5674751 0.33333164 -0.5570634
2.6786878 0.34777027 -0.55774564
2.7922082 0.36250845 -0.5570249
2.9168811 0.37869453 -0.55653465
3.0612724 0.39744067 -0.55755085
3.2100658 0.41675833 -0.55691105
3.3704081 0.43757531 -0.55568659
3.5560386 0.46167549 -0.5557335
3.7615461 0.48835623 -0.55560869
3.9886065 0.51783514 -0.55504292
4.2355576 0.54989642 -0.55327499
4.5395498 0.5893634 -0.5543415
4.8613486 0.63114202 -0.55233854
5.2570157 0.68251091 -0.55271685
5.7045751 0.74061692 -0.55148464
6.2388005 0.80997467 -0.55040437
6.86759 0.89160949 -0.54792202
7.6795349 0.99702317 -0.54797935
8.6642532 1.1248678 -0.54530871
9.9415998 1.2907039 -0.54210007
11.682656 1.5167427 -0.53888237
14.133647 1.8349514 -0.53328127
17.904125 2.3244672 -0.52532816
24.39901 3.1676888 -0.51128346
38.318298 4.9748106 -0.48173371
2.0643325 0.29386252 -0.55871171
2.1415863 0.30485976 -0.56039369
2.2126224 0.31497192 -0.55920273
2.2817578 0.32481351 -0.55636305
2.3693202 0.33727822 -0.55670595
2.4701455 0.35163096 -0.55857939
2.5634878 0.36491844 -0.5571298
2.6634686 0.37915093 -0.55550551
2.7908092 0.39727813 -0.55767816
2.9239993 0.41623807 -0.55882716
3.0594769 0.43552363 -0.55815703
3.192559 0.45446816 -0.55480134
3.3737113 0.48025563 -0.55716276
3.5486267 0.50515521 -0.5555039
3.7511451 0.53398418 -0.55500031
3.986758 0.56752425 -0.55571479
4.2297492 0.60211456 -0.55344158
4.5294924 0.64478374 -0.55403966
4.8638506 0.69238043 -0.55354834
5.2602754 0.74881244 -0.55398577
5.6947718 0.81066394 -0.5514589
6.223083 0.88587028 -0.54993713
6.8786325 0.97918928 -0.54972214
7.673532 1.0923451 -0.54846799
8.6475506 1.2309989 -0.54516894
9.9544287 1.4170359 -0.54370856
11.658655 1.6596366 -0.5386759
14.121861 2.0102794 -0.5337289
17.874424 2.5444658 -0.52533507
24.370096 3.4691396 -0.51153278
38.262039 5.4466896 -0.48183197
2.0559654 0.31851009 -0.55746496
2.1411643 0.33170909 -0.56130815
2.206533 0.34183601 -0.55868381
2.2871466 0.35432467 -0.5586971
2.3785946 0.3684918 -0.55990744
2.4722984 0.38300836 -0.56008881
2.5725093 0.39853305 -0.56011313
2.6668966 0.41315553 -0.55723792
2.8009524 0.43392345 -0.56072891
2.9237094 0.45294094 -0.55979383
3.0628526 0.47449702 -0.55979502
3.1923296 0.49455559 -0.5557763
3.3761156 0.52302772 -0.55857968
3.5572352 0.55108672 -0.55787009
3.7354023 0.57868838 -0.55368203
3.9698889 0.61501503 -0.55437559
4.2361565 0.6562652 -0.5552938
4.528038 0.70148349 -0.5548749
4.8604555 0.7529816 -0.55417377
5.2227311 0.80910528 -0.55103791
5.6826596 0.88035744 -0.55129266
6.2265196 0.96461219 -0.55124736
6.8552775 1.0620193 -0.54885787
7.6481752 1.1848551 -0.54765558
8.6393785 1.3384123 -0.54565006
9.9113646 1.5354682 -0.54234672
11.640604 1.803362 -0.53882569
14.099525 2.1842978 -0.53385955
17.833113 2.7627051 -0.52507961
24.329596 3.76914 -0.51161683
38.200016 5.9179454 -0.48193088
2.0599971 0.34512281 -0.55966657
2.1257238 0.35613438 -0.55836618
2.2092512 0.37012818 -0.56048203
2.2889349 0.38347808 -0.56024349
2.3736477 0.39767045 -0.55985171
2.4684322 0.41355026 -0.5603227
2.5587323 0.42867869 -0.55821896
2.6527748 0.44443417 -0.55538708
2.7759149 0.46506453 -0.55681932
2.9174054 0.48876923 -0.5596953
3.0525856 0.51141673 -0.55902565
3.1795118 0.53268135 -0.55464315
3.3557169 0.56220204 -0.55630648
3.5337868 0.59203506 -0.55529249
3.748997 0.62809038 -0.55679977
3.9553843 0.66266757 -0.55344617
4.2223663 0.70739663 -0.5545845
4.507195 0.75511557 -0.55341673
4.8504539 0.81262362 -0.55413079
5.2384701 0.87763017 -0.55379528
5.6744466 0.95067173 -0.55158824
6.2052035 1.0395924 -0.55045033
6.8450365 1.1467872 -0.54912543
7.6427937 1.2804399 -0.54835618
8.6146231 1.4432559 -0.54516619
9.8992062 1.6584693 -0.54275632
11.616252 1.9461355 -0.53876543
14.059809 2.3555181 -0.5334121
17.814659 2.9845893 -0.52557713
24.281256 4.0679741 -0.51161355
38.13166 6.3884101 -0.48202312
2.0489869 0.3692342 -0.55786663
2.1094327 0.38012674 -0.55527282
2.1992249 0.39630756 -0.55913246
2.2834833 0.41149119 -0.5601052
2.3664763 0.42644683 -0.55935478
2.4569793 0.44275576 -0.55891645
2.5582373 0.4610028 -0.55930543
2.6756036 0.48215255 -0.56136537
2.7970464 0.50403696 -0.56225884
2.9088659 0.52418721 -0.55925131
