# .PCD v0.7 - Point Cloud Data file format
VERSION 0.7
FIELDS x y z
SIZE 4 4 4
TYPE F F F
COUNT 1 1 1
WIDTH 1460
HEIGHT 1
VIEWPOINT 0 0 0 1 0 0 0
POINTS 1460
DATA ascii
-7.6964622 26.792553 -0.57928437
-13.063504 45.47604 -0.58989072
-0.6085189 2.0242157 -0.56636441
-0.6248734 2.0786183 -0.56229401
-0.65095544 2.165379 -0.56575316
-0.67188418 2.2349977 -0.5633741
-0.70042783 2.3299472 -0.56595153
-0.73231834 2.4360299 -0.56947678
-0.75707966 2.5183976 -0.56582284
-0.78955972 2.6264412 -0.56629086
-0.82294178 2.7374854 -0.56550491
-0.86113822 2.8645444 -0.56596142
-0.90009809 2.994143 -0.56469351
-0.94856381 3.1553624 -0.56686401
-0.99499428 3.3098116 -0.56507808
-1.0454694 3.4777153 -0.56279713
-1.1109629 3.6955769 -0.56525272
-1.1811658 3.9291046 -0.56618285
-1.2579236 4.1844363 -0.56601143
-1.3450861 4.4743791 -0.56578982
-1.4455066 4.8084245 -0.56572992
-1.5684242 5.2173052 -0.56802499
-1.7055608 5.6734848 -0.56796008
-1.8643481 6.201685 -0.56656301
-2.0695002 6.8841157 -0.56874859
-2.3118236 7.6901956 -0.56823033
-2.6235452 8.7271261 -0.5687747
-3.0348938 10.095462 -0.57004237
-3.5929468 11.951805 -0.57087839
-4.4032683 14.647309 -0.57229203
-5.6916447 18.933046 -0.57524896
-8.0317926 26.717463 -0.57975239
-13.656625 45.428257 -0.59140456
-0.63428861 2.0195317 -0.56719321
-0.6508134 2.0721455 -0.56266528
-0.6771335 2.155947 -0.56542146
-0.70241481 2.2364409 -0.56587231
-0.72757679 2.316555 -0.56482899
-0.75636232 2.408206 -0.56510383
-0.78848988 2.510498 -0.56618357
-0.82059568 2.6127207 -0.56546539
-0.85696328 2.7285125 -0.56578541
-0.89329469 2.8441894 -0.56406736
-0.93794841 2.9863639 -0.56535888
-0.98587066 3.1389449 -0.5660497
-1.0321912 3.2864261 -0.56320989
-1.0965458 3.491327 -0.56713909
-1.1588465 3.6896882 -0.56648874
-1.2344586 3.9304318 -0.56851846
-1.3075041 4.1630039 -0.56524438
-1.4047726 4.4727001 -0.56771886
-1.5069997 4.7981844 -0.56666249
-1.6303772 5.1910095 -0.56730187
-1.7737451 5.6474833 -0.56749767
-1.9417647 6.1824465 -0.56694388
-2.1523163 6.852828 -0.56830728
-2.4066889 7.6627336 -0.56834489
-2.7311833 8.6959019 -0.56888551
-3.1536162 10.040898 -0.56910801
-3.7435441 11.919189 -0.57147604
-4.5904307 14.615619 -0.57321596
-5.9298558 18.880257 -0.57581693
-8.373498 26.660646 -0.58070982
-14.245559 45.356888 -0.59271103
-0.65356696 1.9947783 -0.56245571
-0.68129027 2.0793936 -0.56686544
-0.70151109 2.1411104 -0.56375009
-0.72425562 2.2105298 -0.56152713
-0.75772148 2.3126726 -0.56611133
-0.78836697 2.4062068 -0.56686664
-0.8204428 2.5041068 -0.56697452
-0.85260791 2.6022792 -0.56543183
-0.88835979 2.7113991 -0.5644592
-0.93027502 2.8393302 -0.56532961
-0.97079521 2.9630034 -0.56315374
-1.0265533 3.1331849 -0.56724441
-1.0810163 3.2994137 -0.5676707
-1.1332753 3.4589155 -0.56409514
-1.2002605 3.6633639 -0.56467038
-1.2790828 3.9039404 -0.56691879
-1.3622202 4.1576872 -0.56675398
-1.4552085 4.4415011 -0.56598729
-1.5678736 4.7853708 -0.56738323
-1.6908854 5.16082 -0.56623203
-1.8414054 5.6202283 -0.56699133
-2.0230978 6.1747785 -0.568479
-2.2335961 6.8172488 -0.56759149
-2.5039682 7.6424627 -0.56908208
-2.8456502 8.6853247 -0.57043958
-3.2845387 10.024874 -0.57044578
-3.8888309 11.869259 -0.57133162
-4.7760053 14.577039 -0.57396281
-6.1645064 18.814941 -0.5760932
-8.7135334 26.594929 -0.58156824
-14.832294 45.270248 -0.59391731
-0.68202633 1.998258 -0.56575876
-0.70426881 2.063426 -0.56483054
-0.72642469 2.12834 -0.56269705
-0.75203353 2.203371 -0.56201512
-0.78588641 2.3025558 -0.56595767
-0.81472075 2.3870373 -0.564668
-0.8487165 2.4866409 -0.56534016
-0.88370204 2.5891445 -0.56489629
-0.92609632 2.7133548 -0.56719416
-0.9628762 2.8211155 -0.56401771
-1.0148362 2.9733522 -0.56744951
-1.061916 3.1112905 -0.56560183
-1.1144599 3.2652383 -0.56410593
-1.1791688 3.4548275 -0.56575036
-1.2450335 3.6478038 -0.56458902
-1.3280938 3.8911607 -0.56739157
-1.4103879 4.1322727 -0.56561095
-1.5118568 4.429565 -0.56679243
-1.6209604 4.7492256 -0.56541818
-1.7617766 5.1618009 -0.56867355
-1.9160291 5.6137428 -0.56867093
-2.0952389 6.1388068 -0.56749636
-2.3192167 6.7950363 -0.56807351
-2.5995698 7.6164374 -0.56948137
-2.9485376 8.6388731 -0.56972694
-3.4060471 9.9793224 -0.57019389
-4.0361652 11.825496 -0.57157087
-4.9526958 14.510824 -0.57371014
-6.4017878 18.756496 -0.57667041
-9.0529184 26.524 -0.58240747
-15.42395 45.190384 -0.59531271
-0.69875216 1.967777 -0.55951917
-0.72887534 2.0526078 -0.56427997
-0.75583726 2.1285362 -0.56516337
-0.78214252 2.2026153 -0.56423283
-0.81395513 2.2922034 -0.56583041
-0.84468573 2.3787448 -0.5651207
-0.88231045 2.4847009 -0.56732285
-0.91574413 2.5788546 -0.56506532
-0.95758492 2.6966836 -0.56612784
-0.9982475 2.8111949 -0.56444573
-1.0522081 2.9631548 -0.56792969
-1.1014668 3.1018736 -0.56630933
-1.1570643 3.2584436 -0.56534737
-1.2238513 3.4465244 -0.56681222
-1.2958121 3.6491756 -0.56722468
-1.3739314 3.8691695 -0.56660557
-1.4618593 4.116786 -0.56590885
-1.5651232 4.4075904 -0.56640041
-1.6892698 4.7572036 -0.56879795
-1.8256643 5.1413083 -0.56884611
-1.9803071 5.5768023 -0.56735271
-2.1706009 6.1126943 -0.56750691
-2.4061613 6.7760634 -0.56891793
-2.6914294 7.5794148 -0.56914467
-3.0538738 8.6001053 -0.56960368
-3.5401173 9.9694309 -0.57207274
-4.1885352 11.795461 -0.57256526
-5.1393557 14.473094 -0.57467353
-6.642355 18.705734 -0.57757729
-9.3865366 26.433708 -0.58291519
-16.00773 45.079849 -0.59640461
-0.73005974 1.9784552 -0.56506526
-0.76058304 2.061173 -0.56916267
-0.78383315 2.1241806 -0.56652325
-0.81077158 2.1971836 -0.56535262
-0.8463372 2.293566 -0.56869274
-0.87438309 2.36957 -0.56545264
-0.90882355 2.4629035 -0.5648548
-0.94694018 2.5661991 -0.56480098
-0.99284822 2.6906097 -0.5673728
-1.0346584 2.803915 -0.56549579
-1.0847965 2.9397886 -0.56596506
-1.1414986 3.0934508 -0.56729126
-1.1977271 3.2458293 -0.56567127
-1.2654972 3.4294856 -0.56652635
-1.3395913 3.63028 -0.56680512
-1.4236244 3.8580091 -0.56749183
-1.5125867 4.0990958 -0.56599104
-1.6207622 4.3922505 -0.56694734
-1.7447189 4.7281723 -0.56784904
-1.8852893 5.1091166 -0.56780636
-2.0510809 5.5584106 -0.56800449
-2.2486668 6.0938663 -0.56828308
-2.4868524 6.7393475 -0.56835973
-2.7883136 7.5563045 -0.56994081
-3.160917 8.5660563 -0.56987977
-3.6597197 9.9178066 -0.57164949
-4.333405 11.743487 -0.5725857
-5.3167362 14.408306 -0.57465351
-6.8735595 18.627283 -0.57772094
-9.723424 26.350391 -0.58367038
-16.594145 44.969982 -0.59760541
-0.75363064 1.9675015 -0.56454086
-0.77503449 2.0233803 -0.56131595
-0.80847913 2.1106942 -0.56553501
-0.84131318 2.196414 -0.56777358
-0.86802202 2.2661426 -0.56449693
-0.90462059 2.3616905 -0.56618392
-0.93561369 2.4426041 -0.56279522
-0.97802913 2.5533378 -0.56457454
-1.0228952 2.6704695 -0.56573546
-1.0658722 2.7826695 -0.56381172
-1.1210134 2.9266267 -0.56604213
-1.1769882 3.0727599 -0.56610823
-1.2388153 3.2341716 -0.56625158
-1.3091283 3.4177375 -0.56720197
-1.3804375 3.6039045 -0.56529462
-1.472064 3.8431134 -0.56792039
-1.5644661 4.0843472 -0.56656802
-1.6773835 4.3791404 -0.56787455
-1.80425 4.7103505 -0.56833023
-1.9469032 5.0827751 -0.56749654
-2.1202543 5.5353417 -0.56826842
-2.3246608 6.0689855 -0.56858552
-2.5764024 6.7262068 -0.56988019
-2.8791018 7.5164633 -0.56956297
-3.2689512 8.5342417 -0.57039428
-3.7763712 9.8589621 -0.57089114
-4.4834156 11.704841 -0.57334602
-5.4954767 14.347026 -0.57486111
-7.1085916 18.55838 -0.5782513
-10.05887 26.260664 -0.58437848
-17.189251 44.875927 -0.59911913
-0.78215015 1.9691259 -0.56772369
-0.80870539 2.0359809 -0.56752735
-0.8346405 2.1012747 -0.56571829
-0.86868024 2.1869724 -0.56805116
-0.89448702 2.2519431 -0.56365705
-0.93424517 2.3520374 -0.56658101
-0.97451669 2.4534242 -0.56800634
-1.011799 2.5472853 -0.56594443
-1.0537671 2.6529436 -0.56472492
-1.107591 2.7884495 -0.56769943
-1.157487 2.9140668 -0.56632292
-1.2189507 3.0688066 -0.56809837
-1.2800623 3.2226598 -0.56694907
-1.3514841 3.4024701 -0.56738329
-1.427301 3.5933454 -0.56634849
-1.5151027 3.814393 -0.56638658
-1.6151441 4.0662556 -0.56677055
-1.7317138 4.3597288 -0.56807572
-1.8570198 4.6751966 -0.56680101
-2.0115085 5.0641346 -0.56813401
-2.1879237 5.5082736 -0.56820858
-2.3983221 6.0379691 -0.56839961
-2.6518688 6.6762934 -0.56837106
-2.9782708 7.4980359 -0.57089853
-3.3737621 8.4937181 -0.57041544
-3.9040155 9.8286734 -0.57187378
-4.6285028 11.652628 -0.573533
-5.6795092 14.298622 -0.57567638
-7.3455348 18.492975 -0.57898396
-10.393212 26.165747 -0.58506596
-17.771307 44.740696 -0.60018575
-0.8012532 1.94709 -0.56416845
-0.82966197 2.016125 -0.56479359
-0.85904717 2.0875325 -0.56481981
-0.89208102 2.1678069 -0.56587952
-0.92419916 2.2458556 -0.56493515
-0.96156758 2.336663 -0.56568295
-1.0007513 2.4318814 -0.56582505
-1.0470088 2.5442898 -0.56809634
-1.0914435 2.6522686 -0.56739527
-1.1361037 2.7607958 -0.56487083
-1.1933529 2.8999143 -0.56638151
-1.2492273 3.0356922 -0.56476915
-1.3243154 3.2181606 -0.56897938
-1.3943989 3.3884676 -0.5678646
-1.4706277 3.5737076 -0.56606072
-1.5645592 3.8019664 -0.56735516
-1.661109 4.0365877 -0.56543958
-1.7798408 4.3251128 -0.56637412
-1.9198267 4.6652861 -0.56841856
-2.0738676 5.0396142 -0.56820112
-2.2542899 5.4780507 -0.56790739
-2.4734604 6.0106468 -0.56864774
-2.736655 6.6502242 -0.56897354
-3.066191 7.4510155 -0.57014602
-3.4783578 8.4526043 -0.57048362
-4.0216188 9.7727585 -0.57145452
-4.7703419 11.592198 -0.5734024
-5.8579664 14.235186 -0.57597893
-7.5754938 18.408875 -0.57922351
-10.726845 26.066833 -0.58575928
-18.35932 44.614174 -0.60147142
-0.83034879 1.9493353 -0.56773454
-0.85410804 2.0051126 -0.5646081
-0.88252854 2.0718331 -0.5634656
-0.91529852 2.1487641 -0.56380397
-0.95797169 2.2489443 -0.56863219
-0.99121827 2.3269942 -0.56625009
-1.0326167 2.4241817 -0.56694502
-1.070585 2.5133164 -0.56407726
-1.1230818 2.6365583 -0.56694579
-1.1799873 2.7701502 -0.56971049
-1.2297122 2.8868849 -0.56674719
-1.2878402 3.0233469 -0.5653758
-1.3587234 3.1897531 -0.56686789
-1.4307702 3.3588905 -0.56581354
-1.5134852 3.5530734 -0.56569743
-1.6103227 3.7804101 -0.5670504
-1.7130226 4.0215096 -0.5662353
-1.8392887 4.3179331 -0.56835258
-1.9697775 4.62427 -0.56632942
-2.1332679 5.0080814 -0.56756049
-2.3280492 5.4653521 -0.56951565
-2.5553308 5.9989204 -0.57046789
-2.8195608 6.6192298 -0.56924504
-3.1549015 7.4064794 -0.56966358
-3.5839641 8.4137506 -0.57079256
-4.1457071 9.7325039 -0.57203835
-4.9208932 11.55234 -0.57438046
-6.0374908 14.173676 -0.57645041
-7.8039455 18.320621 -0.5794223
-11.060287 25.965242 -0.58648825
-18.946375 44.478703 -0.60274035
-0.85176575 1.9333302 -0.56608075
-0.87361354 1.9829202 -0.56134146
-0.91549301 2.0779777 -0.56815535
-0.94532692 2.1456945 -0.56600583
-0.98117232 2.227056 -0.56610566
-1.0137075 2.3009043 -0.56289208
-1.0646433 2.4165177 -0.56817138
-1.1034061 2.5045011 -0.56510127
-1.1585623 2.6296945 -0.56849027
-1.2038518 2.732492 -0.56496739
-1.2593791 2.8585274 -0.56417763
-1.3308923 3.0208476 -0.56792587
-1.3962456 3.1691856 -0.56622112
-1.4776579 3.3539746 -0.56800324
-1.5585804 3.5376518 -0.56625056
-1.6585438 3.7645478 -0.56768727
-1.7648259 4.0057859 -0.56703407
-1.885769 4.2803016 -0.56640869
-2.0325091 4.6133709 -0.56801254
-2.196233 4.9849896 -0.56796122
-2.394572 5.4351783 -0.56939662
-2.6225386 5.9526143 -0.56908804
-2.9046235 6.5928879 -0.57000816
-3.2543776 7.3867569 -0.57118142
-3.6853583 8.3649931 -0.57051599
-4.2668519 9.6848621 -0.57227868
-5.0578341 11.480227 -0.5738439
-6.209949 14.095286 -0.57632434
-8.0470972 18.265228 -0.58075595
-11.391763 25.85692 -0.58716112
-19.531368 44.332123 -0.60396296
-0.87412822 1.9197583 -0.56521142
-0.89756465 1.9712294 -0.56111395
-0.94089884 2.0663998 -0.56811023
-0.97305375 2.1370184 -0.56683052
-1.0069917 2.2115529 -0.56526965
-1.0478797 2.3013511 -0.56611079
-1.0899831 2.3938184 -0.56594282
-1.1338323 2.4901199 -0.56495947
-1.1838861 2.6000478 -0.56518561
-1.2390331 2.7211616 -0.56573206
-1.3009547 2.8571537 -0.56702089
-1.3636601 2.9948673 -0.5661512
-1.438917 3.1601462 -0.56772441
-1.5115168 3.3195896 -0.56528497
-1.6002492 3.5144637 -0.56564587
-1.7011043 3.7359614 -0.56648797
-1.8159013 3.9880784 -0.56764537
-1.9369265 4.2538733 -0.56602043
-2.0923145 4.5951362 -0.56889212
-2.2623832 4.9686408 -0.56922501
-2.4533951 5.3881407 -0.56758648
-2.6987123 5.9269056 -0.56975967
-2.9794002 6.5433517 -0.5688498
-3.3456922 7.3478017 -0.57130712
-3.794241 8.3329029 -0.57146627
-4.3925672 9.646946 -0.57318652
-5.2012687 11.423014 -0.57413763
-6.3945255 14.043642 -0.57738411
-8.2677689 18.157654 -0.58052415
-11.722745 25.745466 -0.58785915
-20.120914 44.189507 -0.60534495
-0.90427905 1.9229265 -0.56937492
-0.92884684 1.9751693 -0.56544387
-0.95935071 2.040035 -0.56406236
-1.0024352 2.1316531 -0.56863397
-1.0317819 2.1940582 -0.56399828
-1.0731052 2.2819312 -0.56453699
-1.1180531 2.3775115 -0.56529516
-1.1648387 2.477 -0.56518978
-1.2211659 2.5967784 -0.56769609
-1.274958 2.7111661 -0.56687051
-1.335165 2.8391948 -0.56667221
-1.403504 2.9845159 -0.56741399
-1.4796426 3.1464226 -0.5684846
-1.5579698 3.3129833 -0.56737942
-1.6441603 3.4962652 -0.5659281
-1.7488443 3.718873 -0.56711477
-1.8689607 3.9742978 -0.56891197
-2.0017798 4.2567339 -0.56963325
-2.1436377 4.5583916 -0.56756347
-2.3217397 4.9371204 -0.56884164
-2.5254009 5.3702016 -0.5689249
-2.769321 5.8888912 -0.56933582
-3.0674026 6.5227542 -0.5702951
-3.4327335 7.2996211 -0.57079983
-3.8988712 8.2908516 -0.57182699
-4.511826 9.5942841 -0.57331055
-5.3471689 11.37062 -0.57476556
-6.5657377 13.961876 -0.57729805
-8.4989061 18.07271 -0.58110565
-12.05862 25.642353 -0.58884591
-20.712194 44.043957 -0.60679412
-0.91834122 1.8920631 -0.56353736
-0.94775397 1.9526623 -0.56229442
-0.98567897 2.0307994 -0.56481731
-1.0192585 2.0999837 -0.56348664
-1.064272 2.1927252 -0.56697679
-1.1016499 2.2697351 -0.56482834
-1.1457423 2.3605788 -0.56457621
-1.1945167 2.4610689 -0.5648635
-1.2432814 2.5615389 -0.56329185
-1.3106707 2.7003818 -0.5679425
-1.3681235 2.8187521 -0.565907
-1.4356742 2.957927 -0.5656724
-1.5103403 3.111762 -0.56553501
-1.5970485 3.2904074 -0.56683344
-1.6961423 3.4945707 -0.56898677
-1.7971176 3.7026107 -0.56796175
-1.9141228 3.9436769 -0.56785506
-2.0521493 4.228054 -0.56912911
-2.1983223 4.5292149 -0.56725353
-2.3806102 4.9047832 -0.56844562
-2.596956 5.3505216 -0.57017994
-2.8446429 5.8608322 -0.56996179
-3.1437836 6.4771538 -0.56964499
-3.5215464 7.2554603 -0.57068956
-4.0040164 8.2494965 -0.5723272
-4.631721 9.5427589 -0.57359165
-5.4890504 11.309119 -0.57502514
-6.7445965 13.895927 -0.57795674
-8.7257881 17.977787 -0.58145952
-12.381044 25.50873 -0.58922893
-21.291561 43.867111 -0.60791874
-0.94874007 1.8950186 -0.56784934
-0.9779942 1.9534509 -0.56594175
-1.0073043 2.0119951 -0.56298971
-1.0442251 2.0857408 -0.56306773
-1.0872971 2.171773 -0.56497353
-1.1289836 2.255038 -0.564583
-1.1811593 2.3592539 -0.56769013
-1.2257756 2.4483709 -0.56536579
-1.2842979 2.5652637 -0.56754076
-1.3432628 2.6830404 -0.56772625
-1.3973229 2.7910204 -0.56374639
-1.4734385 2.943054 -0.56625021
-1.5564409 3.1088436 -0.56843996
-1.6456395 3.2870095 -0.56969094
-1.7306527 3.4568152 -0.56626153
-1.8481182 3.6914415 -0.5696913
-1.9653922 3.9256852 -0.56870127
-2.1025388 4.1996226 -0.56873918
-2.2628868 4.5199022 -0.56952906
-2.4453976 4.8844509 -0.56953108
-2.6621487 5.3173904 -0.57009465
-2.9162366 5.8249068 -0.56991225
-3.2287254 6.4490733 -0.57062399
-3.6136346 7.2178936 -0.5711866
-4.1055698 8.2004881 -0.57238632
-4.7489133 9.4855061 -0.57361686
-5.6329513 11.251287 -0.57556301
-6.9176593 13.81737 -0.57818359
-8.9587488 17.894253 -0.58227676
-12.710419 25.387861 -0.5900026
-21.873337 43.689922 -0.60914451
-0.96481496 1.8693497 -0.56366998
-1.0038563 1.9449931 -0.56702471
-1.0373389 2.0098662 -0.56592047
-1.0849931 2.1021974 -0.57106888
-1.1120431 2.1546075 -0.56402266
-1.1606783 2.2488389 -0.5665614
-1.209347 2.3431356 -0.56734705
-1.2572414 2.4359319 -0.56602055
-1.3106885 2.5394871 -0.5653609
-1.3684635 2.6514273 -0.56455493
-1.4337338 2.77789 -0.56461257
-1.5078363 2.9214652 -0.56562108
-1.589359 3.0794172 -0.56659007
-1.6791719 3.2534316 -0.56740707
-1.7792561 3.4473467 -0.56825149
-1.8891504 3.6602695 -0.56842268
-2.0068567 3.8883276 -0.56682146
-2.1584985 4.182137 -0.56992251
-2.3151031 4.4855618 -0.56874609
-2.5120239 4.8671002 -0.5710665
-2.7264738 5.2826014 -0.56991613
-2.9836733 5.780931 -0.56915623
-3.3085678 6.4104209 -0.57076055
-3.7036042 7.1758127 -0.57141721
-4.2099285 8.156827 -0.57290876
-4.8728366 9.441226 -0.57451916
-5.7729211 11.185158 -0.57576793
-7.0912604 13.739469 -0.57852888
-9.1794052 17.785295 -0.58236015
-13.041042 25.2673 -0.59088278
-22.452892 43.50296 -0.61034101
-0.99314487 1.8675339 -0.56676197
-1.027597 1.9323183 -0.56697047
-1.0547228 1.9833266 -0.56205696
-1.105562 2.0789258 -0.5683971
-1.1452978 2.153646 -0.56741464
-1.1949085 2.2469351 -0.56974041
-1.2387271 2.3293326 -0.56765014
-1.2846036 2.4156001 -0.56492388
-1.3442258 2.527715 -0.56637716
-1.4088236 2.6491864 -0.56772345
-1.4728768 2.7696335 -0.56657273
-1.5464985 2.9080737 -0.56666726
-1.6341691 3.0729315 -0.56905097
-1.7186148 3.2317252 -0.5672642
-1.8161559 3.415144 -0.56658167
-1.9234329 3.6168704 -0.56531322
-2.0626295 3.8786187 -0.56906044
-2.2003868 4.137661 -0.56750584
-2.3739049 4.4639492 -0.56966382
-2.5652087 4.8236814 -0.56963003
-2.7887127 5.2439637 -0.56940418
-3.06006 5.7542114 -0.57018715
-3.3899488 6.3745427 -0.57123429
-3.7884142 7.123827 -0.57094395
-4.3093743 8.1034527 -0.57283854
-4.9812169 9.3668022 -0.5736742
-5.9100022 11.113313 -0.57576692
-7.2617331 13.655141 -0.57869422
-9.4122381 17.699003 -0.58328021
-13.369924 25.141132 -0.5917322
-23.032455 43.310795 -0.61157227
-1.0106714 1.8453933 -0.56377172
-1.0557706 1.9277403 -0.5693934
-1.0839109 1.979122 -0.56459987
-1.1276546 2.0589938 -0.56669581
-1.1713803 2.138833 -0.56726396
-1.217088 2.222291 -0.56724346
-1.2622393 2.3047333 -0.56539506
-1.3190823 2.4085233 -0.56701928
-1.3753554 2.5112729 -0.56643963
-1.4339116 2.618191 -0.56481701
-1.5100418 2.7571979 -0.56778431
-1.5858101 2.8955438 -0.56798249
-1.6720469 3.0530043 -0.56912518
-1.7565229 3.2072499 -0.56671643
-1.8631608 3.4019608 -0.56815243
-1.976751 3.6093659 -0.56789649
-2.1089623 3.8507719 -0.56873661
-2.253408 4.1145163 -0.56808889
-2.4263856 4.4303575 -0.56914157
-2.6203346 4.7844906 -0.56876391
-2.8580189 5.2184801 -0.57040995
-3.1309738 5.7168708 -0.57025892
-3.4630764 6.3232598 -0.57041162
-3.8801122 7.0847287 -0.57159108
-4.412714 8.0572109 -0.57336205
-5.1011982 9.3143196 -0.57425827
-6.0522342 11.050825 -0.57634163
-7.4335351 13.572953 -0.57904106
-9.6408119 17.603237 -0.58398688
-13.689186 24.995199 -0.59221458
-23.622849 43.133156 -0.61311924
-1.0345788 1.8351219 -0.56447756
-1.0823718 1.9198965 -0.57096452
-1.1161005 1.9797238 -0.56864375
-1.1561384 2.0507424 -0.56829458
-1.1966537 2.1226082 -0.56682056
-1.2518198 2.2204609 -0.57066226
-1.2918694 2.2915003 -0.56600296
-1.3493562 2.3934696 -0.56733865
-1.3965689 2.4772148 -0.56258851
-1.4714373 2.6100154 -0.56691372
-1.5431216 2.7371681 -0.56752419
-1.6172775 2.8687048 -0.56657594
-1.7085332 3.0305727 -0.56881696
-1.7979615 3.1891994 -0.56739068
-1.8997376 3.3697286 -0.56662792
-2.0158188 3.5756319 -0.56644607
-2.1583049 3.8283718 -0.56930494
-2.304496 4.0876837 -0.56825364
-2.4712517 4.3834724 -0.56697935
-2.6770627 4.7485375 -0.56836021
-2.9207275 5.1807466 -0.57016808
-3.2004001 5.676826 -0.5701468
-3.5466528 6.2910042 -0.57139283
-3.9705145 7.0428443 -0.57210761
-4.5071135 7.9946561 -0.57281113
-5.2175002 9.2547312 -0.57449645
-6.1955891 10.989652 -0.57708085
-7.6076303 13.49431 -0.57963312
-9.8556662 17.481846 -0.58393604
-14.016951 24.863075 -0.59312302
-24.194187 42.915321 -0.61420524
-1.0663486 1.8382672 -0.56943536
-1.0913312 1.8813347 -0.56344479
-1.1287076 1.9457674 -0.56283432
-1.1714743 2.0194924 -0.56358397
-1.2233683 2.1089518 -0.56714803
-1.2713243 2.1916227 -0.56722558
-1.3202962 2.2760446 -0.56615269
-1.377611 2.3748493 -0.56689745
-1.4372516 2.477663 -0.56666112
-1.5002328 2.5862358 -0.56571281
-1.5785033 2.7211652 -0.56818765
-1.6514306 2.846884 -0.56623411
-1.7445718 3.0074492 -0.56846023
-1.8369063 3.1666236 -0.56734985
-1.9456832 3.3541431 -0.56798726
-2.0673213 3.5638337 -0.56856114
-2.2015774 3.7952764 -0.56836623
-2.3608098 4.0697756 -0.56975663
-2.5310605 4.3632689 -0.56834877
-2.7438176 4.7300382 -0.57014126
-2.9852712 5.1462779 -0.57037139
-3.2729535 5.6422105 -0.57066917
-3.6173177 6.2358561 -0.57038081
-4.0602293 6.9993868 -0.57258981
-4.6145368 7.9549518 -0.5739885
-5.3358212 9.1983662 -0.57502699
-6.3277297 10.908307 -0.57685161
-7.7720256 13.398113 -0.57956231
-10.088917 17.392179 -0.58504057
-14.33934 24.719439 -0.59385788
-24.771091 42.702625 -0.61547405
-1.0743121 1.8006163 -0.56182188
-1.1141922 1.8674577 -0.56334943
-1.1630079 1.949276 -0.56794298
-1.2055134 2.0205181 -0.56796408
-1.2466269 2.0894268 -0.56597686
-1.2930173 2.1671801 -0.56497175
-1.3461667 2.2562621 -0.5653066
-1.4088897 2.3613896 -0.5677771
-1.4659077 2.4569557 -0.56600499
-1.5337348 2.5706382 -0.56638348
-1.6117176 2.7013423 -0.56814378
-1.6844549 2.8232548 -0.5656113
-1.7730389 2.9717271 -0.56578636
-1.8756355 3.1436856 -0.56732947
-1.9846545 3.3264086 -0.56738043
-2.1083217 3.5336828 -0.56784397
-2.2503834 3.7717872 -0.56894952
-2.4088323 4.0373578 -0.56932199
-2.5898137 4.3406944 -0.56951338
-2.7993901 4.691958 -0.56965727
-3.0481105 5.108829 -0.57033187
-3.3416131 5.6007581 -0.57058942
-3.7027967 6.2061253 -0.57178277
-4.1437283 6.9451551 -0.57227838
-4.7057881 7.8872032 -0.573232
-5.4559116 9.1444588 -0.57580745
-6.4611139 10.829243 -0.5768283
-7.9452229 13.316705 -0.58022308
-10.304397 17.270832 -0.58517659
-14.648882 24.552467 -0.59412909
-25.349182 42.486862 -0.6168102
-1.098271 1.790369 -0.56279582
-1.1395172 1.8576074 -0.56456214
-1.1795534 1.9228733 -0.56443357
-1.228368 2.0024495 -0.56708807
-1.2745826 2.0777872 -0.5670265
-1.3218687 2.1548715 -0.56595761
-1.3794516 2.2487414 -0.56762934
-1.4342761 2.3381145 -0.56637853
-1.4951711 2.4373837 -0.56568885
-1.5702375 2.5597548 -0.56819683
-1.6469059 2.6847374 -0.56886768
-1.7283919 2.8175735 -0.56868798
-1.8168839 2.9618306 -0.56811279
-1.9192543 3.1287119 -0.56884319
-2.027709 3.3055115 -0.56802601
-2.1590314 3.5195894 -0.5698024
-2.2880368 3.7298901 -0.56683075
-2.4514625 3.9963019 -0.56774038
-2.6420863 4.3070512 -0.56931883
-2.8650475 4.670516 -0.57128811
-3.1110797 5.0715904 -0.57040226
-3.4106908 5.5600076 -0.57066733
-3.7695615 6.1450281 -0.57038122
-4.2313747 6.8978624 -0.57262552
-4.8066096 7.8355937 -0.57373333
-5.5620775 9.0671349 -0.57520169
-6.6063981 10.769555 -0.57793242
-8.1168947 13.231922 -0.58083391
-10.533076 17.17071 -0.58612841
-14.979158 24.418583 -0.59530139
-25.917912 42.250618 -0.61796057
-1.1301575 1.7925208 -0.56779772
-1.1692131 1.8544661 -0.56793404
-1.2055275 1.9120638 -0.56556916
-1.2478846 1.9792454 -0.56481957
-1.2954173 2.0546362 -0.56501293
-1.3470722 2.136565 -0.56545728
-1.4098953 2.2362075 -0.56879866
-1.4645654 2.3229187 -0.56701708
-1.5299277 2.4265885 -0.56750673
-1.5976394 2.5339849 -0.56679446
-1.6669855 2.6439734 -0.56453079
-1.7549541 2.7834985 -0.56612319
-1.8482809 2.9315224 -0.56661582
-1.956165 3.1026351 -0.56843245
-2.0633645 3.2726624 -0.56669831
-2.2046998 3.4968317 -0.57046384
-2.3391452 3.7100728 -0.5681473
-2.5170028 3.9921691 -0.57150704
-2.6935296 4.2721548 -0.56904107
-2.9194086 4.6304173 -0.57073122
-3.1721539 5.031292 -0.57021379
-3.4761899 5.5135174 -0.57023984
-3.8479898 6.1032219 -0.57084948
-4.3181205 6.848887 -0.57292444
-4.8984566 7.7693462 -0.5732497
-5.6719556 8.9961786 -0.57508135
-6.7287974 10.672415 -0.57711601
-8.2829781 13.13747 -0.58111477
-10.745553 17.043312 -0.58624566
-15.287839 24.247744 -0.5956744
-26.486141 42.009151 -0.61914557
-1.152961 1.7797998 -0.56821609
-1.1825483 1.8254732 -0.56346554
-1.230634 1.899702 -0.56634587
-1.2701657 1.9607261 -0.56394917
-1.3217156 2.0403025 -0.56549782
-1.3747623 2.1221895 -0.56608391
-1.4328409 2.2118442 -0.56704032
-1.4896626 2.2995586 -0.56574345
-1.5621331 2.4114296 -0.56841087
-1.6277657 2.5127451 -0.56647784
-1.707929 2.6364915 -0.56737459
-1.7923661 2.7668352 -0.56717378
-1.8954501 2.9259636 -0.57000327
-1.9924248 3.0756614 -0.56793624
-2.107234 3.2528896 -0.56771839
-2.2445767 3.4649024 -0.56971455
-2.3899543 3.6893187 -0.56942642
-2.5606222 3.9527748 -0.57033187
-2.7444034 4.2364736 -0.56874037
-2.9683645 4.5821972 -0.56924361
-3.245111 5.0094047 -0.5722124
-3.5532515 5.485074 -0.57177377
-3.9291437 6.0653305 -0.57178116
-4.397613 6.7884965 -0.57235283
-4.9995928 7.7177582 -0.57393599
-5.7837243 8.9282045 -0.57523894
-6.8709335 10.606505 -0.57807696
-8.4514055 13.046244 -0.58163238
-10.966619 16.928925 -0.58690518
-15.608397 24.094332 -0.5965755
-27.061457 41.774162 -0.62053961
-1.1692033 1.7571421 -0.56552964
-1.2108301 1.8197011 -0.56623685
-1.2483244 1.8760495 -0.56382805
-1.3013778 1.955781 -0.56708658
-1.3510784 2.0304737 -0.56733543
-1.4009637 2.105444 -0.5661695
-1.4607892 2.195353 -0.56737459
-1.5202862 2.2847683 -0.56666106
-1.5872133 2.38535 -0.56682116
-1.650471 2.480417 -0.56372249
-1.7427881 2.6191561 -0.56821287
-1.8271778 2.7459815 -0.56746179
-1.9230961 2.8901327 -0.5675869
-2.0286386 3.048748 -0.56752992
-2.1482251 3.2284689 -0.56802362
-2.2835298 3.431812 -0.56884766
-2.4351437 3.6596658 -0.56942827
-2.5984342 3.9050677 -0.56801564
-2.7979445 4.2049026 -0.56907779
-3.0317085 4.5562153 -0.57060397
-3.2958193 4.9531355 -0.57037109
-3.6208599 5.4416242 -0.57184249
-4.0042443 6.0177951 -0.57189846
-4.4815845 6.7351675 -0.57245952
-5.0980196 7.6615796 -0.57437658
-5.909687 8.8813972 -0.57686156
-7.010107 10.535168 -0.57884324
-8.6097355 12.939177 -0.58153504
-11.184707 16.808983 -0.58747059
-15.910992 23.9119 -0.59685761
-27.625219 41.516674 -0.62171376
-1.1950667 1.7489947 -0.56759411
-1.2338266 1.8057203 -0.56656462
-1.2827882 1.8773762 -0.56892443
-1.3247427 1.9387772 -0.56683666
-1.3750719 2.0124345 -0.56697667
-1.4385957 2.1054025 -0.57087201
-1.4874052 2.1768355 -0.5672729
-1.5491279 2.2671676 -0.56697732
-1.6156288 2.3644927 -0.56654286
-1.689824 2.473078 -0.56673408
-1.774562 2.5970931 -0.56811732
-1.8657399 2.7305331 -0.56896734
-1.962377 2.8719628 -0.56871444
-2.0670624 3.025171 -0.56782961
-2.1944416 3.211592 -0.56975877
-2.3248188 3.4024007 -0.56866807
-2.4770012 3.6251216 -0.56874955
-2.6481206 3.8755569 -0.5684166
-2.8584328 4.1833515 -0.57087487
-3.0817211 4.5101366 -0.56953591
-3.3595762 4.9167809 -0.57089865
-3.6822419 5.3890061 -0.57102799
-4.0777473 5.967833 -0.57187235
-4.5733624 6.6931715 -0.57362652
-5.1845984 7.5877233 -0.57357574
-6.0101175 8.7958803 -0.57606363
-7.1366677 10.4446 -0.57864499
-8.7742434 12.841212 -0.58193719
-11.397098 16.67979 -0.58780897
-16.224258 23.744402 -0.59761125
-28.187866 41.253288 -0.62291294
-1.2145151 1.7313658 -0.5666768
-1.2503965 1.7825168 -0.56406581
-1.2970573 1.8490347 -0.5651263
-1.3437748 1.9156334 -0.56485844
-1.4016849 1.9981877 -0.56777579
-1.458552 2.0792553 -0.56860238
-1.5161942 2.1614277 -0.56807327
-1.5741823 2.2440934 -0.56600487
-1.6394843 2.3371854 -0.56478763
-1.7255002 2.4598064 -0.56851202
-1.8063221 2.5750229 -0.56810528
-1.8863317 2.6890814 -0.56512046
-1.9924312 2.8403327 -0.56725961
-2.100359 2.9941905 -0.56681943
-2.2292218 3.1778922 -0.56860018
-2.370635 3.3794856 -0.5696671
-2.5222671 3.5956464 -0.56894809
-2.7039142 3.8545957 -0.57017559
-2.8998742 4.1339483 -0.5689562
-3.1402056 4.4765558 -0.57012832
-3.4219897 4.8782558 -0.57126802
-3.7494371 5.3450522 -0.57121277
-4.1632652 5.9349899 -0.57358736
-4.655025 6.6360235 -0.57359111
-5.2840991 7.5328069 -0.57429272
-6.1167846 8.7198515 -0.57596684
-7.2704067 10.36441 -0.57911146
-8.9424744 12.748045 -0.58265424
-11.608899 16.549198 -0.58819288
-16.535563 23.572458 -0.59835595
-28.751955 40.987675 -0.62419355
-1.2310996 1.7098963 -0.5645619
-1.275318 1.7713121 -0.56543982
-1.325693 1.8412788 -0.5676952
-1.3784369 1.9145358 -0.56948972
-1.4259534 1.9805323 -0.56769848
-1.4727926 2.045588 -0.56430542
-1.5367383 2.1344035 -0.56589425
-1.6086245 2.2342474 -0.56846762
-1.6789154 2.3318756 -0.56845039
-1.750264 2.4309733 -0.56677943
-1.8404629 2.556252 -0.56891394
-1.927018 2.67647 -0.56740695
-2.0225523 2.809159 -0.56595796
-2.147012 2.9820235 -0.56947088
-2.2693439 3.1519325 -0.56890523
-2.4041908 3.3392236 -0.56782073
-2.5732455 3.5740271 -0.57049084
-2.7492502 3.8184831 -0.56979132
-2.9617953 4.1136909 -0.57113743
-3.1986084 4.4426045 -0.57077044
-3.4851508 4.8405886 -0.5718323
-3.8215168 5.3077731 -0.57220745
-4.2307529 5.8761692 -0.57288712
-4.7393346 6.5825472 -0.57396263
-5.383594 7.4773703 -0.57506979
-6.2339759 8.6584816 -0.57693285
-7.3997087 10.277589 -0.57930058
-9.094902 12.632072 -0.58242112
-11.819613 16.416473 -0.5885967
-16.850227 23.403585 -0.59928352
-29.304775 40.701931 -0.62528235
-1.2616758 1.707685 -0.56891108
-1.2957842 1.7538507 -0.56490946
-1.3442439 1.8194412 -0.56601578
-1.3978692 1.8920233 -0.56786329
-1.447252 1.9588633 -0.56654549
-1.5169526 2.0532033 -0.57150871
-1.5612841 2.1132061 -0.56532156
-1.6288974 2.2047212 -0.56600857
-1.7013057 2.3027263 -0.56640148
-1.7776166 2.4060135 -0.56601357
-1.8737371 2.536113 -0.5695166
-1.9547505 2.6457651 -0.56595045
-2.059787 2.7879326 -0.56674141
-2.1852422 2.9577367 -0.56992131
-2.3114276 3.1285293 -0.56976813
-2.4533448 3.3206151 -0.56974322
-2.6090713 3.5313916 -0.56876338
-2.8013685 3.791667 -0.57088685
-3.0085969 4.0721517 -0.57046342
-3.2491925 4.397799 -0.570104
-3.5425589 4.7948723 -0.57153445
-3.8843098 5.2574334 -0.57188648
-4.3080626 5.8309855 -0.57360333
-4.8239431 6.5292325 -0.57444263
-5.479528 7.4165702 -0.57553226
-6.3465471 8.590085 -0.57753181
-7.5360284 10.200054 -0.58010966
-9.2603569 12.533942 -0.5831027
-12.034225 16.288387 -0.58926541
-17.155476 23.220026 -0.59993958
-29.861017 40.417042 -0.6264993
-1.2778301 1.6857799 -0.5668053
-1.3182147 1.7390574 -0.56532282
-1.3676316 1.8042507 -0.56647903
-1.4196147 1.8728296 -0.56729889
-1.4792002 1.9514378 -0.56961548
-1.5315336 2.0204787 -0.56759894
-1.598987 2.1094668 -0.56953806
-1.6631368 2.1940968 -0.56848824
-1.7310222 2.2836547 -0.56690317
-1.8058319 2.3823473 -0.56562716
-1.8986024 2.504735 -0.56766999
-1.994452 2.6311848 -0.56803471
-2.1002138 2.7707114 -0.56844753
-2.2143538 2.9212909 -0.5681023
-2.3419287 3.0895941 -0.5678789
-2.4912779 3.2866235 -0.5691241
-2.6610248 3.5105627 -0.57063556
-2.8344183 3.7393122 -0.56820881
-3.0533812 4.0281796 -0.56952012
-3.3132598 4.3710251 -0.57187134
-3.6018329 4.7517252 -0.5716275
-3.954102 5.2164574 -0.57267475
-4.3718052 5.7675128 -0.57260436
-4.901504 6.4663191 -0.57416677
-5.5733624 7.3526692 -0.57584816
-6.4547362 8.5154238 -0.57780474
-7.6648989 10.111934 -0.58041441
-9.4207745 12.428376 -0.58353662
-12.238256 16.145344 -0.58949018
-17.455305 23.027946 -0.60047704
-30.417734 40.128658 -0.62777942
-1.2981849 1.6695856 -0.56668472
-1.3341712 1.7158674 -0.56307483
-1.3934116 1.7920561 -0.56798685
-1.4475547 1.8616891 -0.56927305
-1.4967344 1.9249387 -0.56720978
-1.5506217 1.9942428 -0.56554228
-1.6149518 2.0769773 -0.56608492
-1.6868525 2.1694481 -0.56743324
-1.7544613 2.2563994 -0.56544995
-1.8423973 2.369493 -0.56791115
-1.9311297 2.4836111 -0.56822139
-2.0279975 2.6081922 -0.56841159
-2.1294124 2.738621 -0.56719291
-2.2457912 2.8882949 -0.56701308
-2.3837075 3.0656681 -0.56882572
-2.527931 3.2511528 -0.56832165
-2.7025013 3.4756663 -0.5703218
-2.8944032 3.7224698 -0.57101458
-3.1068084 3.9956427 -0.57027805
-3.3452151 4.3022556 -0.56821287
-3.6539385 4.6993027 -0.57068306
-4.0153146 5.1640654 -0.57230026
-4.4530306 5.7270088 -0.57397598
-4.9767256 6.4005294 -0.57371551
-5.655714 7.2737708 -0.57507211
-6.5639629 8.4418621 -0.5782463
-7.7890511 10.017439 -0.58044428
-9.5827761 12.324335 -0.58414012
-12.442924 16.002748 -0.58982563
-17.760942 22.842215 -0.60128337
-30.965025 39.823883 -0.62892061
-1.315088 1.6490746 -0.56516892
-1.35955 1.7048284 -0.56489557
-1.4179922 1.7781129 -0.56905097
-1.4621484 1.8334832 -0.5661031
-1.525103 1.912426 -0.56900573
-1.5704114 1.9692413 -0.56388581
-1.6420217 2.0590379 -0.56665581
-1.7070112 2.1405327 -0.56531763
-1.7901484 2.2447836 -0.56801248
-1.8724433 2.3479788 -0.56823015
-1.9578593 2.4550874 -0.56716061
-2.0673292 2.5923588 -0.57045788
-2.1694317 2.720392 -0.56889945
-2.2821016 2.8616762 -0.56725347
-2.4185953 3.0328345 -0.56820875
-2.5705986 3.2234411 -0.56895989
-2.7441397 3.4410558 -0.57013637
-2.9344735 3.6797278 -0.56995016
-3.1649249 3.9687057 -0.57194471
-3.4117761 4.2782483 -0.57053983
-3.7199514 4.6646895 -0.57199138
-4.074604 5.1094117 -0.57175273
-4.509819 5.6551561 -0.57228929
-5.0698743 6.3574462 -0.57539827
-5.7602096 7.2231021 -0.57662255
-6.6686864 8.3623009 -0.57836968
-7.9084969 9.9169798 -0.58021426
-9.7247066 12.194444 -0.58360726
-12.644795 15.856133 -0.59010798
-18.057976 22.644073 -0.60186726
-31.518707 39.523361 -0.63024771
-1.3397579 1.6382744 -0.56707066
-1.3840044 1.6923796 -0.56636691
-1.4468973 1.7692859 -0.5718767
-1.4887843 1.820506 -0.56770575
-1.547187 1.8919215 -0.56852251
-1.6044998 1.9620044 -0.56742018
-1.6728024 2.0455258 -0.56855506
-1.7449071 2.1336963 -0.56913573
-1.8086764 2.2116745 -0.56521952
-1.898821 2.3219044 -0.56752765
-1.9869564 2.4296775 -0.56689197
-2.0919905 2.5581145 -0.56854004
-2.2017379 2.6923153 -0.56864667
-2.3287022 2.847569 -0.57009012
-2.4571788 3.0046721 -0.56855023
-2.6113665 3.1932149 -0.56924951
-2.777544 3.396419 -0.56835657
-2.9809914 3.6451974 -0.57023621
-3.206429 3.9208655 -0.5706892
-3.4626842 4.2342176 -0.57030314
-3.7751648 4.6163235 -0.57170969
-4.1339021 5.0549922 -0.57130808
-4.585741 5.6075072 -0.57313037
-5.1446939 6.2910023 -0.5750668
-5.8426213 7.1444378 -0.57603449
-6.7657347 8.2732334 -0.57791984
-8.0380888 9.8290854 -0.58081073
-9.8951101 12.099876 -0.58486038
-12.858891 15.724029 -0.59103143
-18.351236 22.440144 -0.60239911
-32.050491 39.191784 -0.63119704
-1.3567899 1.6180876 -0.56581539
-1.395641 1.6644208 -0.562711
-1.4563776 1.7368544 -0.56713963
-1.5099374 1.800729 -0.56728554
-1.5742649 1.877445 -0.56994629
-1.6309018 1.9449893 -0.5682562
-1.6939555 2.0201864 -0.56725866
-1.7673061 2.1076632 -0.56794536
-1.8334612 2.1865587 -0.56451988
-1.9267066 2.2977617 -0.56737447
-2.0123477 2.3998961 -0.56567407
-2.1231959 2.5320921 -0.56851602
-2.2396414 2.6709633 -0.56991053
-2.3609102 2.8155863 -0.5694561
-2.5015154 2.9832704 -0.57027793
-2.646215 3.1558368 -0.56834388
-2.8265085 3.3708522 -0.56985122
-3.0244915 3.6069639 -0.57002997
-3.2549257 3.8817763 -0.57078218
-3.5124757 4.1889267 -0.56997716
-3.8266609 4.5636191 -0.57096678
-4.208528 5.0190287 -0.57304895
-4.656868 5.5537124 -0.57344145
-5.2270432 6.2336946 -0.57566005
-5.9347715 7.0777211 -0.57649565
-6.8781114 8.202734 -0.57885939
-8.1541128 9.7244749 -0.58051014
-10.043887 11.978191 -0.58490407
-13.049953 15.563182 -0.59097254
-18.649637 22.241282 -0.60317129
-32.593121 38.870075 -0.63242275
-1.3832902 1.6090853 -0.56857234
-1.4238461 1.6562612 -0.5658288
-1.4781433 1.7194214 -0.5673393
-1.5258567 1.774923 -0.5650239
-1.5940716 1.8542726 -0.56881922
-1.6543381 1.9243764 -0.56813425
-1.7205507 2.0013969 -0.56788045
-1.7915893 2.0840313 -0.56747091
-1.8596401 2.1631901 -0.56434768
-1.9537611 2.2726746 -0.56706917
-2.0441158 2.3777778 -0.56634235
-2.1519351 2.5031962 -0.56792641
-2.2762091 2.6477559 -0.57088763
-2.3956375 2.7866786 -0.56952429
-2.5308018 2.9439058 -0.56865889
-2.6904192 3.1295776 -0.56952971
-2.8659942 3.3338118 -0.56950402
-3.0754364 3.5774412 -0.57129759
-3.3080509 3.8480253 -0.57175744
-3.5761952 4.1599393 -0.5719732
-3.889544 4.524436 -0.57200509
-4.2765498 4.9746132 -0.57393849
-4.7249846 5.4962459 -0.57346362
-5.2995138 6.164556 -0.57524961
-6.0181689 7.0005174 -0.57619131
-6.9627461 8.0992785 -0.57755691
-8.2851667 9.6375589 -0.58135939
-10.200648 11.865705 -0.58549196
-13.255812 15.419564 -0.59166378
-18.939711 22.031248 -0.60374558
-33.124382 38.531288 -0.63348979
-1.3981165 1.5864478 -0.56660533
-1.4363757 1.6298606 -0.56280106
-1.4944301 1.6957352 -0.56554449
-1.5526578 1.7618065 -0.56688333
-1.6060593 1.8224013 -0.56505781
-1.6641051 1.8882661 -0.56347191
-1.7462415 1.9814664 -0.56827509
-1.8093619 2.0530894 -0.56506109
-1.8976686 2.1532915 -0.56781006
-1.9835911 2.250788 -0.56765121
-2.0765643 2.3562849 -0.56726211
-2.178216 2.4716296 -0.56679857
-2.2960052 2.6052854 -0.56777495
-2.4165225 2.7420368 -0.56643081
-2.5735178 2.9201798 -0.57014555
-2.7304568 3.0982592 -0.56989723
-2.9121654 3.3044446 -0.57056141
-3.1091006 3.5279076 -0.56944954
-3.3504789 3.8018005 -0.5709675
-3.6262026 4.114665 -0.57183588
-3.9460087 4.4775505 -0.57216871
-4.3318605 4.9153776 -0.57320648
-4.8013506 5.4481101 -0.57455784
-5.3755813 6.0996914 -0.5753215
-6.1005006 6.9222603 -0.57588089
-7.0786057 8.0321198 -0.57893097
-8.3985319 9.5298443 -0.58104753
-10.346836 11.740592 -0.58555216
-13.452541 15.264647 -0.592022
-19.234007 21.824898 -0.60452634
-33.671295 38.20694 -0.63491637
-1.4162933 1.5677826 -0.56611615
-1.4582529 1.6142304 -0.56355304
-1.5241612 1.6871883 -0.5689016
-1.5756522 1.7441869 -0.56740528
-1.6331311 1.8078139 -0.56671858
-1.696963 1.8784733 -0.5667336
-1.7709997 1.9604291 -0.56844425
-1.8386109 2.0352721 -0.56633693
-1.9303982 2.1368771 -0.56969798
-2.0207679 2.2369132 -0.57037562
-2.1104832 2.3362243 -0.56863731
-2.2139814 2.450793 -0.56822044
-2.3312337 2.5805869 -0.56859654
-2.4634564 2.7269523 -0.56952912
-2.5965724 2.8743067 -0.56738001
-2.775517 3.0723913 -0.57137364
-2.9413028 3.2559102 -0.56838316
-3.1585326 3.4963751 -0.57058573
-3.3884776 3.7509155 -0.56953996
-3.6808369 4.0745459 -0.5725072
-4.0004778 4.4283767 -0.5721277
-4.3900251 4.8595905 -0.57295263
-4.8594284 5.3792019 -0.57354909
-5.4604373 6.0444961 -0.57640493
-6.2000289 6.8631954 -0.57726598
-7.1752863 7.9427686 -0.57880646
-8.5256844 9.4376068 -0.58177167
-10.49929 11.622313 -0.58604771
-13.64104 15.100111 -0.59210134
-19.521908 21.610008 -0.60517752
-34.182133 37.838318 -0.63572741
-1.4410509 1.5562848 -0.56831992
-1.4874076 1.6063485 -0.56714374
-1.5422987 1.6656288 -0.56798375
-1.5883875 1.7154033 -0.56435281
-1.6573526 1.789883 -0.56744331
-1.7219986 1.8596985 -0.56741476
-1.7916514 1.9349211 -0.56739318
-1.8710998 2.0207226 -0.56864756
-1.9504343 2.1064012 -0.56792414
-2.0476208 2.211359 -0.57023674
-2.1318753 2.3023512 -0.56673038
-2.2495239 2.4294076 -0.56963241
-2.3616552 2.5505056 -0.56832415
-2.5008564 2.7008379 -0.57045454
-2.6374214 2.8483233 -0.56860977
-2.8102734 3.0349975 -0.57080281
-2.9856958 3.2244477 -0.56925678
-3.2040932 3.460309 -0.57108653
-3.4472053 3.7228618 -0.57167333
-3.7293639 4.0275831 -0.57230872
-4.0478458 4.3715324 -0.57117116
-4.4514432 4.8074036 -0.57321
-4.9344201 5.3290019 -0.57462263
-5.5323548 5.9747505 -0.57619762
-6.2751026 6.7768922 -0.57645351
-7.2800407 7.8621907 -0.57941425
-8.6335754 9.3239613 -0.58126646
-10.653189 11.505073 -0.58669704
-13.837404 14.943915 -0.5926038
-19.803535 21.387129 -0.60570961
-34.723412 37.500076 -0.63717002
-1.4555979 1.5337288 -0.56657636
-1.5085685 1.5895427 -0.56771666
-1.5619955 1.6458374 -0.56774157
-1.6173792 1.7041939 -0.56716514
-1.6799253 1.7700973 -0.56767666
-1.7427777 1.8363234 -0.56677836
-1.8232903 1.9211576 -0.56988847
-1.8916777 1.9932157 -0.56740981
-1.9788465 2.0850635 -0.56868863
-2.0653965 2.176259 -0.56769174
-2.1647248 2.2809188 -0.56796408
-2.2844274 2.4070468 -0.57093269
-2.3888888 2.5171151 -0.56738651
-2.5331552 2.6691253 -0.57029235
-2.6681511 2.8113673 -0.56773895
-2.8408787 2.9933662 -0.56949997
-3.0251067 3.1874828 -0.56925493
-3.2532563 3.4278786 -0.5722931
-3.494946 3.6825411 -0.57203776
-3.7645388 3.9666047 -0.57017851
-4.1214828 4.3427081 -0.57398331
-4.5076427 4.7495961 -0.57288295
-4.9958878 5.2640476 -0.57419938
-5.6001325 5.9007258 -0.57565624
-6.3588467 6.7001653 -0.57653451
-7.3774714 7.7734656 -0.57951719
-8.7616529 9.231945 -0.58220249
-10.802505 11.382343 -0.58716786
-14.031536 14.784695 -0.59308708
-20.07538 21.15295 -0.60602283
-35.243668 37.135414 -0.63828927
-1.4753815 1.5167801 -0.56697434
-1.5250542 1.5678467 -0.56662261
-1.5893153 1.6339109 -0.57032579
-1.6379522 1.6839125 -0.56707555
-1.6974193 1.7450483 -0.56629431
-1.7737045 1.823474 -0.5695011
-1.8506994 1.9026294 -0.57109976
-1.9166862 1.9704677 -0.56760049
-2.0020475 2.0582244 -0.56803995
-2.0936368 2.1523836 -0.56813627
-2.1928196 2.2543492 -0.56801927
-2.3060136 2.3707194 -0.56899893
-2.432513 2.5007684 -0.57040101
-2.5579567 2.6297319 -0.56855297
-2.7165959 2.7928226 -0.57069665
-2.8873506 2.9683685 -0.57145566
-3.0696418 3.1557748 -0.57029009
-3.2863629 3.378577 -0.57076555
-3.5318515 3.630954 -0.57072735
-3.8307879 3.9382784 -0.57283455
-4.1578026 4.2744689 -0.57167828
-4.575995 4.7043958 -0.57417458
-5.0594797 5.201447 -0.57411373
-5.6662917 5.8252859 -0.57505035
-6.4562616 6.6374221 -0.57792312
-7.4711609 7.680799 -0.57941389
-8.877739 9.1268454 -0.58241481
-10.942018 11.249046 -0.58718801
-14.232162 14.631512 -0.59391755
-20.366501 20.937977 -0.6069929
-35.772629 36.776398 -0.63963079
-1.4939568 1.4985622 -0.56698847
-1.5447619 1.5495239 -0.56682277
-1.5935596 1.5984721 -0.56475276
-1.6712942 1.6764463 -0.57143879
-1.7268076 1.7321308 -0.56895006
-1.7870967 1.7926059 -0.56668079
-1.8580821 1.8638099 -0.56626284
-1.9395343 1.9455134 -0.56723934
-2.025538 2.0317819 -0.56757331
-2.117393 2.1239204 -0.56745285
-2.2042809 2.2110758 -0.56390274
-2.3247375 2.3319039 -0.5665009
-2.4617889 2.4693778 -0.57010263
-2.5914788 2.5994675 -0.56885624
-2.7462645 2.7547302 -0.56977028
-2.9216886 2.9306953 -0.57107621
-3.108212 3.1177938 -0.57029015
-3.3224258 3.3326678 -0.56986851
-3.5785651 3.5895967 -0.57110018
-3.8728797 3.8848186 -0.57194227
-4.2206125 4.2336235 -0.5731132
-4.6306572 4.6449323 -0.57382327
-5.1299386 5.1457524 -0.57488549
-5.7460518 5.7637649 -0.57590866
-6.5318031 6.5519385 -0.57742977
-7.5723944 7.5957379 -0.57997757
-9.0063982 9.0341616 -0.58352339
-11.075702 11.109845 -0.58698654
-14.421279 14.465735 -0.59434164
-20.639763 20.70339 -0.60750389
-36.273418 36.385239 -0.64053679
-1.5148469 1.4826025 -0.56795478
-1.560475 1.5272593 -0.5656547
-1.6141372 1.5797793 -0.56511825
-1.6840154 1.6481701 -0.56881589
-1.7473357 1.7101426 -0.5687421
-1.8096027 1.7710843 -0.56686878
-1.8851832 1.8450559 -0.56756496
-1.966405 1.9245489 -0.56813383
-2.0481777 2.004581 -0.56696737
-2.1396472 2.0941036 -0.56647313
-2.2428772 2.1951363 -0.56682849
-2.3653882 2.3150394 -0.56942683
-2.4763353 2.423625 -0.56652689
-2.6278162 2.5718815 -0.56984758
-2.7769098 2.7178016 -0.5691517
-2.9550977 2.8921967 -0.57061189
-3.1514041 3.0843246 -0.57121313
-3.3745253 3.3026965 -0.5717957
-3.6202641 3.5432045 -0.57075858
-3.9240553 3.8405294 -0.57248247
-4.26543 4.1746378 -0.57218516
-4.681673 4.5820208 -0.57311982
-5.1902833 5.0798049 -0.57460463
-5.8099642 5.6862955 -0.5752629
-6.6100512 6.4693522 -0.57727098
-7.6489201 7.4861083 -0.57874459
-9.0991926 8.9055109 -0.58239663
-11.219079 10.980274 -0.58738512
-14.609056 14.298094 -0.59478962
-20.905355 20.460371 -0.60787004
-36.786423 36.003399 -0.64172941
-1.5250194 1.4562801 -0.56501216
-1.5887636 1.5171511 -0.56910348
-1.6326002 1.5590118 -0.56482792
-1.7024633 1.6257259 -0.56825179
-1.7621111 1.6826851 -0.56677377
-1.8300442 1.7475561 -0.5664978
-1.9075441 1.8215628 -0.56751066
-1.9919505 1.9021647 -0.56871367
-2.0857358 1.9917225 -0.57054132
-2.1718311 2.0739372 -0.56819922
-2.2828717 2.1799729 -0.57011843
-2.3938394 2.2859387 -0.56946617
-2.5233419 2.4096038 -0.57045919
-2.651597 2.532078 -0.56820971
-2.8216686 2.6944838 -0.57149136
-2.9930134 2.8581052 -0.57110381
-3.1814282 3.0380275 -0.56984091
-3.4207959 3.2666059 -0.57278657
-3.6777453 3.5119734 -0.5729692
-3.9818258 3.8023474 -0.57404602
-4.3240399 4.1291366 -0.57319301
-4.750845 4.5367036 -0.57471514
-5.2568645 5.0199146 -0.57509851
-5.8898988 5.6244149 -0.57628608
-6.7074594 6.4051251 -0.57885581
-7.7515984 7.4022002 -0.57958281
-9.2243013 8.8085213 -0.58342749
-11.367373 10.854997 -0.58811641
-14.788837 14.12224 -0.59499413
-21.187214 20.232214 -0.60878575
-37.284634 35.604053 -0.64273471
-1.5492315 1.4434021 -0.56736392
-1.6161777 1.5057751 -0.57224768
-1.6591446 1.545807 -0.56739241
-1.7206473 1.6031083 -0.56769866
-1.7865769 1.6645342 -0.56801671
-1.8532798 1.7266806 -0.56707519
-1.9233606 1.7919741 -0.56561786
-2.0082068 1.8710245 -0.56674349
-2.1091986 1.9651172 -0.57030642
-2.2001758 2.0498798 -0.56897724
-2.3020706 2.144814 -0.56828362
-2.4326572 2.2664802 -0.57202739
-2.5466852 2.3727188 -0.56909758
-2.6905453 2.5067518 -0.56990755
-2.8433034 2.6490748 -0.5692327
-3.0201578 2.813848 -0.56963801
-3.2177138 2.9979088 -0.56969434
-3.4479232 3.2123923 -0.5706715
-3.7106218 3.4571457 -0.57142502
-4.0196896 3.7451007 -0.57282233
-4.3733807 4.0746307 -0.57304853
-4.8010969 4.4731293 -0.57409692
-5.317925 4.9546528 -0.5750699
-5.9571996 5.5502577 -0.57614982
-6.785665 6.3221302 -0.57885224
-7.8499236 7.3136878 -0.5801664
-9.3277817 8.6905918 -0.5831694
-11.50275 10.716987 -0.58825791
-14.967403 13.944966 -0.59523445
-21.451458 19.98609 -0.60927081
-37.783978 35.202919 -0.64383185
-1.5641508 1.4217801 -0.56638229
-1.6094613 1.4629664 -0.56345743
-1.6787834 1.5259787 -0.56764859
-1.7430592 1.584404 -0.56862211
-1.8208133 1.6550808 -0.57238787
-1.870571 1.7003096 -0.56592578
-1.9514366 1.7738147 -0.5674172
-2.0398269 1.8541595 -0.56918967
-2.1374545 1.942901 -0.5714435
-2.2141714 2.012635 -0.56615371
-2.3240032 2.1124699 -0.56724262
-2.4445035 2.2220023 -0.56834519
-2.5681684 2.3344109 -0.56744081
-2.7168782 2.4695849 -0.56901002
-2.8733804 2.6118422 -0.56878144
-3.0558341 2.7776887 -0.5698818
-3.2636013 2.9665446 -0.57131708
-3.4911997 3.1734269 -0.57133245
-3.768729 3.4256952 -0.57384306
-4.0675788 3.6973431 -0.57312453
-4.4326453 4.029181 -0.57427871
-4.8528147 4.4111061 -0.57375181
-5.3767562 4.8873577 -0.57488954
-6.0375304 5.4879875 -0.57734871
-6.8489103 6.2255149 -0.57767344
-7.9512129 7.2274847 -0.5810402
-9.4444008 8.5847607 -0.58381653
-11.635049 10.576015 -0.5883286
-15.163047 13.78289 -0.59622985
-21.721224 19.744135 -0.60999107
-38.27438 34.790604 -0.64484984
-1.586187 1.4065843 -0.56805575
-1.6408134 1.4550253 -0.56812686
-1.6963614 1.5042838 -0.56729484
-1.7499949 1.5518444 -0.56461704
-1.8262132 1.6194326 -0.56778258
-1.8946209 1.6800945 -0.56690872
-1.9701031 1.7470299 -0.56655562
-2.0616219 1.8281862 -0.56895548
-2.1539781 1.910085 -0.56953877
-2.2560906 2.0006354 -0.57053888
-2.3559597 2.0891962 -0.56872922
-2.4746227 2.194423 -0.56903118
-2.6090884 2.3136635 -0.570153
-2.7552807 2.4433026 -0.57071745
-2.899034 2.5707786 -0.56755912
-3.0879142 2.7382722 -0.56954199
-3.2956583 2.9224937 -0.57059485
-3.5297532 3.1300821 -0.57129985
-3.7975919 3.3675935 -0.5718894
-4.1042581 3.6395361 -0.57194364
-4.4890141 3.9807265 -0.57519656
-4.8971066 4.3426113 -0.57263184
-5.4428954 4.826601 -0.57557189
-6.0987697 5.4082108 -0.5768019
-6.9348841 6.1496525 -0.57850307
-8.0456915 7.1346841 -0.58148926
-9.5630369 8.4802217 -0.58465999
-11.763442 10.431477 -0.58829033
-15.325908 13.590567 -0.59601748
-21.973991 19.485893 -0.61031449
-38.770424 34.380478 -0.64603567
-1.6002219 1.3842587 -0.56694329
-1.6521544 1.4291825 -0.56592596
-1.7110018 1.480088 -0.56606168
-1.7831339 1.5424852 -0.56914639
-1.8486824 1.5991875 -0.56861162
-1.9166542 1.6579859 -0.56735831
-1.9932706 1.7242624 -0.56707788
-2.0824778 1.8014303 -0.568555
-2.1750424 1.8815025 -0.56894797
-2.2732639 1.9664682 -0.5687238
-2.3936417 2.0706 -0.57163614
-2.4946303 2.1579595 -0.56748724
-2.6288493 2.2740643 -0.56831765
-2.7792552 2.4041719 -0.56951684
-2.9446914 2.547281 -0.57032245
-3.1281824 2.7060084 -0.5707888
-3.3265033 2.8775642 -0.56976587
-3.5784297 3.0954912 -0.57297426
-3.827569 3.311007 -0.57022947
-4.1500678 3.589982 -0.57213253
-4.5215473 3.9113271 -0.57315916
-4.9616055 4.291996 -0.57395917
-5.5096154 4.7660475 -0.57638639
-6.1690326 5.3364711 -0.57719743
-7.0013061 6.0564222 -0.57778782
-8.1265163 7.0297761 -0.58103943
-9.6558142 8.3526831 -0.58400869
-11.909617 10.302317 -0.58922064
-15.500205 13.408325 -0.59633881
-22.237055 19.235981 -0.61100513
-39.263153 33.964264 -0.64723796
-1.6122985 1.3604094 -0.56525254
