# .PCD v0.7 - Point Cloud Data file format
VERSION 0.7
FIELDS x y z
SIZE 4 4 4
TYPE F F F
COUNT 1 1 1
WIDTH 1444
HEIGHT 1
VIEWPOINT 0 0 0 1 0 0 0
POINTS 1444
DATA ascii
0.032124341 -10.445923 -0.56486207
0.037933189 -12.334796 -0.5642308
0.046370737 -15.078446 -0.56419748
0.059705425 -19.414509 -0.56490636
0.083532847 -27.16251 -0.56445831
0.13947122 -45.352077 -0.56541908
0.032354292 -2.1047068 -0.56402022
0.033470083 -2.1772909 -0.5641169
0.034678873 -2.2559249 -0.56452298
0.035769314 -2.3268602 -0.56176412
0.037328586 -2.4282939 -0.56493479
0.038882107 -2.5293531 -0.56632638
0.04032525 -2.6232324 -0.5644908
0.041831557 -2.7212205 -0.56195235
0.043651946 -2.8396401 -0.56183892
0.045674883 -2.971236 -0.56225371
0.047890302 -3.1153531 -0.5627448
0.050303861 -3.2723594 -0.56305987
0.053031351 -3.4497879 -0.56410706
0.056047514 -3.6459947 -0.56511629
0.059037633 -3.8405077 -0.56261718
0.062880889 -4.0905185 -0.56455386
0.066830069 -4.3474197 -0.56322736
0.071471713 -4.6493673 -0.56309301
0.076925859 -5.0041699 -0.56390029
0.083061792 -5.4033237 -0.56343794
0.090409487 -5.8813052 -0.56390446
0.099211209 -6.4538736 -0.56470662
0.10953413 -7.1253982 -0.5638262
0.12231436 -7.9567757 -0.56310332
0.13876902 -9.0271826 -0.56348866
0.16026799 -10.42573 -0.56383407
0.18968782 -12.339544 -0.56451201
0.23185307 -15.082472 -0.56441212
0.29792073 -19.380297 -0.5639748
0.41698453 -27.125618 -0.56375563
0.69575989 -45.260471 -0.56434095
0.058321763 -2.1074529 -0.56490558
0.060445063 -2.1841781 -0.56605107
0.062383633 -2.2542284 -0.56424767
0.064609595 -2.3346632 -0.56379718
0.066973396 -2.420079 -0.56317264
0.06989821 -2.5257668 -0.56567311
0.072278976 -2.6117957 -0.56217849
0.075708762 -2.7357309 -0.56509835
0.078843914 -2.8490193 -0.56384379
0.082592033 -2.9844575 -0.56490517
0.086261719 -3.1170614 -0.56320238
0.090647884 -3.2755549 -0.56375891
0.095347933 -3.4453909 -0.56353718
0.10078517 -3.641865 -0.56462562
0.10625248 -3.839426 -0.56260759
0.11282435 -4.0769 -0.56282324
0.12048008 -4.353539 -0.56416941
0.1289202 -4.6585221 -0.56435114
0.13828021 -4.9967456 -0.56321275
0.14999807 -5.4201698 -0.56534421
0.16202615 -5.8548036 -0.56151205
0.17796879 -6.4308896 -0.56284451
0.19723745 -7.127161 -0.56411499
0.22053127 -7.9688816 -0.56410933
0.24988887 -9.0297165 -0.56379604
0.28846094 -10.423516 -0.56386358
0.34073669 -12.312496 -0.56342369
0.41654849 -15.05195 -0.56341904
0.53550786 -19.350538 -0.56325787
0.74967861 -27.089584 -0.56315577
1.2494849 -45.150047 -0.56311315
0.083897427 -2.098268 -0.56267762
0.0866035 -2.1659467 -0.5615598
0.090159543 -2.2548831 -0.56464642
0.093053594 -2.3272631 -0.56224394
0.09677849 -2.4204226 -0.56348693
0.10063639 -2.5169084 -0.56392366
0.10510548 -2.62868 -0.56604815
0.10925543 -2.73247 -0.56465966
0.11373201 -2.8444288 -0.56316954
0.11880263 -2.9712446 -0.56263816
0.12506323 -3.1278217 -0.56538171
0.13077806 -3.2707491 -0.56316596
0.13747552 -3.4382522 -0.56260347
0.14540982 -3.6366882 -0.56405759
0.15370932 -3.8442583 -0.56355
0.16349076 -4.088891 -0.56471354
0.17398688 -4.3513985 -0.56412661
0.18542765 -4.6375313 -0.56204194
0.20015189 -5.0057831 -0.56446612
0.21581264 -5.3974576 -0.56320941
0.23506482 -5.878953 -0.56406271
0.25767368 -6.4443989 -0.56426156
0.28449461 -7.1151881 -0.56340158
0.31848899 -7.965385 -0.56409639
0.3607941 -9.0234327 -0.56363809
0.41649273 -10.416451 -0.56371576
0.49205026 -12.306139 -0.56336707
0.60160649 -15.046131 -0.56343549
0.77342469 -19.343292 -0.56328118
1.0812625 -27.042288 -0.56240642
1.8001692 -45.022095 -0.56175089
0.11010772 -2.1050558 -0.5648182
0.1129842 -2.1600487 -0.56034845
0.11807439 -2.2573638 -0.56558841
0.12208839 -2.3341041 -0.56421667
0.12678635 -2.4239204 -0.56462157
0.13185263 -2.5207782 -0.56511128
0.13748424 -2.6284442 -0.56631863
0.14246435 -2.7236547 -0.56315744
0.14883713 -2.8454907 -0.56369948
0.15525658 -2.9682183 -0.56238413
0.16284056 -3.1132102 -0.56305993
0.17096624 -3.2685578 -0.56310809
0.17956497 -3.4329498 -0.56205469
0.18938248 -3.6206424 -0.56188756
0.20120315 -3.8466318 -0.56421798
0.21424033 -4.0958786 -0.56599957
0.22708526 -4.3414502 -0.56315631
0.24347064 -4.6547079 -0.56444383
0.26195341 -5.0080643 -0.56504387
0.28157893 -5.3832679 -0.5620476
0.30643815 -5.85853 -0.56242222
0.33572024 -6.4183497 -0.56229967
0.3713586 -7.099689 -0.56249338
0.4157528 -7.9484243 -0.56321472
0.47162193 -9.0165386 -0.56352711
0.5442422 -10.404903 -0.56341046
0.64280033 -12.289152 -0.56290871
0.78533751 -15.014199 -0.56255889
1.0093226 -19.296381 -0.5622341
1.4125805 -27.005924 -0.56196892
2.3493755 -44.91571 -0.56074154
0.13480361 -2.0853109 -0.55992275
0.13982329 -2.1629617 -0.56150764
0.14468816 -2.2382176 -0.56119466
0.15050368 -2.3281794 -0.56318927
0.15637662 -2.4190292 -0.56388748
0.16201745 -2.5062888 -0.56226712
0.1682532 -2.602751 -0.56118619
0.17631564 -2.7274709 -0.5643521
0.1841168 -2.8481491 -0.56463194
0.19162022 -2.9642212 -0.56203073
0.20217207 -3.1274505 -0.5660423
0.21031716 -3.2534492 -0.56090826
0.22201538 -3.434412 -0.56269848
0.23394987 -3.6190293 -0.56204116
0.24799992 -3.8363731 -0.56311798
0.26259571 -4.0621591 -0.56174374
0.27960896 -4.3253417 -0.56147033
0.29909328 -4.6267495 -0.56145698
0.32266873 -4.9914436 -0.56357366
0.34930554 -5.4034953 -0.56456524
0.37864345 -5.8573308 -0.56271154
0.41599441 -6.435122 -0.56417453
0.45935786 -7.1059222 -0.56339216
0.51262969 -7.9299979 -0.5623132
0.58030981 -8.9769583 -0.56145692
0.6714294 -10.38651 -0.562819
0.79383171 -12.279983 -0.56289327
0.97009104 -15.006583 -0.56267792
1.2452149 -19.262543 -0.56165177
1.7422483 -26.951277 -0.56123513
2.8944857 -44.775528 -0.55939358
0.16058633 -2.0854812 -0.56045634
0.16648705 -2.162112 -0.5617761
0.17289139 -2.2452831 -0.56345665
0.17896 -2.3240941 -0.56269079
0.18611446 -2.4170065 -0.56390685
0.1927962 -2.5037801 -0.56219369
0.20069088 -2.6063056 -0.56244218
0.21005043 -2.7278552 -0.56492335
0.21812429 -2.8327074 -0.56206
0.22895589 -2.9733741 -0.56425732
0.23985817 -3.1149583 -0.56427246
0.25155175 -3.2668188 -0.56370395
0.2640889 -3.4296346 -0.56240529
0.27867505 -3.6190603 -0.56253564
0.29583263 -3.8418801 -0.56441766
0.31315961 -4.0668998 -0.56288928
0.33316499 -4.3267031 -0.56213635
0.3556124 -4.6182199 -0.56091017
0.38399312 -4.9867907 -0.56353885
0.41505018 -5.3901186 -0.56365824
0.45069095 -5.8529735 -0.56278282
0.49407241 -6.4163542 -0.56301916
0.5458315 -7.0885324 -0.56250304
0.61080623 -7.9323378 -0.56296915
0.69212884 -8.9884472 -0.56266522
0.79832238 -10.367548 -0.56228089
0.94308364 -12.247514 -0.56189406
1.152755 -14.970447 -0.56181198
1.4811729 -19.2355 -0.5613519
2.0710309 -26.89579 -0.56056756
3.4380109 -44.648308 -0.55829006
0.18671855 -2.0889683 -0.56196797
0.19307894 -2.1601267 -0.56183469
0.20016924 -2.2394514 -0.56256831
0.20755453 -2.3220768 -0.56277776
0.21513693 -2.4069071 -0.56212521
0.22528638 -2.520457 -0.56651741
0.23364177 -2.6139352 -0.56466591
0.24336888 -2.72276 -0.5644452
0.25316012 -2.8323023 -0.56255478
0.26473925 -2.9618473 -0.56264514
0.27767459 -3.1065652 -0.56332803
0.29241309 -3.2714565 -0.56508189
0.30593452 -3.4227314 -0.56184769
0.32321703 -3.6160848 -0.56264836
0.34138772 -3.8193743 -0.5616855
0.36396831 -4.0720015 -0.56417215
0.38700116 -4.3296881 -0.56309986
0.41371763 -4.6285863 -0.56274456
0.44507921 -4.9794531 -0.56328553
0.4814187 -5.3860116 -0.56380516
0.52233952 -5.8438249 -0.56247824
0.57258677 -6.4059806 -0.56268424
0.63258648 -7.0772452 -0.56218213
0.70872045 -7.9290161 -0.56330931
0.80254334 -8.9786873 -0.56262946
0.92598599 -10.359737 -0.56243229
1.0943385 -12.243231 -0.56227237
1.3365926 -14.953518 -0.56175101
1.715643 -19.194254 -0.56072152
2.3991361 -26.841032 -0.55999881
3.9785542 -44.51123 -0.55714566
0.2128868 -2.0914004 -0.56328392
0.21869747 -2.1484847 -0.5594638
0.22835819 -2.2433915 -0.56422085
0.23651691 -2.3235428 -0.56379533
0.24493362 -2.4062285 -0.56262767
0.25572708 -2.5122635 -0.56533986
0.26569611 -2.6101995 -0.56452203
0.27642676 -2.7156174 -0.56362653
0.28605574 -2.8102124 -0.55882359
0.30120298 -2.9590189 -0.56276888
0.3157807 -3.1022303 -0.56320351
0.33195519 -3.2611287 -0.56396043
0.34827963 -3.4215 -0.56230605
0.36888352 -3.6239128 -0.56452948
0.38849062 -3.8165331 -0.56192768
0.41280675 -4.0554147 -0.56253481
0.44184461 -4.340683 -0.56519365
0.47040185 -4.6212292 -0.56251079
0.50541526 -4.9652009 -0.56233382
0.54646903 -5.3685131 -0.56263435
0.59302336 -5.8258634 -0.56140882
0.65149707 -6.4003091 -0.56284714
0.71920788 -7.0655003 -0.56190914
0.80348951 -7.8934832 -0.5614444
0.91220015 -8.9614573 -0.5622102
1.0517077 -10.33198 -0.56158501
1.2436643 -12.217761 -0.56176251
1.517861 -14.911471 -0.56083018
1.9513125 -19.169701 -0.56066275
2.7251747 -26.772123 -0.55921799
4.5146928 -44.352352 -0.55580986
0.23745042 -2.0786872 -0.56060386
0.24639621 -2.1570003 -0.5624277
0.25512239 -2.2333913 -0.5624522
0.26464516 -2.3167551 -0.56289542
0.27838197 -2.43701 -0.57058227
0.28572035 -2.5012515 -0.56360984
0.29645553 -2.5952294 -0.56203026
0.3099145 -2.7130518 -0.56384242
0.32228845 -2.8213758 -0.5617891
0.33746254 -2.9542129 -0.56260145
0.35410699 -3.0999215 -0.56353223
0.37193888 -3.2560253 -0.56382614
0.3914499 -3.4268286 -0.56393021
0.41407669 -3.624908 -0.56543493
0.43451011 -3.803786 -0.56079519
0.46193236 -4.0438461 -0.56167555
0.49521542 -4.3352122 -0.5652315
0.52794284 -4.6217146 -0.56331754
0.56665075 -4.9605713 -0.56255609
0.61287034 -5.3651862 -0.56303287
0.66572988 -5.827929 -0.56235421
0.7278893 -6.3720846 -0.56110978
0.80628949 -7.0584149 -0.56209165
0.90325892 -7.9073043 -0.5631749
1.0224527 -8.9507504 -0.56228471
1.1781356 -10.313628 -0.56133252
1.3926433 -12.191471 -0.56129867
1.7005662 -14.887087 -0.5606572
2.1834061 -19.113962 -0.55977547
3.0480461 -26.683189 -0.55810106
5.0501909 -44.210354 -0.55476665
0.26396799 -2.0833206 -0.56268632
0.27419302 -2.1640201 -0.56509447
0.2839404 -2.2409496 -0.56519228
0.29302934 -2.3126824 -0.56273878
0.30284208 -2.3901277 -0.56043512
0.3162384 -2.4958558 -0.56322765
0.3294667 -2.6002576 -0.56395394
0.34393328 -2.7144327 -0.56496561
0.35796741 -2.8251944 -0.56338334
0.37163571 -2.9330692 -0.55940282
0.39284736 -3.1004784 -0.56446898
0.41190195 -3.2508636 -0.56376678
0.43377215 -3.42347 -0.56421262
0.45597529 -3.5987043 -0.56217963
0.48382273 -3.8184857 -0.56379682
0.51355916 -4.053175 -0.56380582
0.54743397 -4.3205261 -0.5641517
0.58374703 -4.6071205 -0.56237108
0.62703687 -4.9487782 -0.56205058
0.67910659 -5.3597288 -0.56329393
0.73720825 -5.8182859 -0.56225592
0.80778247 -6.3752804 -0.56222337
0.89140755 -7.0352769 -0.56107956
0.99906081 -7.8849111 -0.56241244
1.1307808 -8.9244881 -0.56146598
1.3051856 -10.300946 -0.56147331
1.5410964 -12.162832 -0.56081021
1.8833427 -14.863951 -0.5606156
2.41714 -19.076851 -0.55951679
3.3735933 -26.62549 -0.55771971
5.5807652 -44.045204 -0.55351353
0.2872104 -2.0630147 -0.55811357
0.30055839 -2.1588926 -0.56467795
0.30925277 -2.2213438 -0.56116414
0.32032689 -2.3008885 -0.56078506
0.33283707 -2.3907485 -0.56149787
0.3470985 -2.4931874 -0.56354606
0.36365452 -2.6121085 -0.56745112
0.37527487 -2.6955767 -0.56195897
0.39229223 -2.8178113 -0.56283039
0.41059026 -2.949245 -0.56340826
0.43082002 -3.0945539 -0.56431216
0.45243451 -3.2498095 -0.56450611
0.47399345 -3.4046659 -0.56203169
0.50310886 -3.6138005 -0.56546158
0.52987945 -3.8060918 -0.56288642
0.5625971 -4.041101 -0.56304604
0.59860671 -4.2997556 -0.5623582
0.64154822 -4.608202 -0.56342345
0.689192 -4.9504242 -0.56315744
0.74466664 -5.3488951 -0.56307513
0.80759615 -5.8009143 -0.56149441
0.88339347 -6.3453617 -0.56050044
0.97871476 -7.0300488 -0.56157994
1.0934737 -7.8543544 -0.56114954
1.2402079 -8.9083385 -0.56136692
1.4296718 -10.269245 -0.5606612
1.6882952 -12.126923 -0.56006932
2.0653675 -14.835409 -0.56045467
2.6482606 -19.022295 -0.55882955
3.6974652 -26.558668 -0.55723023
6.1113629 -43.897549 -0.55256063
0.31523758 -2.0770051 -0.56290448
0.32452106 -2.138171 -0.5602594
0.33900356 -2.2335918 -0.56526858
0.35012329 -2.3068564 -0.56324631
0.36406913 -2.3987412 -0.56438386
0.37785318 -2.4895601 -0.56373376
0.39163721 -2.580379 -0.56156194
0.40774462 -2.6865058 -0.5610708
0.42576146 -2.8052135 -0.56131738
0.44652477 -2.9420166 -0.56303376
0.46844551 -3.0864456 -0.56384134
0.49264747 -3.2459049 -0.56483746
0.51364988 -3.3842838 -0.55966735
0.54594803 -3.5970864 -0.5638541
0.57708561 -3.8022423 -0.56332397
0.61471617 -4.0501785 -0.56532127
0.65214491 -4.2967854 -0.562976
0.69622666 -4.5872269 -0.56186318
0.75155079 -4.9517407 -0.56431586
0.81032658 -5.3389964 -0.56303948
0.8798483 -5.7970538 -0.56212544
0.96369255 -6.3494787 -0.56186837
1.0660006 -7.0235553 -0.56206584
1.1910571 -7.8475146 -0.56166476
1.3477994 -8.8802423 -0.56059843
1.5564437 -10.254936 -0.56088257
1.8378267 -12.108884 -0.56023759
2.242461 -14.774896 -0.55916798
2.8787613 -18.967287 -0.55821127
4.0174184 -26.469553 -0.55635494
6.6361423 -43.723534 -0.55135566
0.33851513 -2.059366 -0.55920988
0.35247213 -2.1442738 -0.56295162
0.36576158 -2.2251205 -0.56422031
0.37937754 -2.3079538 -0.5646106
0.3920151 -2.3848345 -0.56220347
0.4054305 -2.4664474 -0.5595867
0.42532021 -2.5874472 -0.56419569
0.44084552 -2.6818957 -0.5611977
0.46361956 -2.8204422 -0.56546265
0.4825457 -2.93558 -0.56289488
0.5032475 -3.0615199 -0.56037593
0.52917355 -3.2192416 -0.56128746
0.55836725 -3.3968425 -0.56283712
0.591977 -3.6013081 -0.56561416
0.62148654 -3.7808306 -0.56124145
0.6600523 -4.0154462 -0.56156373
0.70392096 -4.2823224 -0.56217265
0.75178599 -4.5735106 -0.56127304
0.80901521 -4.9216661 -0.56197971
0.87365127 -5.3148813 -0.5615868
0.95015639 -5.780302 -0.56159157
1.0437856 -6.3498979 -0.56299865
1.1510196 -7.0022588 -0.56145179
1.2884649 -7.8384113 -0.5621047
1.4570848 -8.8642149 -0.56067532
1.6830366 -10.238799 -0.5610894
1.9856999 -12.080059 -0.55999136
2.4256186 -14.756318 -0.55955142
3.1097505 -18.918251 -0.55785137
4.3350053 -26.372124 -0.55538553
7.1577344 -43.544273 -0.55016345
0.3654741 -2.064445 -0.56176686
0.38028711 -2.148119 -0.56514603
0.39412108 -2.2262623 -0.56569594
0.40699291 -2.2989712 -0.56359482
0.42177266 -2.3824573 -0.56282318
0.43961343 -2.4832339 -0.56457901
0.45603025 -2.5759673 -0.56287271
0.47650325 -2.6916127 -0.56441438
0.49552825 -2.7990787 -0.56235862
0.51678628 -2.9191582 -0.56092215
0.54111439 -3.0565803 -0.56064731
0.56772989 -3.2069225 -0.56031442
0.60076559 -3.3935306 -0.56346977
0.63181317 -3.568908 -0.56170321
0.66768527 -3.771538 -0.56103837
0.71077895 -4.0149603 -0.56267554
0.75356656 -4.2566538 -0.55997699
0.80825108 -4.5655489 -0.56147319
0.86903459 -4.9088955 -0.56169921
0.93772727 -5.2969179 -0.56086469
1.020167 -5.7625933 -0.56104738
1.1211767 -6.3331642 -0.56269485
1.2374032 -6.9896898 -0.56162155
1.3845047 -7.8206186 -0.56200713
1.5636334 -8.8324594 -0.55984056
1.8060098 -10.201565 -0.56022358
2.1330078 -12.048671 -0.55970985
2.6023715 -14.699955 -0.55858535
3.3387809 -18.859694 -0.55729312
4.6540594 -26.289276 -0.55480403
7.6810312 -43.387661 -0.54933649
0.39292172 -2.0708194 -0.5647735
0.40488222 -2.1338551 -0.56266069
0.42012173 -2.2141721 -0.5638938
0.43275341 -2.2807448 -0.56038874
0.45162779 -2.3802187 -0.56356364
0.46981937 -2.476094 -0.56422651
0.48841494 -2.5740986 -0.56373405
0.50939429 -2.6846662 -0.56422853
0.53141868 -2.8007417 -0.56396294
0.55372894 -2.9183235 -0.56202763
0.57758379 -3.0440459 -0.55960864
0.6104902 -3.217473 -0.56342679
0.64083999 -3.3774257 -0.56206167
0.67716765 -3.5688839 -0.56296736
0.71505356 -3.7685544 -0.56186002
0.75897545 -4.0000362 -0.56184953
0.80730271 -4.2547359 -0.56098831
0.86698097 -4.5692592 -0.56319797
0.92838997 -4.8929033 -0.56113315
1.0053177 -5.2983365 -0.56228131
1.0899556 -5.7444043 -0.56053901
1.1985618 -6.316793 -0.56250721
1.321426 -6.9643254 -0.56084669
1.4750117 -7.7737699 -0.55990154
1.6735998 -8.8203907 -0.56033766
1.9284314 -10.163432 -0.55938941
2.2785988 -12.008924 -0.55912274
2.7838905 -14.671968 -0.55878037
3.5678661 -18.803762 -0.55689466
4.9717975 -26.202915 -0.5542298
8.1924314 -43.176659 -0.54789901
0.41463533 -2.0474696 -0.55975354
0.42939177 -2.120337 -0.56044608
0.44710493 -2.2078047 -0.56362975
0.46280867 -2.2853496 -0.56287593
0.48034081 -2.3719234 -0.5629555
0.50167704 -2.4772816 -0.56586003
0.51802373 -2.5580015 -0.56156135
0.53953695 -2.6642339 -0.56128627
0.5662784 -2.7962832 -0.56442463
0.58766365 -2.9018836 -0.56021082
0.61719549 -3.0477118 -0.56163532
0.65123254 -3.2157869 -0.56449115
0.68312794 -3.3732862 -0.56272811
0.71997017 -3.5552135 -0.56216496
0.76546586 -3.7798712 -0.56490791
0.80660069 -3.9829948 -0.56080657
0.86206001 -4.2568531 -0.56262255
0.92241484 -4.5548854 -0.56278181
0.98936975 -4.885509 -0.56163788
1.0705441 -5.2863483 -0.56236356
1.1635509 -5.745615 -0.56201077
1.2737877 -6.2899647 -0.56147051
1.4060718 -6.9431834 -0.56049412
1.5731735 -7.7683325 -0.56086081
1.7828436 -8.8036833 -0.56062657
2.0521674 -10.133605 -0.55909437
2.4238951 -11.969196 -0.55861855
2.9600422 -14.616691 -0.55801922
3.7939017 -18.734289 -0.55617672
5.2850757 -26.09771 -0.55333728
8.7075672 -42.997974 -0.54694897
0.44699165 -2.0757115 -0.5689342
0.45652181 -2.119967 -0.56178963
0.47371528 -2.1998091 -0.56303304
0.48888621 -2.2702589 -0.56059736
0.51241755 -2.3795323 -0.56621408
0.53062582 -2.4640865 -0.56429374
0.552953 -2.5677683 -0.56515539
0.57413369 -2.6661258 -0.5631296
0.5980438 -2.777158 -0.56200612
0.62662721 -2.9098918 -0.56320179
0.6564579 -3.0484176 -0.56321037
0.68649399 -3.1878974 -0.56103486
0.72471714 -3.3653955 -0.5628559
0.76410973 -3.5483243 -0.56251884
0.80766833 -3.7505991 -0.56197488
0.85802805 -3.9844565 -0.56245542
0.91515553 -4.2497416 -0.56312734
0.97735149 -4.5385628 -0.56220746
1.0505651 -4.8785477 -0.56228018
1.132771 -5.2602906 -0.56103092
1.232047 -5.7213016 -0.56107205
1.351855 -6.2776594 -0.56181341
1.4915721 -6.9264688 -0.560583
1.6666033 -7.7392673 -0.56019956
1.8877993 -8.7664433 -0.55969101
2.1768899 -10.108904 -0.55916613
2.5730338 -11.948491 -0.55908662
3.1373961 -14.569242 -0.55763847
4.0245252 -18.688835 -0.55625445
5.6030774 -26.019217 -0.553092
9.217514 -42.803707 -0.54587829
0.4671292 -2.0466161 -0.56249124
0.47968444 -2.101624 -0.55844957
0.49930692 -2.1875951 -0.56143594
0.51637906 -2.2623925 -0.56018049
0.53851867 -2.3593922 -0.56295478
0.55848032 -2.4468491 -0.56187648
0.57957417 -2.5392671 -0.56040859
0.60725135 -2.6605282 -0.56348181
0.63160115 -2.767211 -0.56152236
0.66059291 -2.8942313 -0.56170046
0.69562429 -3.0477133 -0.56461787
0.72713685 -3.1857779 -0.56219292
0.76392019 -3.3469355 -0.56129706
0.80769014 -3.5387032 -0.56252551
0.85277522 -3.736233 -0.56135112
0.9070037 -3.9738221 -0.56248605
0.96519572 -4.2287765 -0.56187952
1.0315742 -4.5195985 -0.56138712
1.108632 -4.8572083 -0.56134945
1.1956345 -5.2383895 -0.56022078
1.303112 -5.7092767 -0.56142175
1.4301665 -6.2659364 -0.56229562
1.5788069 -6.9171686 -0.56135911
1.7608242 -7.7146344 -0.55994147
1.9941589 -8.7369347 -0.55933034
2.3010874 -10.08167 -0.55918258
2.7190926 -11.91306 -0.55895096
3.313736 -14.51835 -0.557208
4.2479658 -18.611456 -0.55546403
5.91084 -25.896946 -0.55199623
9.7220106 -42.594688 -0.54469609
0.49090177 -2.0350947 -0.56094134
0.5070014 -2.1018379 -0.56012064
0.52841717 -2.1906195 -0.56383711
0.54453945 -2.2574563 -0.56057382
0.56747025 -2.3525188 -0.5629372
0.5879389 -2.4373744 -0.56131846
0.61256772 -2.5394762 -0.56207466
0.63804626 -2.6451006 -0.56183362
0.66865706 -2.7720015 -0.56412029
0.69775069 -2.8926127 -0.5630089
0.73133659 -3.0318472 -0.56330198
0.76562744 -3.1740043 -0.56173414
0.80764461 -3.3481917 -0.56313068
0.85008311 -3.5241258 -0.56182742
0.89746612 -3.7205582 -0.56061172
0.95348459 -3.9527895 -0.56112611
1.0143441 -4.2050905 -0.5603472
1.0852072 -4.4988623 -0.56042653
1.1665039 -4.8358879 -0.5605008
1.2598528 -5.2228775 -0.56017625
1.3732656 -5.6930447 -0.56144363
1.5048393 -6.2384996 -0.56145161
1.6585665 -6.8757949 -0.55961424
1.8569485 -7.6982121 -0.56036448
2.1028817 -8.7177591 -0.55971581
2.4238036 -10.048182 -0.558936
2.8627145 -11.867741 -0.55843401
3.4939284 -14.484517 -0.55751628
4.4767642 -18.558987 -0.55549902
6.2199016 -25.785379 -0.55120677
10.220898 -42.372009 -0.54341459
0.51807243 -2.037499 -0.56331736
0.53448772 -2.1020577 -0.56188822
0.55628073 -2.1877663 -0.56482065
0.57034504 -2.2430789 -0.55870295
0.59740895 -2.3495171 -0.56393409
0.62044871 -2.440129 -0.56366724
0.64547104 -2.538538 -0.56358111
0.66914666 -2.6316507 -0.56068206
0.70239586 -2.7624145 -0.56388432
0.73127478 -2.8759909 -0.56148142
0.76928806 -3.0254912 -0.56383592
0.8041141 -3.1624568 -0.56139797
0.84792936 -3.3347754 -0.56258529
0.89342952 -3.5137203 -0.56187749
0.94768935 -3.7271159 -0.56331313
1.0028051 -3.9438775 -0.56156904
1.0672922 -4.1974955 -0.56104159
1.1442685 -4.5002313 -0.56230742
1.2278168 -4.828814 -0.56138837
1.3242528 -5.2080822 -0.56029356
1.4428825 -5.6746345 -0.56133533
1.5801535 -6.2144995 -0.56099796
1.7451991 -6.8635988 -0.56032586
1.9472646 -7.6582913 -0.55915922
2.2090125 -8.687705 -0.55948794
2.5484726 -10.02275 -0.55922222
3.007093 -11.826433 -0.55818802
3.6639488 -14.409745 -0.55633038
4.6967916 -18.471758 -0.55457485
6.5324326 -25.69105 -0.55086571
10.721015 -42.164097 -0.54239786
0.53973478 -2.0184445 -0.55984187
0.56125468 -2.0989225 -0.56285238
0.58049685 -2.1708822 -0.562262
0.60401416 -2.2588298 -0.56443346
0.62377775 -2.3327398 -0.56170577
0.64470428 -2.4109988 -0.5587272
0.67953539 -2.5412564 -0.56599694
0.70037246 -2.6191807 -0.55981785
0.73607302 -2.7526901 -0.56370425
0.76720339 -2.8691082 -0.56193697
0.80750668 -3.0198302 -0.56458879
0.84419131 -3.1570196 -0.56223303
0.88835108 -3.3221638 -0.56225801
0.93825752 -3.5087988 -0.56289285
0.98770499 -3.6937175 -0.56005859
1.0526969 -3.9367673 -0.56235725
1.1200706 -4.1887245 -0.56166768
1.2021312 -4.4956064 -0.5635339
1.2861998 -4.8099976 -0.56099713
1.3926625 -5.2081361 -0.56209916
1.5114906 -5.6525168 -0.5609436
1.6567066 -6.195581 -0.56108665
1.8324497 -6.8528066 -0.56124187
2.0434926 -7.6420431 -0.55976522
2.3164401 -8.6627846 -0.55967504
2.667274 -9.9747972 -0.55833441
3.1518483 -11.786958 -0.55811185
3.8342326 -14.338868 -0.55537224
4.9166117 -18.386637 -0.55379254
6.8367238 -25.567276 -0.54997277
11.214122 -41.937416 -0.54121482
0.5675993 -2.0226579 -0.56290382
0.58577734 -2.087436 -0.56166124
0.60800821 -2.1666563 -0.56306124
0.63317662 -2.2563448 -0.56571519
0.65359616 -2.3291104 -0.56272447
0.67636222 -2.410238 -0.56043589
0.70518768 -2.5129583 -0.5615831
0.73393279 -2.6153924 -0.56089467
0.76547766 -2.7278035 -0.56049311
0.80117506 -2.8550124 -0.56106329
0.84140158 -2.9983609 -0.56246662
0.884767 -3.152895 -0.56339341
0.93063682 -3.3163533 -0.56316882
0.98041219 -3.4937294 -0.5623669
1.0355753 -3.6903048 -0.5614295
1.1000524 -3.9200709 -0.56186199
1.1692635 -4.166707 -0.56060088
1.2501538 -4.4549623 -0.56032372
1.3416537 -4.7810249 -0.5594998
1.4546479 -5.1836834 -0.56134808
1.5782238 -5.6240501 -0.56000215
1.7299094 -6.1645861 -0.5601638
1.9102563 -6.8072581 -0.55939293
2.1358151 -7.6110444 -0.55937606
2.4236982 -8.6369247 -0.55988753
2.7917116 -9.9483519 -0.5587334
3.2914243 -11.729094 -0.55724627
4.0096107 -14.288374 -0.55528414
5.1398597 -18.316051 -0.55352831
7.1474652 -25.470215 -0.54973394
11.708139 -41.722321 -0.54025602
0.59367239 -2.0197663 -0.56408805
0.61615473 -2.0962546 -0.56602991
0.63349843 -2.1552608 -0.56208175
0.6564303 -2.2332785 -0.56191325
0.68178391 -2.3195353 -0.56239414
0.70649207 -2.4035964 -0.56086916
0.73709387 -2.5077083 -0.56239289
0.76826555 -2.6137593 -0.56252789
0.8037442 -2.7344635 -0.56384963
0.8381393 -2.851481 -0.56235212
0.88009208 -2.9942107 -0.56367564
0.92215294 -3.1373084 -0.56259185
0.96756232 -3.2917981 -0.56097692
1.022156 -3.4775343 -0.5617407
1.0778677 -3.6670747 -0.55986947
1.1496985 -3.911454 -0.56261069
1.2195385 -4.1490602 -0.56020188
1.3103858 -4.458137 -0.56270713
1.4047518 -4.7791853 -0.5612635
1.5161891 -5.1583123 -0.56057721
1.6479446 -5.606565 -0.56023645
1.8077441 -6.150228 -0.56083655
1.9931592 -6.7810388 -0.55921012
2.2326672 -7.5958829 -0.56023717
2.5210252 -8.5769215 -0.55796522
2.9084532 -9.8950119 -0.55770415
3.4313388 -11.67395 -0.55658895
4.1864977 -14.243119 -0.55548406
5.3577285 -18.227829 -0.55281132
7.4478793 -25.338848 -0.54883379
12.191361 -41.476917 -0.53897876
0.61265993 -1.9934368 -0.55879641
0.63739079 -2.0739045 -0.56206876
0.66070515 -2.1497633 -0.56272429
0.68751556 -2.2369976 -0.56493342
0.70834351 -2.3047664 -0.56088269
0.73700476 -2.3980227 -0.5616408
0.765724 -2.4914677 -0.56081986
0.79441375 -2.5848167 -0.55835903
0.83271992 -2.709455 -0.56076187
0.87625879 -2.8511193 -0.56436312
0.91326213 -2.9715185 -0.56147534
0.95907164 -3.1205709 -0.56166279
1.0090582 -3.2832143 -0.56158614
1.0652612 -3.4660845 -0.56196463
1.1271185 -3.6673517 -0.56198525
1.1911035 -3.8755422 -0.55950963
1.2741987 -4.1459126 -0.56184995
1.3615329 -4.4300756 -0.5612359
1.4628576 -4.7597599 -0.56105232
1.5803645 -5.1420965 -0.56088442
1.717521 -5.5883684 -0.56048614
1.8803302 -6.1181078 -0.55997366
2.0753491 -6.7526484 -0.55893111
2.3176539 -7.5410452 -0.55825233
2.6239123 -8.5375309 -0.55745947
3.0295835 -9.85748 -0.55764627
3.5773971 -11.639924 -0.55702186
4.3635235 -14.197775 -0.55576622
5.5792456 -18.153419 -0.55259353
7.7495337 -25.214975 -0.54817325
12.68363 -41.269249 -0.53826618
0.6445477 -2.0088909 -0.56530744
0.66373068 -2.0686793 -0.56282204
0.68809408 -2.144614 -0.56354856
0.71066779 -2.2149704 -0.56153506
0.73850054 -2.301718 -0.56230825
0.76693058 -2.3903272 -0.56200469
0.79597563 -2.4808531 -0.56059134
0.83320743 -2.596895 -0.56313878
0.8633219 -2.6907542 -0.55904633
0.90631753 -2.8247607 -0.56130916
0.94987977 -2.9605329 -0.56156415
0.99809289 -3.110801 -0.56207085
1.0476885 -3.265378 -0.56069648
1.1074843 -3.4517462 -0.56180543
1.1663878 -3.6353333 -0.55923432
1.2415162 -3.8694897 -0.56079745
1.3259506 -4.1326499 -0.56221968
1.4148405 -4.4096971 -0.56081587
1.5248545 -4.7525826 -0.562374
1.6421968 -5.118309 -0.56044996
1.7834686 -5.5586171 -0.55965948
1.9547625 -6.0924964 -0.55978721
2.1556957 -6.7187538 -0.55827749
2.4160302 -7.5301504 -0.5596028
2.7317898 -8.5142927 -0.55809325
3.1504784 -9.8192377 -0.55763227
3.7147696 -11.57799 -0.55620188
4.5294065 -14.117005 -0.55474275
5.8007641 -18.079502 -0.55247301
8.0496244 -25.088627 -0.54753691
13.160535 -41.018032 -0.53705972
0.6667642 -1.9935331 -0.5632503
0.6875487 -2.0556757 -0.56154191
0.71472919 -2.1369417 -0.56379932
0.73575723 -2.1998127 -0.55994368
0.76948094 -2.300642 -0.56431425
0.79758084 -2.3846569 -0.56293488
0.8314867 -2.4860308 -0.5640291
0.86056876 -2.5729821 -0.56020558
0.90021616 -2.6915224 -0.5614633
0.94301009 -2.8194702 -0.56251955
0.98236471 -2.9371352 -0.55937499
1.0338995 -3.0912173 -0.56078708
1.0883803 -3.2541075 -0.56101686
1.1520878 -3.4445839 -0.56290287
1.2161045 -3.6359847 -0.56159246
1.2874326 -3.8492458 -0.56011552
1.3719116 -4.1018267 -0.56027901
1.4693557 -4.3931713 -0.56096959
1.5791241 -4.7213635 -0.56093514
1.7036657 -5.0937257 -0.56000972
1.8557661 -5.5484848 -0.56089443
2.0305958 -6.0712018 -0.5600825
2.2456319 -6.7141304 -0.56014538
2.5071199 -7.4959431 -0.55930942
2.8349731 -8.4761791 -0.55783784
3.2642591 -9.7596855 -0.55648768
3.8544846 -11.524378 -0.55586129
4.7003236 -14.053321 -0.55446947
6.0133762 -17.979166 -0.55162477
8.3450642 -24.950594 -0.54672259
13.636917 -40.772503 -0.53599995
0.6900425 -1.981787 -0.56228644
0.71349764 -2.0491495 -0.56211329
0.74035656 -2.1262879 -0.56334776
0.76596874 -2.1998456 -0.56230694
0.79500192 -2.2832282 -0.56239825
0.82622302 -2.3728945 -0.56251395
0.86364436 -2.4803679 -0.56511098
0.89274305 -2.5639386 -0.56058431
0.93398529 -2.6823854 -0.56191063
0.97839975 -2.8099427 -0.56297642
1.017413 -2.921988 -0.55883062
1.0746319 -3.0863194 -0.5622533
1.1312649 -3.2489684 -0.56248653
1.1852301 -3.4039552 -0.55860287
1.2565252 -3.6087129 -0.55972433
1.3378305 -3.8422203 -0.56144452
1.4259658 -4.0953426 -0.56174594
1.5224158 -4.372345 -0.56065828
1.6349902 -4.6956563 -0.5602271
1.7674434 -5.0760589 -0.56041443
1.9197965 -5.5136137 -0.55971342
2.1054792 -6.0468903 -0.56018579
2.3227923 -6.6710091 -0.55888849
2.595371 -7.4538488 -0.55850762
2.9416919 -8.4484749 -0.55835295
3.3882604 -9.7310095 -0.55718613
3.9967573 -11.4786 -0.5559817
4.8711939 -13.989964 -0.55429113
6.2321496 -17.898598 -0.55146229
8.6404724 -24.815248 -0.54604369
14.113932 -40.534904 -0.53511751
0.71465939 -1.9739867 -0.56252408
0.73455101 -2.0289302 -0.55900222
0.76263291 -2.1064961 -0.56054622
0.79649401 -2.2000251 -0.56481361
0.82057285 -2.2665341 -0.56072921
0.85538292 -2.3626842 -0.56254441
0.88671982 -2.4492412 -0.56046104
0.92759985 -2.5621572 -0.56264615
0.96768576 -2.6728799 -0.56236953
1.010998 -2.7925143 -0.56193286
1.0552205 -2.9146631 -0.55986893
1.108885 -3.0628917 -0.56042695
1.168191 -3.2267025 -0.56107622
1.2294544 -3.3959205 -0.55972296
1.3055263 -3.6060414 -0.56175745
1.3810099 -3.8145375 -0.55983853
1.4722474 -4.0665479 -0.56023705
1.5748814 -4.3500371 -0.56023866
1.6914771 -4.6720901 -0.55985469
1.8323233 -5.0611267 -0.56121099
1.9871786 -5.4888582 -0.55963862
2.1760933 -6.0106664 -0.55926657
2.4052153 -6.6435328 -0.55902213
2.6861107 -7.4194036 -0.55835932
3.0424154 -8.4035664 -0.55781525
3.5057962 -9.6834869 -0.55689132
4.1304955 -11.408992 -0.55502832
5.0332656 -13.902566 -0.55323875
6.4431748 -17.796926 -0.55072922
8.936594 -24.68409 -0.54553443
14.58182 -40.276974 -0.5340392
0.73692906 -1.9598708 -0.56104136
0.76189053 -2.0262561 -0.56080431
0.79050595 -2.1023591 -0.56198949
0.81894433 -2.1779914 -0.56169975
0.85158455 -2.2647984 -0.56284785
0.88410825 -2.3512955 -0.5623787
0.91771793 -2.4406807 -0.56104207
0.95547098 -2.5410855 -0.56055647
0.99714106 -2.6519074 -0.5604943
1.0477664 -2.7865462 -0.56328195
1.0953637 -2.9131317 -0.56211954
1.1478764 -3.0527899 -0.56111884
1.2053473 -3.2056341 -0.55994767
1.2710923 -3.3804839 -0.55971253
1.3517935 -3.5951095 -0.56260139
1.4274778 -3.7963929 -0.55970931
1.5249691 -4.0556717 -0.56127965
1.629194 -4.332859 -0.56056398
1.7460415 -4.6436162 -0.55897313
1.8844297 -5.0116611 -0.55825311
2.0567729 -5.4700103 -0.56025314
2.25121 -5.9871173 -0.55960882
2.4840262 -6.6062946 -0.55841672
2.777667 -7.3872356 -0.55846667
3.1431544 -8.3592529 -0.55739725
3.6207597 -9.6294498 -0.55630207
4.2671766 -11.348603 -0.55460119
5.2031908 -13.837942 -0.55317134
6.6552739 -17.699774 -0.55021363
9.233202 -24.555801 -0.54516721
15.047699 -40.01952 -0.53303868
0.76481664 -1.9605196 -0.56387663
0.78910458 -2.0227787 -0.56248492
0.81655931 -2.0931559 -0.56217092
0.84986413 -2.178529 -0.56449085
0.87949365 -2.2544808 -0.5629288
0.91105306 -2.3353798 -0.56120908
0.95011073 -2.4354997 -0.56249416
0.98902225 -2.5352449 -0.56190836
1.0276423 -2.6342428 -0.55938923
1.0791781 -2.7663491 -0.56183916
1.1274184 -2.8900073 -0.56029016
1.1840461 -3.035166 -0.56051326
1.2483724 -3.2000592 -0.56161278
1.3124504 -3.3643157 -0.55966526
1.3937457 -3.5727067 -0.56173503
1.4796381 -3.7928822 -0.56183171
1.5733813 -4.0331821 -0.56080234
1.682309 -4.3124056 -0.56055176
1.8100505 -4.6398563 -0.56115735
1.9514248 -5.0022535 -0.55983573
2.1193948 -5.4328251 -0.55907154
2.324723 -5.9591599 -0.55962527
2.5642371 -6.5731273 -0.55823618
2.8674166 -7.3502927 -0.55829722
3.2404344 -8.3064814 -0.55649322
3.7368743 -9.5790482 -0.55600286
4.4079142 -11.299181 -0.55479282
5.3685932 -13.761772 -0.55272359
6.8678198 -17.604866 -0.54984701
9.5183382 -24.399166 -0.54424703
15.508554 -39.754395 -0.53200716
0.78905046 -1.9514275 -0.56400955
0.81390852 -2.0129046 -0.56247967
0.83993793 -2.0772791 -0.56063831
0.86833042 -2.1474974 -0.55917448
0.9073472 -2.2439911 -0.56305289
0.94016081 -2.3251436 -0.56148487
0.97891456 -2.4209869 -0.56187987
1.0189704 -2.5200503 -0.5612753
1.0655566 -2.6352642 -0.56234604
1.1087316 -2.7420418 -0.55962902
1.1603429 -2.8696835 -0.55907381
1.2239026 -3.026875 -0.56171888
1.2861094 -3.180721 -0.56095195
1.3474774 -3.3324921 -0.55708557
1.4353998 -3.5499358 -0.56088758
1.5199665 -3.7590806 -0.559551
1.6216 -4.0104342 -0.56036955
1.7326703 -4.2851257 -0.55973291
1.8674161 -4.6183701 -0.56129348
2.0121784 -4.9763865 -0.55966765
2.1875296 -5.4100533 -0.55945396
2.3972981 -5.9288397 -0.55950391
2.6432924 -6.5372162 -0.5579046
2.9515774 -7.2996464 -0.55716491
3.3494582 -8.283659 -0.55768138
3.8458283 -9.5112476 -0.55477047
4.5460734 -11.243048 -0.55473948
5.5377326 -13.695554 -0.55275714
7.0733318 -17.493296 -0.5490374
9.808815 -24.258512 -0.54375893
15.969213 -39.493999 -0.53111011
0.81067544 -1.9360633 -0.56240755
0.83614969 -1.996901 -0.56083834
0.86868888 -2.0746114 -0.56275874
0.9008339 -2.1513805 -0.56302732
0.92816722 -2.2166584 -0.55901617
0.97053951 -2.3178523 -0.56256354
1.0045929 -2.3991787 -0.55964321
1.05507 -2.5197289 -0.56405061
1.0906966 -2.6048126 -0.5586676
1.1462044 -2.7373767 -0.56151104
1.1948321 -2.8535099 -0.558743
1.2588208 -3.0063283 -0.56073606
1.3285785 -3.1729243 -0.5624156
1.3997084 -3.3427978 -0.56164306
1.4837204 -3.5434358 -0.56270063
1.5731132 -3.7569249 -0.56206697
1.6753806 -4.0011606 -0.56190985
1.7894868 -4.2736702 -0.56106842
1.923456 -4.593617 -0.56111717
2.0716593 -4.9475574 -0.55924803
2.2527058 -5.3799348 -0.5591616
2.4662151 -5.8898396 -0.55864304
2.7218194 -6.5002766 -0.55756623
3.0414617 -7.2636495 -0.55722982
3.4447563 -8.2268019 -0.55666322
3.9659512 -9.4715242 -0.55525595
4.6747699 -11.164332 -0.55365002
5.6975017 -13.606831 -0.55196214
7.2807031 -17.387848 -0.54849625
10.091004 -24.099438 -0.54293352
16.422415 -39.220177 -0.53010333
0.83630562 -1.9303035 -0.56367904
0.86949748 -2.0069146 -0.56661069
0.89291805 -2.0609725 -0.56199491
0.92704511 -2.1397421 -0.56292224
0.96139729 -2.2190316 -0.56255347
1.0001823 -2.3085525 -0.56324881
1.0390224 -2.3982005 -0.56235272
1.0795594 -2.4917653 -0.56072009
1.1315775 -2.6118298 -0.56311435
1.1811763 -2.7263103 -0.56217784
1.2304684 -2.8400831 -0.55903435
1.3020934 -3.005403 -0.56350726
1.3603388 -3.1398411 -0.55947417
1.4419286 -3.3281612 -0.56212044
1.5247079 -3.5192266 -0.561791
1.6160396 -3.7300322 -0.56097418
1.727674 -3.987699 -0.56296027
1.840973 -4.2492085 -0.56078649
1.9699014 -4.546792 -0.55831409
2.1339974 -4.9255471 -0.55968392
2.3159997 -5.3456321 -0.55851412
2.5372124 -5.8562202 -0.55837125
2.8009057 -6.464859 -0.55744034
3.1361299 -7.2386007 -0.55822438
3.5428939 -8.1774654 -0.55623066
4.0823727 -9.4226542 -0.55529189
4.8188114 -11.122451 -0.55446965
5.8591328 -13.523649 -0.55146879
7.4908237 -17.289808 -0.54826772
10.379165 -23.956478 -0.54254711
16.86479 -38.926155 -0.52889228
0.85465389 -1.907992 -0.56019026
0.88436931 -1.9743309 -0.56043923
0.92055756 -2.0551202 -0.56344318
0.95030236 -2.1215248 -0.56116134
0.98567998 -2.2005043 -0.56088686
1.026106 -2.2907543 -0.56194234
1.0632524 -2.3736827 -0.55962706
1.1068761 -2.4710715 -0.55908394
1.1607301 -2.5912993 -0.56172276
1.2074052 -2.6955001 -0.55884385
1.2664578 -2.8273332 -0.55954772
1.3333923 -2.9767628 -0.56116903
1.4034125 -3.133081 -0.56130207
1.475719 -3.2945032 -0.5594582
1.5652155 -3.4943018 -0.56084222
1.6593517 -3.7044587 -0.56015438
1.7637285 -3.9374771 -0.55888969
1.8983705 -4.2380619 -0.56235361
2.0341854 -4.541265 -0.56066447
2.1935153 -4.8969646 -0.55945867
2.3811703 -5.3158994 -0.55842453
2.6092484 -5.8250775 -0.55841887
2.8818753 -6.4337101 -0.55776793
3.2143281 -7.1759019 -0.55639523
3.6362915 -8.1179237 -0.55518007
4.1891289 -9.3521185 -0.55412889
4.9461765 -11.042208 -0.55345958
6.0251746 -13.451042 -0.55148751
7.695106 -17.179121 -0.54771692
10.653004 -23.782547 -0.54153377
17.31299 -38.650791 -0.52800351
0.88327438 -1.9086305 -0.56352401
0.91195214 -1.9705992 -0.56252056
0.94314307 -2.0379982 -0.56188601
0.98395556 -2.1261883 -0.56555247
1.0114095 -2.1855123 -0.56019318
1.0493389 -2.2674725 -0.55935413
1.0931183 -2.3620737 -0.56001669
1.1414123 -2.4664299 -0.56116682
1.192237 -2.5762551 -0.56159705
1.2513883 -2.7040725 -0.56376874
1.3065408 -2.8232493 -0.56187654
1.3686985 -2.9575632 -0.56067997
1.4481961 -3.1293459 -0.56378067
1.5167829 -3.2775524 -0.5597046
1.6108814 -3.480886 -0.56182569
1.7033154 -3.6806228 -0.55967492
1.8135732 -3.9188745 -0.55937231
1.9392773 -4.1905031 -0.55916488
2.0872974 -4.5103536 -0.55997461
2.2523763 -4.8670654 -0.5591647
2.4513893 -5.2971044 -0.55957443
2.6825211 -5.7965474 -0.55880374
2.955761 -6.3869796 -0.55682546
3.3039603 -7.1393895 -0.55667216
3.7454934 -8.0934801 -0.55661607
4.3096409 -9.3125219 -0.55488074
5.0808163 -10.978923 -0.55337721
6.1907234 -13.377275 -0.5515424
7.900599 -17.072073 -0.54735994
10.937164 -23.633659 -0.54116499
17.75618 -38.368584 -0.52709115
0.90254009 -1.8889712 -0.56095386
0.9342761 -1.9553931 -0.56141686
0.95922613 -2.0076122 -0.55671835
1.0010673 -2.0951836 -0.56053734
1.0425142 -2.1819301 -0.5625183
1.0783709 -2.2569764 -0.55999362
1.1323287 -2.3699074 -0.56513244
1.1719397 -2.4528112 -0.56130463
1.2240304 -2.5618343 -0.56169206
1.2775613 -2.673872 -0.56070518
1.338742 -2.8019202 -0.56086546
1.4096012 -2.9502246 -0.56253225
1.4787892 -3.0950317 -0.5608322
1.5575931 -3.2599645 -0.55992955
1.647158 -3.4474194 -0.55965084
1.7472941 -3.6569991 -0.55930752
1.8624878 -3.8980939 -0.55963284
1.9966688 -4.1789279 -0.56085408
2.1394176 -4.477694 -0.55914372
2.3083458 -4.8312521 -0.55826908
2.5131469 -5.2598906 -0.55886543
2.7560446 -5.7682638 -0.55930185
3.0439272 -6.3707871 -0.55863476
3.3890395 -7.0930901 -0.55626941
3.8391089 -8.0350628 -0.55580312
4.4242058 -9.2596416 -0.55492944
5.2117348 -10.907901 -0.55298579
6.3446054 -13.278941 -0.55066311
8.1050282 -16.963417 -0.54703033
11.207348 -23.456419 -0.54022127
18.189819 -38.070381 -0.5260275
0.9292323 -1.8849008 -0.56309569
0.95930475 -1.9459013 -0.56203592
0.993779 -2.0158305 -0.56234348
1.0272003 -2.0836239 -0.56078154
1.0636909 -2.1576431 -0.55958664
1.1048971 -2.2412281 -0.55941486
1.1510489 -2.3348446 -0.56010407
1.2056144 -2.445528 -0.56298786
1.253893 -2.5434587 -0.56100124
1.3049343 -2.6469932 -0.55839139
1.3741935 -2.7874823 -0.56131542
1.446088 -2.9333165 -0.56265622
1.5163641 -3.0758681 -0.56069601
1.6003789 -3.2462878 -0.56091809
1.6936274 -3.4354377 -0.56104416
1.7913817 -3.6337273 -0.55907494
1.9065444 -3.8673291 -0.55853957
2.047231 -4.1527047 -0.56067085
2.1986349 -4.4598198 -0.56024534
2.3755929 -4.8187704 -0.56015986
2.5753238 -5.2239146 -0.55836546
2.8206267 -5.721499 -0.5580883
3.1193817 -6.327508 -0.55816096
3.4761078 -7.0511093 -0.55628717
3.9385822 -7.9892154 -0.55593979
4.5303316 -9.1895485 -0.55402541
5.3353567 -10.822502 -0.55194062
6.5055075 -13.196094 -0.55050319
8.3049345 -16.84614 -0.54650021
11.488744 -23.304337 -0.53993148
18.624331 -37.778515 -0.5251193
0.95176148 -1.8721989 -0.56275487
0.98046541 -1.9286622 -0.56049663
1.0172406 -2.0010023 -0.56165385
1.058082 -2.0813408 -0.56362611
1.0952959 -2.1545439 -0.56223333
1.1371456 -2.236866 -0.56177384
1.182128 -2.32535 -0.56127101
1.2286668 -2.4168961 -0.55983227
1.2869447 -2.5315342 -0.56181908
1.349139 -2.6538758 -0.56330031
1.4060248 -2.7657752 -0.56038338
1.4730058 -2.8975325 -0.55922437
1.5577146 -3.0641623 -0.56201136
1.6406846 -3.2273717 -0.56109315
1.7372175 -3.4172606 -0.56152177
1.8375975 -3.6147168 -0.55958426
1.95987 -3.8552375 -0.56023145
2.09269 -4.1165061 -0.55921555
2.2510552 -4.4280248 -0.55968606
2.4262407 -4.7726297 -0.55822212
2.6380684 -5.1893139 -0.55809224
2.886313 -5.6776328 -0.55722928
3.1923909 -6.2797151 -0.55736572
3.564358 -7.0114074 -0.55657071
4.034307 -7.9358382 -0.55563545
4.6422524 -9.1317205 -0.55393863
5.4693141 -10.758625 -0.55207109
6.660068 -13.100943 -0.54990864
8.5088186 -16.737598 -0.54633194
11.764428 -23.14167 -0.53947353
19.048506 -37.470093 -0.52404845
0.97788566 -1.8664176 -0.56458884
1.0092766 -1.9263312 -0.56338328
1.0382602 -1.9816502 -0.55976313
1.0785787 -2.058603 -0.56101787
1.1201864 -2.1380167 -0.56147254
1.1616025 -2.2170644 -0.56034565
1.2162571 -2.3213794 -0.56387985
1.2647631 -2.4139593 -0.56271183
1.3143981 -2.5086937 -0.56029469
1.3771759 -2.6285131 -0.5614689
1.434443 -2.7378147 -0.55824983
1.5191437 -2.8994768 -0.56316227
1.590577 -3.0358162 -0.56035721
1.6797005 -3.2059195 -0.56091201
1.7749023 -3.387624 -0.56019586
1.8866949 -3.6009943 -0.56100905
2.0111566 -3.8385448 -0.56135696
2.1441138 -4.0923104 -0.55946797
2.3037474 -4.3969913 -0.55930185
2.4807806 -4.7348814 -0.55733281
2.6992958 -5.1519451 -0.5576008
2.9614503 -5.6523004 -0.55827481
3.2707915 -6.2427168 -0.55760938
3.6469131 -6.9605918 -0.55605465
4.1327252 -7.887825 -0.55578983
4.7459826 -9.0583048 -0.5529834
5.6021919 -10.692487 -0.5521704
6.8154769 -13.008194 -0.5494917
8.7033539 -16.611444 -0.54566616
12.024817 -22.950874 -0.538432
19.478739 -37.17762 -0.52326834
0.99971795 -1.8523215 -0.56400073
1.0310395 -1.9103554 -0.56237632
1.0669593 -1.9769092 -0.56208742
1.1049451 -2.047291 -0.56159538
1.1436945 -2.1190877 -0.56015247
1.1949247 -2.214009 -0.56324446
1.2434698 -2.3039558 -0.56331909
1.2898735 -2.3899345 -0.5607664
1.3458232 -2.4936004 -0.56057739
1.4025813 -2.5987644 -0.55875617
1.4718581 -2.7271237 -0.55971795
1.5462927 -2.8650393 -0.56012428
1.6258446 -3.0124364 -0.55968958
1.726892 -3.1996615 -0.56348979
1.8166726 -3.3660111 -0.56027353
1.9245466 -3.5658848 -0.55918378
2.0592525 -3.8154736 -0.5616436
2.1976185 -4.0718446 -0.56032205
2.3490999 -4.3525157 -0.55727661
2.5504243 -4.7255387 -0.55988216
2.7607987 -5.1153297 -0.55726999
3.0246518 -5.604208 -0.55715615
3.3427043 -6.1935096 -0.55684352
3.7339394 -6.9184074 -0.55631059
4.2316847 -7.840652 -0.55609035
4.8644357 -9.0130405 -0.55382991
5.733541 -10.623358 -0.5521996
6.9639659 -12.903143 -0.54862994
8.9035053 -16.496807 -0.54545557
12.295887 -22.782362 -0.53798503
19.908083 -36.886574 -0.52257788
1.0191375 -1.8339865 -0.56219125
1.0528473 -1.8946489 -0.56152135
1.0922576 -1.9655697 -0.56263959
1.1287144 -2.0311756 -0.56093949
1.1792822 -2.1221747 -0.5647589
1.2182021 -2.1922131 -0.56146789
1.2637429 -2.2741656 -0.55979246
1.3184216 -2.3725626 -0.56045187
1.3781364 -2.4800222 -0.56129211
1.4442173 -2.598938 -0.56256926
1.5114094 -2.7198532 -0.56199771
1.5817989 -2.8465226 -0.56026447
1.6608279 -2.988739 -0.55903888
1.7580014 -3.1636076 -0.56090492
1.8579849 -3.3435326 -0.56029242
1.9698622 -3.5448611 -0.55964309
2.1060658 -3.7899661 -0.5616585
2.2417603 -4.0341549 -0.55888659
2.4136682 -4.3435111 -0.55988145
2.6002023 -4.6791883 -0.55813658
2.8243034 -5.082469 -0.5574314
3.0935335 -5.5669613 -0.5571928
3.4239893 -6.1616321 -0.55772066
3.8164921 -6.86796 -0.55598563
4.3199067 -7.7738781 -0.55508
4.9685369 -8.9411192 -0.55312288
5.8523836 -10.531644 -0.55113131
7.1213479 -12.815206 -0.54857278
9.1021805 -16.379808 -0.5452466
12.569503 -22.619421 -0.53774649
20.315622 -36.558933 -0.5214358
1.0428337 -1.8234563 -0.56285155
1.0768722 -1.8829745 -0.56194335
1.1179549 -1.95481 -0.56345206
1.1542648 -2.0183001 -0.56126106
1.1904327 -2.0815418 -0.55779892
1.2391983 -2.1668115 -0.55882251
1.2914793 -2.2582278 -0.55973607
1.3466724 -2.3547361 -0.56011015
1.4052444 -2.4571526 -0.55998462
1.4766657 -2.5820372 -0.5627988
1.5380263 -2.6893296 -0.55955619
1.6186339 -2.8302767 -0.56094199
1.7038552 -2.9792912 -0.56114817
1.7944707 -3.137738 -0.56018811
1.8949431 -3.3134198 -0.55910867
2.0085144 -3.5120058 -0.55831295
2.1473689 -3.754801 -0.56031799
2.2867377 -3.9984958 -0.55779988
2.4626601 -4.3061066 -0.5589211
2.6631038 -4.6565943 -0.55930531
2.8850904 -5.0447507 -0.55714339
3.1637707 -5.5320396 -0.55754918
3.4992733 -6.1186857 -0.55768597
3.8936276 -6.8082376 -0.55498481
4.4144526 -7.7189307 -0.55499053
5.0831256 -8.8881445 -0.55367059
5.9838824 -10.463172 -0.55135697
7.2775173 -12.725168 -0.54850781
9.2796679 -16.226048 -0.54388553
12.834628 -22.442104 -0.53724241
20.721285 -36.232388 -0.52037317
1.0577556 -1.7978849 -0.55893093
1.099445 -1.868745 -0.5616889
1.1326236 -1.9251391 -0.55887187
1.176391 -1.9995315 -0.56002206
1.2238715 -2.080235 -0.5614391
1.2718897 -2.1618521 -0.56153458
1.321856 -2.2467809 -0.56088519
1.3830884 -2.3508584 -0.56319064
1.4343245 -2.4379454 -0.5595845
1.5020194 -2.5530076 -0.56045467
1.5781357 -2.6823838 -0.56210607
1.6482681 -2.8015888 -0.55923092
1.7316643 -2.9433389 -0.5583449
1.8309376 -3.1120753 -0.55958372
1.9426261 -3.3019142 -0.56115556
2.0606158 -3.5024633 -0.56078166
2.1881611 -3.7192543 -0.55898637
2.3400338 -3.9773946 -0.558828
2.5098319 -4.2660031 -0.55767947
2.7208166 -4.6246176 -0.55944079
2.9484699 -5.0115633 -0.55744016
3.2347703 -5.4981933 -0.55810463
3.5611963 -6.0530252 -0.55565059
3.9800315 -6.764926 -0.55540168
4.4967046 -7.6431241 -0.55347383
5.1812649 -8.8066826 -0.55252302
6.1118889 -10.388479 -0.55133969
7.4317369 -12.631847 -0.54838282
9.4832211 -16.11879 -0.54415786
13.095618 -22.258842 -0.53666961
21.135162 -35.92379 -0.51963431
1.0826727 -1.7895219 -0.56042743
1.1147728 -1.8425794 -0.55790228
1.1552036 -1.9094063 -0.55838609
1.2009418 -1.9850059 -0.56004745
1.2454669 -2.0586004 -0.55969113
1.2997607 -2.1483409 -0.56213397
1.346993 -2.2264102 -0.55989242
1.4047859 -2.3219345 -0.56035727
1.4632137 -2.4185085 -0.5592106
1.5343041 -2.5360119 -0.56082302
1.5957599 -2.6375906 -0.55678934
1.6921268 -2.7968729 -0.5624004
1.7767484 -2.9367418 -0.56119555
1.87231 -3.0946932 -0.56055564
1.9781592 -3.2696486 -0.55976367
2.0990021 -3.4693866 -0.55957597
2.2290528 -3.6843441 -0.55781686
2.3843224 -3.9409852 -0.55778956
2.5739825 -4.2544699 -0.56026697
2.7686615 -4.5762491 -0.55766588
3.0148766 -4.9832125 -0.55836803
3.2967055 -5.4490399 -0.55718797
3.6448758 -6.0245218 -0.5571062
4.0679164 -6.7237549 -0.55608624
4.6006165 -7.6042409 -0.55471277
5.2821774 -8.7307758 -0.55179399
6.2309008 -10.298896 -0.55060995
7.5842624 -12.535832 -0.54822183
9.6650476 -15.975109 -0.5432784
13.356789 -22.077093 -0.53620696
21.532366 -35.590294 -0.51860106
1.1046318 -1.7761353 -0.56044662
1.1531569 -1.8541589 -0.56565899
1.1896551 -1.9128442 -0.56362689
1.2249401 -1.9695787 -0.55990225
1.2717904 -2.0449092 -0.56017828
1.3163432 -2.1165457 -0.5580076
1.3710366 -2.2044873 -0.5585767
1.4299426 -2.299202 -0.55907238
1.50104 -2.4135191 -0.56228226
1.5607024 -2.5094504 -0.55915082
1.6414397 -2.6392677 -0.56136167
1.7198856 -2.7654009 -0.56028217
1.8152707 -2.9187703 -0.5619843
1.9083385 -3.068414 -0.56000364
2.019388 -3.2469702 -0.56008989
2.1436057 -3.4466996 -0.56012583
2.2769568 -3.6611145 -0.55849665
2.424293 -3.898016 -0.55588508
2.6185086 -4.2102952 -0.55864757
2.8247812 -4.5419602 -0.5576781
3.0739377 -4.9425788 -0.55800813
3.3676379 -5.4148183 -0.55788088
3.7119613 -5.9684553 -0.55610037
4.144733 -6.6643081 -0.55534279
4.6893277 -7.5399609 -0.55418807
5.3896136 -8.6659489 -0.55184376
6.3624973 -10.230247 -0.55108088
7.7276869 -12.425333 -0.54750359
9.8562174 -15.847793 -0.54302925
13.607454 -21.8794 -0.53542888
21.939127 -35.275883 -0.51791143
1.1252141 -1.7605841 -0.55986315
1.1670153 -1.8259891 -0.56140053
1.2082027 -1.8904335 -0.56135863
1.2514998 -1.958179 -0.56099385
1.2947097 -2.0257881 -0.55925912
1.3477838 -2.1088312 -0.56030071
1.4054174 -2.1990087 -0.56152493
1.4630024 -2.2891099 -0.5609504
1.5256338 -2.3871071 -0.56045717
1.5973427 -2.4993076 -0.56122488
1.6688299 -2.6111612 -0.55970591
1.7529228 -2.7427385 -0.56001538
1.8465462 -2.8892279 -0.56062561
1.9382848 -3.032768 -0.55780578
2.0545206 -3.2146382 -0.55882835
2.1783819 -3.4084399 -0.55821913
2.3218749 -3.6329582 -0.55851465
2.4881287 -3.89309 -0.55950344
2.6697261 -4.1772294 -0.55857384
2.8835258 -4.5117545 -0.55828065
3.1294858 -4.8965998 -0.55711961
3.4213848 -5.3533244 -0.55583769
3.7887137 -5.928071 -0.55663627
4.2198677 -6.6026835 -0.55448961
4.7847447 -7.486527 -0.5545432
5.5005894 -8.6065845 -0.55232882
6.4775968 -10.135274 -0.55021393
7.876349 -12.323854 -0.54725832
10.047431 -15.720873 -0.54287261
13.855191 -21.678745 -0.53464735
22.329836 -34.938732 -0.51695371
1.14934 -1.7505206 -0.56111473
1.1889181 -1.8108006 -0.56118315
1.2270422 -1.868866 -0.55939233
1.279305 -1.9484657 -0.5626753
1.3218151 -2.0132115 -0.56023192
1.374395 -2.0932939 -0.56062043
1.4280454 -2.1750071 -0.55983776
1.4868339 -2.2645459 -0.55936885
1.5652207 -2.3839343 -0.56418836
1.6237715 -2.4731109 -0.55978364
1.7093872 -2.6035092 -0.56252873
1.7878903 -2.7230747 -0.56044692
