# .PCD v0.7 - Point Cloud Data file format
VERSION 0.7
FIELDS x y z
SIZE 4 4 4
TYPE F F F
COUNT 1 1 1
WIDTH 1421
HEIGHT 1
VIEWPOINT 0 0 0 1 0 0 0
POINTS 1421
DATA ascii
-6.1031899 -3.9803913 -0.57650244
-6.8523068 -4.4689517 -0.57888985
-7.7964044 -5.0846753 -0.58094561
-9.0269003 -5.8871827 -0.5827626
-10.736238 -7.0019822 -0.58631951
-13.24933 -8.640975 -0.59186935
-17.296465 -11.280444 -0.60084826
-24.863754 -16.215694 -0.61685926
-44.211922 -28.834225 -0.65806693
-1.7635652 -1.181325 -0.56876451
-1.8157614 -1.2162886 -0.5661732
-1.885294 -1.2628649 -0.56777191
-1.9439827 -1.3021777 -0.56482512
-2.035547 -1.363512 -0.56992286
-2.1041465 -1.4094635 -0.56698447
-2.1977704 -1.4721775 -0.56916779
-2.2975025 -1.538983 -0.57099146
-2.3811271 -1.5949991 -0.56698161
-2.4967611 -1.6724564 -0.56860417
-2.6254435 -1.7586544 -0.57074845
-2.7519939 -1.8434242 -0.56987405
-2.9009695 -1.9432157 -0.57088703
-3.0599775 -2.0497272 -0.57079202
-3.2418699 -2.1715682 -0.57155472
-3.4274802 -2.2958992 -0.56929827
-3.6653895 -2.4552627 -0.57149202
-3.9374833 -2.6375248 -0.57390881
-4.2240109 -2.8294556 -0.5728398
-4.5613723 -3.0554371 -0.57242483
-4.9721918 -3.3306248 -0.57374322
-5.4764457 -3.6683996 -0.57668555
-6.0483022 -4.0514579 -0.57598007
-6.7724371 -4.53652 -0.57681137
-7.7344947 -5.1809545 -0.58103567
-8.9538269 -5.997725 -0.5827623
-10.662374 -7.1421967 -0.5870375
-13.143121 -8.8039255 -0.59191614
-17.150274 -11.488119 -0.60063165
-24.63402 -16.501108 -0.6161471
-43.784168 -29.328844 -0.6570183
-1.7567015 -1.2082808 -0.57129937
-1.8091584 -1.2443614 -0.56884235
-1.8695241 -1.2858816 -0.56774163
-1.9348806 -1.3308346 -0.56689233
-2.0096164 -1.3822387 -0.56737858
-2.0924783 -1.4392322 -0.56856614
-2.1710622 -1.4932833 -0.56696343
-2.2677071 -1.5597568 -0.5683102
-2.365114 -1.6267545 -0.5678888
-2.4812753 -1.7066516 -0.56981367
-2.5972922 -1.7864494 -0.56936103
-2.7335749 -1.8801864 -0.57080436
-2.8649676 -1.9705598 -0.56852758
-3.0377369 -2.0893927 -0.57139266
-3.2233448 -2.2170563 -0.57305169
-3.4106047 -2.345856 -0.57124335
-3.6396432 -2.5033913 -0.57223397
-3.9010482 -2.6831889 -0.57336384
-4.189817 -2.8818076 -0.57296491
-4.5336943 -3.1183305 -0.57372004
-4.9311924 -3.3917346 -0.57378143
-5.4261632 -3.7321818 -0.5761798
-6.0020232 -4.1282654 -0.5763635
-6.7335196 -4.6313977 -0.57830352
-7.648715 -5.26088 -0.57940757
-8.8648996 -6.0973873 -0.5818103
-10.55835 -7.2621627 -0.58618242
-13.030987 -8.9628725 -0.59178483
-16.985184 -11.682618 -0.59983563
-24.421513 -16.797417 -0.61595148
-43.372101 -29.831865 -0.65628982
-1.7381779 -1.2272936 -0.57014006
-1.7801075 -1.2568992 -0.56452495
-1.8502069 -1.3063951 -0.56671083
-1.9245504 -1.3588876 -0.56871837
-1.9913905 -1.406082 -0.56707144
-2.0796998 -1.4684355 -0.5699572
-2.1543176 -1.5211217 -0.56743234
-2.2446334 -1.5848919 -0.56736881
-2.3593004 -1.6658561 -0.57136816
-2.4574988 -1.7351921 -0.56921035
-2.5655031 -1.8114519 -0.56723243
-2.7082212 -1.9122224 -0.57037699
-2.8444965 -2.0084436 -0.56932306
-2.9987235 -2.1173403 -0.56890857
-3.1946003 -2.2556453 -0.57282919
-3.387928 -2.3921502 -0.57232869
-3.6007247 -2.5424016 -0.57098716
-3.8575666 -2.7237527 -0.57185245
-4.1509957 -2.9309373 -0.5725413
-4.4922638 -3.1719 -0.57336956
-4.8821774 -3.4472103 -0.57296705
-5.3763843 -3.7961605 -0.57580709
-5.9509611 -4.201858 -0.57637811
-6.6771636 -4.7146153 -0.57839864
-7.5932679 -5.3614588 -0.58015758
-8.7919703 -6.207839 -0.58198977
-10.474029 -7.3955073 -0.58650547
-12.901137 -9.1092424 -0.59093004
-16.840841 -11.89099 -0.5998565
-24.188318 -17.078901 -0.61532027
-42.935143 -30.315668 -0.65526909
-1.7159431 -1.2434905 -0.56781936
-1.7770035 -1.2877389 -0.56851923
-1.8341507 -1.3291517 -0.56675613
-1.8977578 -1.3752459 -0.56575543
-1.9778223 -1.433266 -0.56818348
-2.0564353 -1.4902346 -0.56856048
-2.1405358 -1.5511795 -0.56878334
-2.2220058 -1.6102184 -0.56661129
-2.3269632 -1.6862777 -0.56851548
-2.4330337 -1.7631437 -0.56852239
-2.541904 -1.8420385 -0.56697983
-2.6762609 -1.9394028 -0.56862545
-2.8155546 -2.0403445 -0.56850898
-2.986094 -2.163929 -0.57151747
-3.147893 -2.2811799 -0.56944078
-3.3597066 -2.4346747 -0.57257539
-3.5829957 -2.5964851 -0.5731954
-3.8225772 -2.7701025 -0.57167184
-4.1135941 -2.9809933 -0.57239515
-4.4634223 -3.2345028 -0.57472134
-4.8639841 -3.5247777 -0.57587504
-5.3283205 -3.8612678 -0.57570106
-5.8966823 -4.2731419 -0.57616663
-6.6161356 -4.794507 -0.57817537
-7.5128102 -5.4442992 -0.57908142
-8.7099724 -6.3118453 -0.58165556
-10.371391 -7.5158238 -0.58588898
-12.800076 -9.275816 -0.59148073
-16.682102 -12.089 -0.5994519
-23.958076 -17.361671 -0.61484754
-42.498631 -30.797432 -0.65433729
-1.6852176 -1.2531132 -0.56270844
-1.7638736 -1.311601 -0.56943536
-1.8267759 -1.3583747 -0.56959558
-1.886386 -1.4027003 -0.56746447
-1.9606923 -1.4579538 -0.56836969
-2.0424104 -1.5187186 -0.56980294
-2.1197276 -1.576211 -0.56836128
-2.2092586 -1.6427854 -0.56846881
-2.3186352 -1.724117 -0.57161725
-2.4169083 -1.7971921 -0.56987518
-2.5271692 -1.8791811 -0.56880432
-2.6643455 -1.9811841 -0.57122666
-2.7999673 -2.0820315 -0.57048792
-2.9503462 -2.1938519 -0.56979567
-3.1255732 -2.3241491 -0.57052988
-3.3223398 -2.470463 -0.5713411
-3.544349 -2.6355472 -0.57215405
-3.7895103 -2.817847 -0.57186532
-4.0796208 -3.0335705 -0.57281506
-4.421092 -3.2874858 -0.57443255
-4.797533 -3.5674038 -0.57315773
-5.2749934 -3.9224396 -0.5751071
-5.845273 -4.3464942 -0.57632214
-6.543684 -4.8658266 -0.57702899
-7.4545116 -5.5431099 -0.57979774
-8.6368408 -6.4222798 -0.58200151
-10.278205 -7.6427841 -0.58588946
-12.664931 -9.4175329 -0.59054232
-16.517122 -12.281989 -0.59890515
-23.728251 -17.644121 -0.6144709
-42.057419 -31.273533 -0.65341556
-1.6803412 -1.2818702 -0.56630057
-1.7415749 -1.3285831 -0.56746781
-1.8128748 -1.3829752 -0.57052046
-1.8701341 -1.4266562 -0.56780982
-1.9429877 -1.4822335 -0.56847793
-2.0226202 -1.5429823 -0.56953204
-2.1095624 -1.6093073 -0.57089853
-2.183876 -1.6659983 -0.56716603
-2.280941 -1.7400458 -0.56755638
-2.3855598 -1.8198555 -0.56771708
-2.4977179 -1.9054167 -0.56740612
-2.6401656 -2.0140848 -0.57130915
-2.7709172 -2.1138303 -0.56982189
-2.9293616 -2.2347016 -0.57100672
-3.080759 -2.3501973 -0.56758189
-3.2998753 -2.5173531 -0.57275784
-3.5026071 -2.6720095 -0.57067657
-3.7545953 -2.8642421 -0.57186806
-4.031271 -3.0753076 -0.57129276
-4.3684039 -3.3324938 -0.57286769
-4.768436 -3.6376638 -0.57498199
-5.2184978 -3.980999 -0.57424122
-5.7962904 -4.4217758 -0.57680988
-6.4940515 -4.954072 -0.5779804
-7.3788099 -5.6290216 -0.57924962
-8.5546312 -6.5260119 -0.58182526
-10.17322 -7.7607732 -0.58530051
-12.542855 -9.5684814 -0.59029168
-16.354309 -12.476098 -0.59851903
-23.489086 -17.918957 -0.61393702
-41.604313 -31.738396 -0.65239
-1.670743 -1.307356 -0.56844068
-1.7094913 -1.3376765 -0.5623309
-1.7774403 -1.3908466 -0.56470859
-1.850909 -1.4483359 -0.56733716
-1.9229742 -1.504727 -0.56799299
-2.001543 -1.5662071 -0.568977
-2.085839 -1.6321687 -0.56986678
-2.1654158 -1.6944374 -0.56773996
-2.2649825 -1.7723484 -0.56896532
-2.369925 -1.854466 -0.56938004
-2.4795649 -1.940259 -0.56865925
-2.6033158 -2.0370941 -0.56871265
-2.7435465 -2.1468246 -0.56957889
-2.8784335 -2.2523735 -0.5664354
-3.0715976 -2.4035246 -0.57129586
-3.2477195 -2.5413399 -0.56908613
-3.4706199 -2.7157593 -0.57086265
-3.7319872 -2.9202793 -0.57385063
-4.004746 -3.133713 -0.57295126
-4.3234644 -3.3831098 -0.5723865
-4.7030258 -3.6801169 -0.5725081
-5.1762805 -4.0504384 -0.57503289
-5.7415047 -4.4927258 -0.57681191
-6.4244738 -5.0271492 -0.57724601
-7.3116083 -5.7213321 -0.57945317
-8.4802208 -6.6357713 -0.58227003
-10.070526 -7.8801847 -0.58492291
-12.428185 -9.7250519 -0.5904783
-16.187979 -12.66709 -0.59808701
-23.240562 -18.185736 -0.61323977
-41.153797 -32.202839 -0.65148562
-1.6414583 -1.3173 -0.56394559
-1.7064077 -1.369423 -0.56681287
-1.7745628 -1.4241188 -0.56931496
-1.8277513 -1.4668034 -0.56572461
-1.896773 -1.5221946 -0.56573975
-1.9800303 -1.5890101 -0.56837296
-2.0610578 -1.654036 -0.56861001
-2.1442611 -1.7208083 -0.56769842
-2.2481179 -1.8041552 -0.57025862
-2.3563197 -1.8909891 -0.57165456
-2.4566267 -1.9714873 -0.56891531
-2.5858598 -2.0751994 -0.57043064
-2.7118111 -2.1762774 -0.56850308
-2.8736024 -2.3061178 -0.57102185
-3.0415301 -2.4408829 -0.57124275
-3.223907 -2.5872436 -0.57044506
-3.4414537 -2.7618289 -0.57160807
-3.6772614 -2.9510686 -0.57097226
-3.9664888 -3.1831789 -0.57303452
-4.2836418 -3.4377 -0.57266748
-4.657887 -3.7380385 -0.57256532
-5.1160316 -4.1057076 -0.57390487
-5.6739392 -4.5534387 -0.57560563
-6.3627605 -5.1062303 -0.577299
-7.2451797 -5.8143878 -0.57981092
-8.3787155 -6.7240705 -0.58093369
-9.9650526 -7.9971347 -0.58446419
-12.290408 -9.8632746 -0.58965009
-16.029007 -12.863568 -0.59801239
-23.002525 -18.459942 -0.61290199
-40.678169 -32.644966 -0.65026164
-1.641088 -1.3505094 -0.56948072
-1.693287 -1.3934658 -0.56810325
-1.7483847 -1.4388077 -0.56654972
-1.820974 -1.498544 -0.56928736
-1.8922235 -1.5571777 -0.57005084
-1.9647741 -1.6168822 -0.56965774
-2.0393133 -1.6782233 -0.56826138
-2.116662 -1.7418761 -0.56601948
-2.2144165 -1.8223218 -0.56735104
-2.3205445 -1.9096582 -0.56862921
-2.4349849 -2.0038352 -0.56956661
-2.5457704 -2.0950046 -0.56722701
-2.695498 -2.2182207 -0.57075822
-2.8455029 -2.341665 -0.57111675
-2.9943216 -2.4641333 -0.56802422
-3.1920073 -2.6268158 -0.57047284
-3.4062343 -2.8031108 -0.5714401
-3.6390595 -2.9947109 -0.57071525
-3.9183974 -3.2245879 -0.57177192
-4.2470264 -3.4950285 -0.57347453
-4.6247182 -3.8058443 -0.57419729
-5.0740533 -4.1756182 -0.57491225
-5.6274552 -4.631032 -0.57662332
-6.3022757 -5.1863656 -0.57755375
-7.1687622 -5.8994284 -0.57945698
-8.3072338 -6.8363171 -0.58176202
-9.8740683 -8.125721 -0.58494395
-12.171865 -10.016659 -0.58982748
-15.858168 -13.050247 -0.59758037
-22.760456 -18.730385 -0.61254251
-40.214073 -33.093582 -0.64929879
-1.6270896 -1.3728896 -0.57043815
-1.6685539 -1.407876 -0.56557065
-1.7325705 -1.4618913 -0.56720734
-1.7869247 -1.5077537 -0.56439602
-1.8622918 -1.5713462 -0.56681168
-1.9319744 -1.6301423 -0.56591696
-2.0192864 -1.7038136 -0.56847578
-2.1010301 -1.7727865 -0.5676257
-2.1988056 -1.8552866 -0.56915343
-2.2974572 -1.9385259 -0.56876993
-2.4206057 -2.0424347 -0.57203448
-2.5153768 -2.1223998 -0.56622708
-2.6707437 -2.2534938 -0.57134092
-2.8040836 -2.3660021 -0.56859982
-2.988106 -2.5212746 -0.57268304
-3.1570094 -2.6637902 -0.57002896
-3.3836846 -2.855052 -0.57350343
-3.6075439 -3.0439377 -0.57159954
-3.8793843 -3.2733085 -0.57190919
-4.1905456 -3.5358574 -0.57167566
-4.5653315 -3.8520904 -0.5726617
-5.0206122 -4.2362428 -0.57471579
-5.559072 -4.6905789 -0.5754829
-6.2395492 -5.2647452 -0.57769442
-7.0887847 -5.9813051 -0.5788936
-8.2060852 -6.9240499 -0.5805971
-9.7641258 -8.238678 -0.5843882
-12.040133 -10.159105 -0.58945286
-15.679066 -13.229527 -0.59691632
-22.488745 -18.975332 -0.61146343
-39.745518 -33.536083 -0.64834273
-1.5984889 -1.3827597 -0.5663293
-1.6488353 -1.4263115 -0.56478906
-1.7250566 -1.492246 -0.57071155
-1.7718817 -1.5327517 -0.56555492
-1.8436059 -1.5947961 -0.56705022
-1.9189723 -1.6599911 -0.56804448
-1.9942034 -1.7250693 -0.56734329
-2.0776157 -1.7972243 -0.56722754
-2.1784141 -1.8844192 -0.56982994
-2.272923 -1.9661734 -0.5686385
-2.3894532 -2.0669768 -0.57063586
-2.4955978 -2.1587963 -0.56770736
-2.6220677 -2.268198 -0.56685156
-2.7755842 -2.4009962 -0.56876457
-2.9490616 -2.5510614 -0.57116884
-3.1297364 -2.7073529 -0.5710724
-3.3381963 -2.8876791 -0.57176864
-3.5716815 -3.0896537 -0.57189375
-3.8523831 -3.3324723 -0.57392627
-4.1437826 -3.5845451 -0.57126606
-4.5244856 -3.9138689 -0.57353163
-4.9600105 -4.290616 -0.57377464
-5.5067105 -4.7635345 -0.57608247
-6.1681061 -5.3356695 -0.57711071
-7.0146017 -6.0679235 -0.57888508
-8.1257915 -7.0291491 -0.58098763
-9.6633568 -8.3592072 -0.58446491
-11.913029 -10.305267 -0.58938938
-15.50697 -13.414177 -0.5965991
-22.240255 -19.23875 -0.6110931
-39.268204 -33.968636 -0.64732128
-1.585369 -1.4058589 -0.56776279
-1.6298462 -1.4453 -0.5643295
-1.6830716 -1.4924986 -0.56285048
-1.7584281 -1.5593227 -0.56733793
-1.8254126 -1.6187226 -0.56753367
-1.8905901 -1.67652 -0.56570262
-1.9777625 -1.753822 -0.56875825
-2.060358 -1.8270653 -0.56860667
-2.1379027 -1.8958297 -0.56528819
-2.2518981 -1.9969174 -0.56947863
-2.3557048 -2.0889702 -0.56866771
-2.4723353 -2.1923947 -0.56850523
-2.600343 -2.3059082 -0.56824189
-2.7521446 -2.4405215 -0.57006782
-2.9061701 -2.5771067 -0.5689562
-3.0998416 -2.7488489 -0.57174194
-3.2972753 -2.9239275 -0.57087475
-3.5233979 -3.1244464 -0.57027119
-3.8060174 -3.3750651 -0.5731582
-4.1122236 -3.6465998 -0.57305372
-4.4730334 -3.9665554 -0.57314891
-4.9109368 -4.3548756 -0.57424903
-5.4483461 -4.8314338 -0.57614827
-6.0828042 -5.394053 -0.57529193
-6.9385042 -6.1528625 -0.57880503
-8.0339088 -7.1242356 -0.58063769
-9.5513468 -8.4698553 -0.58394527
-11.773929 -10.440776 -0.58881474
-15.331511 -13.595536 -0.59623539
-21.98992 -19.500019 -0.61075687
-38.787312 -34.395454 -0.64631712
-1.5577861 -1.4159948 -0.56407762
-1.6152978 -1.4682716 -0.56550074
-1.6785867 -1.5257999 -0.56758207
-1.7368907 -1.578797 -0.56660986
-1.8087391 -1.6441056 -0.56859225
-1.8750945 -1.7044213 -0.5672943
-1.9512029 -1.7736022 -0.5673492
-2.0317013 -1.8467736 -0.56692231
-2.1298211 -1.9359623 -0.56940269
-2.2265546 -2.0238912 -0.56932008
-2.3300676 -2.1179824 -0.56872284
-2.4536252 -2.2302935 -0.57046592
-2.5712218 -2.3371863 -0.56811547
-2.7138631 -2.4668443 -0.56837851
-2.8716354 -2.610256 -0.56843603
-3.0550227 -2.7769513 -0.56973046
-3.2634547 -2.9664114 -0.57129139
-3.4880717 -3.1705835 -0.57082057
-3.7503743 -3.4090111 -0.57104826
-4.0529127 -3.6840122 -0.57105809
-4.4261627 -4.0232887 -0.57343894
-4.8586912 -4.4164481 -0.57444662
-5.3760705 -4.8867345 -0.57481623
-6.0294409 -5.4806347 -0.57657516
-6.848474 -6.2251186 -0.57763666
-7.9429064 -7.219934 -0.58043319
-9.4549837 -8.5943804 -0.58447075
-11.639054 -10.579655 -0.58853108
-15.155743 -13.776251 -0.59594262
-21.715538 -19.738966 -0.60983139
-38.301685 -34.815422 -0.64530987
-1.545681 -1.440094 -0.56606364
-1.6014868 -1.4920877 -0.56704605
-1.6418369 -1.5296814 -0.56147355
-1.7186669 -1.6012632 -0.56704527
-1.7859719 -1.6639706 -0.56782436
-1.8602513 -1.7331759 -0.56920832
-1.9332558 -1.8011932 -0.56852782
-2.0140333 -1.8764529 -0.56838781
-2.0918741 -1.9489763 -0.56562209
-2.1955557 -2.0455754 -0.56778246
-2.3133652 -2.1553371 -0.5710718
-2.4247947 -2.2591546 -0.57017851
-2.5551116 -2.3805695 -0.57098055
-2.69645 -2.5122528 -0.57115823
-2.852562 -2.6577008 -0.57108629
-3.0223339 -2.8158755 -0.57004851
-3.2186244 -2.9987571 -0.56985551
-3.4427366 -3.2075601 -0.56981307
-3.7066529 -3.4534481 -0.57081383
-4.0197706 -3.7451763 -0.5728339
-4.3819604 -4.0826244 -0.57417274
-4.804389 -4.4761968 -0.57449055
-5.3210974 -4.9576082 -0.57541293
-5.9622569 -5.5549693 -0.57663894
-6.7799144 -6.316772 -0.57836163
-7.8573079 -7.3205676 -0.5807122
-9.3235397 -8.6866398 -0.58290422
-11.501291 -10.715628 -0.58818334
-14.979593 -13.956323 -0.59571922
-21.46072 -19.994719 -0.60953391
-37.812866 -35.229836 -0.64432418
-1.5199642 -1.4514529 -0.56313926
-1.5857981 -1.5143193 -0.56804127
-1.6432875 -1.5692174 -0.56852543
-1.6952323 -1.6188208 -0.56583822
-1.7657778 -1.6861866 -0.56795311
-1.8401777 -1.7572329 -0.56963468
-1.9074615 -1.8214839 -0.56748611
-1.9818798 -1.8925478 -0.56583846
-2.0816813 -1.9878508 -0.56943226
-2.1667466 -2.0690818 -0.56686896
-2.2751157 -2.1725664 -0.56818146
-2.4076676 -2.2991436 -0.57275575
-2.5074499 -2.394428 -0.5668664
-2.6517029 -2.5321791 -0.56823242
-2.8062317 -2.6797426 -0.56836486
-2.9836416 -2.8491559 -0.56931555
-3.1859553 -3.0423503 -0.57065177
-3.4041824 -3.2507412 -0.57000476
-3.679816 -3.5139506 -0.57329178
-3.969522 -3.7905984 -0.57227224
-4.3190861 -4.1244059 -0.57253635
-4.7417259 -4.5279956 -0.57361203
-5.2526727 -5.0159121 -0.57463992
-5.87849 -5.6135206 -0.57516986
-6.6967063 -6.3948569 -0.57792783
-7.7609725 -7.4111519 -0.5802837
-9.2309904 -8.8149099 -0.58385056
-11.360537 -10.848468 -0.58776265
-14.800985 -14.13384 -0.59548283
-21.186501 -20.231533 -0.60876518
-37.300854 -35.619541 -0.64301431
-1.5120795 -1.4798939 -0.56691718
-1.5586367 -1.5254601 -0.56498832
-1.6195087 -1.5850365 -0.5669989
-1.6816734 -1.645878 -0.56802481
-1.7442795 -1.7071514 -0.56774729
-1.8129524 -1.7743627 -0.56791806
-1.8885165 -1.8483182 -0.56856853
-1.9690323 -1.9271202 -0.56889296
-2.0456994 -2.0021553 -0.56628132
-2.142457 -2.0968535 -0.56721705
-2.2528865 -2.2049325 -0.56935805
-2.3668141 -2.3164351 -0.5697701
-2.4906983 -2.4376824 -0.56981277
-2.6183887 -2.5626547 -0.5678032
-2.778399 -2.719259 -0.56945693
-2.95046 -2.8876576 -0.56971639
-3.1284533 -3.0618622 -0.56705314
-3.3703408 -3.2986009 -0.57108665
-3.6164763 -3.5394974 -0.57016146
-3.9239216 -3.8403986 -0.57246292
-4.2730918 -4.1821361 -0.57321292
-4.6791215 -4.5795236 -0.57280749
-5.1921391 -5.0816212 -0.57481009
-5.8167949 -5.6929808 -0.57593924
-6.6159711 -6.4751458 -0.577788
-7.6698928 -7.5066342 -0.58033139
-9.1107693 -8.9168406 -0.58313757
-11.227378 -10.988396 -0.58781964
-14.598493 -14.287755 -0.59435958
-20.915489 -20.470291 -0.60816473
-36.801857 -36.018509 -0.64199871
-1.4961272 -1.5007393 -0.5678122
-1.5523784 -1.557164 -0.56961751
-1.5879712 -1.5928664 -0.56277227
-1.6583343 -1.6634463 -0.5670076
-1.7255763 -1.7308956 -0.56854433
-1.7947791 -1.8003118 -0.56911683
-1.8589902 -1.8647208 -0.56653965
-1.9463818 -1.9523818 -0.56924194
-2.0306554 -2.0369153 -0.56900728
-2.1135056 -2.1200209 -0.56641102
-2.2297082 -2.2365816 -0.57040763
-2.3294244 -2.3366053 -0.56764299
-2.4636602 -2.4712548 -0.57053596
-2.5947273 -2.602726 -0.56956935
-2.7489238 -2.7573979 -0.57032204
-2.9120152 -2.9209921 -0.56918544
-3.1153696 -3.1249733 -0.57160342
-3.323734 -3.3339801 -0.57009292
-3.580874 -3.5919127 -0.57146865
-3.8809116 -3.8928752 -0.5731284
-4.2173729 -4.2303734 -0.57267326
-4.6387534 -4.6530533 -0.5748266
-5.1175489 -5.1333246 -0.57349706
-5.7505827 -5.7683101 -0.57636273
-6.5300989 -6.5502291 -0.57727909
-7.5790472 -7.6024108 -0.58048707
-9.0036068 -9.0313616 -0.58334255
-11.074506 -11.108645 -0.58692318
-14.421396 -14.465854 -0.59434652
-20.642694 -20.706329 -0.60759014
-36.299908 -36.411808 -0.64100456
-1.4770467 -1.5184921 -0.56761426
-1.5251582 -1.5679536 -0.56666124
-1.5740051 -1.6181711 -0.56483173
-1.6355096 -1.6814014 -0.56622988
-1.7018541 -1.7496076 -0.56777388
-1.7668325 -1.8164091 -0.56729466
-1.8322961 -1.8837097 -0.56542075
-1.9125892 -1.9662558 -0.56638724
-2.0119529 -2.0684075 -0.57085037
-2.0917966 -2.1504917 -0.56763697
-2.1929095 -2.2544415 -0.56804258
-2.3020241 -2.3666182 -0.5680145
-2.4264758 -2.4945619 -0.56898534
-2.5582991 -2.630084 -0.56862909
-2.7148151 -2.7909918 -0.57032257
-2.8727319 -2.9533398 -0.56856245
-3.0601761 -3.1460435 -0.56853157
-3.2765968 -3.3685369 -0.56906945
-3.5386224 -3.6379149 -0.57182151
-3.8240337 -3.9313347 -0.57182455
-4.1704226 -4.2874432 -0.57341343
-4.5629878 -4.6910233 -0.57254249
-5.0604372 -5.2024312 -0.57422239
-5.6738386 -5.8330445 -0.57581627
-6.4445739 -6.6254063 -0.57687688
-7.4738259 -7.6835384 -0.5796206
-8.8803387 -9.1295185 -0.58258539
-10.94338 -11.250447 -0.58726114
-14.235206 -14.63464 -0.59404457
-20.361225 -20.932554 -0.60683572
-35.77562 -36.779472 -0.6396842
-1.4535887 -1.5316118 -0.56579435
-1.5071605 -1.5880591 -0.56718677
-1.5601686 -1.6439126 -0.56707758
-1.6155463 -1.7022626 -0.56652242
-1.688767 -1.7794135 -0.57066441
-1.7480098 -1.8418362 -0.56847996
-1.8087082 -1.9057927 -0.56533068
-1.8985531 -2.0004601 -0.56947213
-1.9733671 -2.0792899 -0.56711394
-2.0638545 -2.1746342 -0.56726789
-2.1648626 -2.281064 -0.5680002
-2.2735493 -2.3955846 -0.56821394
-2.3982406 -2.526969 -0.56960768
-2.5243201 -2.659816 -0.56830329
-2.6839421 -2.8280058 -0.57109898
-2.8523335 -3.0054357 -0.57179624
-3.0330038 -3.1958039 -0.570741
-3.2435884 -3.4176919 -0.5705924
-3.4880526 -3.6752779 -0.5709095
-3.7770529 -3.9797904 -0.57207388
-4.1119971 -4.3327136 -0.57266229
-4.5038867 -4.7456379 -0.57240558
-4.9898372 -5.2576723 -0.57350397
-5.5984678 -5.898972 -0.57548511
-6.3790097 -6.7214103 -0.57836258
-7.3815298 -7.7777419 -0.57983601
-8.7589893 -9.2291374 -0.58202547
-10.797079 -11.376625 -0.58687288
-14.040377 -14.79401 -0.59346074
-20.083382 -21.161381 -0.60626435
-35.259251 -37.151833 -0.6385715
-1.4421195 -1.5574389 -0.56874132
-1.4833704 -1.6019884 -0.56560433
-1.5376427 -1.6606005 -0.5662691
-1.6038746 -1.7321287 -0.56985533
-1.6522937 -1.7844197 -0.56571126
-1.7211471 -1.858779 -0.56713414
-1.8001826 -1.9441345 -0.57009488
-1.8697633 -2.0192792 -0.56824142
-1.9547226 -2.1110325 -0.5691728
-2.0433993 -2.2068002 -0.56906116
-2.134438 -2.3051188 -0.56741166
-2.2462716 -2.4258952 -0.56880885
-2.3740017 -2.5638394 -0.57129532
-2.4844229 -2.6830902 -0.566706
-2.6358814 -2.8466601 -0.56827778
-2.8069775 -3.0314381 -0.57013339
-2.9966793 -3.2363093 -0.57135087
-3.199177 -3.4549999 -0.57021028
-3.4430945 -3.7184222 -0.57099158
-3.7233825 -4.0211234 -0.57139081
-4.056603 -4.38099 -0.57240689
-4.4372816 -4.7921095 -0.5713864
-4.9338923 -5.3284321 -0.57456118
-5.5268459 -5.968801 -0.57562387
-6.2909293 -6.7939849 -0.57790744
-7.2693524 -7.8506479 -0.57856357
-8.6515732 -9.3433971 -0.58247811
-10.638119 -11.488798 -0.58586711
-13.84971 -14.957205 -0.59313077
-19.795391 -21.378332 -0.60546046
-34.743759 -37.522053 -0.63754344
-1.415696 -1.5671215 -0.56587744
-1.4600097 -1.6161751 -0.56423193
-1.5307465 -1.6944779 -0.57135957
-1.581087 -1.7502029 -0.56936234
-1.6282352 -1.8023943 -0.56501961
-1.6980877 -1.8797183 -0.56710923
-1.7654141 -1.9542462 -0.5666514
-1.8490516 -2.0468295 -0.5695529
-1.9204487 -2.1258636 -0.56676167
-2.0215962 -2.2378299 -0.57060939
-2.0959458 -2.320132 -0.56472045
-2.2146487 -2.4515316 -0.56839168
-2.3251462 -2.573848 -0.56711179
-2.4652474 -2.7289348 -0.56994319
-2.5956738 -2.873312 -0.56718367
-2.7726645 -3.0692339 -0.57078648
-2.946907 -3.2621136 -0.56946605
-3.1616285 -3.4998021 -0.571145
-3.3922367 -3.7550766 -0.57017177
-3.6745212 -4.067555 -0.57152492
-4.0010343 -4.4289927 -0.57220733
-4.3800697 -4.8485703 -0.57165337
-4.8609385 -5.3808732 -0.57372725
-5.4472289 -6.0298748 -0.57501066
-6.1971869 -6.8600497 -0.57700139
-7.1859674 -7.9545918 -0.57966805
-8.5331516 -9.4458733 -0.58228123
-10.491879 -11.614109 -0.58563405
-13.659209 -15.120224 -0.59289002
-19.528627 -21.617445 -0.60538578
-34.225819 -37.886677 -0.63653994
-1.4004909 -1.5891421 -0.56756759
-1.4517419 -1.6472968 -0.56882185
-1.499579 -1.7015775 -0.56749296
-1.5489177 -1.7575624 -0.56551772
-1.6122324 -1.8294059 -0.56722969
-1.6756041 -1.901314 -0.56736553
-1.7417015 -1.976315 -0.56679767
-1.8090699 -2.052758 -0.5649699
-1.8981149 -2.1537979 -0.56794357
-1.982764 -2.2498496 -0.56741452
-2.087348 -2.3685212 -0.57020795
-2.1780419 -2.471432 -0.56675327
-2.303489 -2.6137774 -0.56962556
-2.4322004 -2.7598264 -0.57010567
-2.5631084 -2.9083683 -0.56783938
-2.7321486 -3.100179 -0.57025039
-2.9081409 -3.2998779 -0.56977296
-3.1151848 -3.5348115 -0.57056391
-3.3418305 -3.7919872 -0.56949371
-3.6308715 -4.1199632 -0.57257211
-3.9448566 -4.476243 -0.57200164
-4.3272099 -4.9101009 -0.57259113
-4.7985067 -5.4448829 -0.5742175
-5.3816614 -6.1065903 -0.5759722
-6.103828 -6.9260354 -0.576195
-7.0807896 -8.0345974 -0.57910961
-8.4019947 -9.5337744 -0.58128709
-10.353621 -11.748291 -0.58593613
-13.46325 -15.276798 -0.59249324
-19.23913 -21.830709 -0.60468733
-33.684521 -38.221947 -0.63516569
-1.3762378 -1.6008817 -0.56567359
-1.4273045 -1.6602842 -0.56720316
-1.4855884 -1.7280816 -0.57019687
-1.5233334 -1.7719879 -0.56408954
-1.5996622 -1.8607758 -0.57081413
-1.6547043 -1.9248024 -0.56826001
-1.7181566 -1.998612 -0.56709027
-1.7931638 -2.0858626 -0.56796956
-1.8748662 -2.1809015 -0.56896842
-1.9587356 -2.2784607 -0.56851298
-2.061506 -2.3980064 -0.5711605
-2.1510932 -2.5022171 -0.56770426
-2.2681906 -2.6384282 -0.56887656
-2.3895829 -2.7796357 -0.5680849
-2.5372839 -2.9514458 -0.57011533
-2.6942115 -3.1339889 -0.57033247
-2.8727436 -3.3416629 -0.57084525
-3.0689082 -3.5698476 -0.57008493
-3.313688 -3.8545828 -0.57273173
-3.5775027 -4.1614599 -0.5721823
-3.8918037 -4.5270648 -0.57233739
-4.2565627 -4.9513636 -0.5712561
-4.7310643 -5.5033183 -0.57420152
-5.2915835 -6.1553311 -0.5743888
-6.0238237 -7.0070953 -0.5767327
-6.9825616 -8.1223288 -0.57920057
-8.2830515 -9.6350975 -0.58121091
-10.201402 -11.866581 -0.58553517
-13.262338 -15.427155 -0.59195507
-18.947914 -22.040791 -0.60400707
-33.151516 -38.562851 -0.63400871
-1.3638963 -1.6265625 -0.56877887
-1.4073635 -1.678401 -0.56743741
-1.4516898 -1.7312639 -0.56531411
-1.5193387 -1.8119409 -0.57081759
-1.57064 -1.873122 -0.56863391
-1.6298847 -1.9437764 -0.56790179
-1.6955756 -2.0221183 -0.56780118
-1.7692065 -2.1099296 -0.56855607
-1.8343574 -2.1876276 -0.56479579
-1.9256753 -2.2965319 -0.56707084
-2.0161278 -2.4044044 -0.56673664
-2.1237907 -2.5328014 -0.56867522
-2.2324853 -2.6624289 -0.56808949
-2.3652213 -2.8207281 -0.57049602
-2.491679 -2.9715395 -0.56803542
-2.6565573 -3.1681709 -0.57056516
-2.8311989 -3.376446 -0.57079685
-3.0224423 -3.6045201 -0.56964374
-3.2505357 -3.8765409 -0.57001233
-3.5195217 -4.1973295 -0.57112056
-3.8323832 -4.5704432 -0.57182056
-4.2173343 -5.02953 -0.57424796
-4.6567345 -5.5535526 -0.57342499
-5.2202096 -6.2255449 -0.57490748
-5.9247851 -7.0658112 -0.57552558
-6.8687882 -8.1916151 -0.57807481
-8.1528101 -9.7229214 -0.58041739
-10.042997 -11.977131 -0.58485228
-13.065892 -15.582191 -0.59169436
-18.654682 -22.247299 -0.60333449
-32.627209 -38.910725 -0.63308412
-1.3414998 -1.6404043 -0.56780797
-1.3852364 -1.693886 -0.56687105
-1.4277211 -1.7458371 -0.5642975
-1.4826076 -1.812953 -0.56535041
-1.5449423 -1.8891767 -0.5676977
-1.6053078 -1.9629924 -0.56770593
-1.6725808 -2.0452549 -0.56847972
-1.7349932 -2.1215737 -0.56590211
-1.820428 -2.2260444 -0.56889194
-1.9004649 -2.3239145 -0.56801897
-1.9912742 -2.4349575 -0.56812388
-2.0969014 -2.5641201 -0.5698747
-2.1982374 -2.6880348 -0.56774259
-2.3222878 -2.8397255 -0.56851983
-2.452661 -2.9991477 -0.56750488
-2.6168108 -3.1998723 -0.5704363
-2.7821333 -3.4020307 -0.56929564
-2.9854083 -3.6505985 -0.5710811
-3.2049356 -3.9190395 -0.57042342
-3.4653344 -4.2374587 -0.57073963
-3.7717361 -4.6121306 -0.57119042
-4.1409516 -5.0636125 -0.57228237
-4.5939436 -5.617537 -0.57415551
-5.1385322 -6.2834678 -0.57437801
-5.845489 -7.147944 -0.57631719
-6.7608767 -8.267293 -0.57750487
-8.0295868 -9.8186893 -0.58019638
-9.8990488 -12.104692 -0.58509314
-12.8491 -15.712056 -0.59058142
-18.353724 -22.443186 -0.60248077
-32.079403 -39.227135 -0.63176638
-1.3153766 -1.6494366 -0.56529295
-1.3643365 -1.7108305 -0.5668844
-1.4157422 -1.7752914 -0.56814802
-1.4618877 -1.8331563 -0.56600219
-1.5250927 -1.9124131 -0.56900185
-1.5905018 -1.9944339 -0.57109964
-1.6388184 -2.0550213 -0.56555039
-1.7143608 -2.1497488 -0.56775159
-1.7905711 -2.2453139 -0.56814665
-1.8778756 -2.3547907 -0.5698787
-1.9567236 -2.4536633 -0.56683159
-2.0630534 -2.5869973 -0.56927806
-2.1691425 -2.7200291 -0.56882358
-2.2875903 -2.8685586 -0.56861776
-2.4148202 -3.0281005 -0.56732184
-2.5742626 -3.2280357 -0.56977093
-2.7391534 -3.434803 -0.56910038
-2.9393542 -3.685848 -0.57089806
-3.1633635 -3.9667478 -0.57166255
-3.4124281 -4.2790661 -0.57064891
-3.7146206 -4.6580052 -0.5711717
-4.0755181 -5.1105576 -0.57188094
-4.5274034 -5.6772065 -0.57452071
-5.0652585 -6.3516579 -0.5748744
-5.7665405 -7.2310414 -0.57725632
-6.6520295 -8.3414135 -0.57692504
-7.9110241 -9.9201488 -0.58039963
-9.7377052 -12.210744 -0.58438736
-12.658505 -15.873325 -0.59074777
-18.063175 -22.650595 -0.60204053
-31.54151 -39.551956 -0.63070363
-1.2959557 -1.6667187 -0.56571168
-1.3469733 -1.7323322 -0.56847787
-1.383585 -1.7794181 -0.56398129
-1.447304 -1.8613667 -0.56917447
-1.4858021 -1.9108787 -0.56306684
-1.5565803 -2.0019062 -0.56771553
-1.6097121 -2.0702384 -0.5642482
-1.6873865 -2.170135 -0.56761289
-1.7604089 -2.2640486 -0.56736684
-1.839141 -2.3653052 -0.56690741
-1.9365338 -2.4905612 -0.56981146
-2.0334959 -2.6152635 -0.56995261
-2.135184 -2.7460439 -0.56873029
-2.2494133 -2.8929532 -0.56792754
-2.3810885 -3.0622997 -0.56820071
-2.5387299 -3.2650414 -0.5707494
-2.6976056 -3.4693701 -0.56928867
-2.8896632 -3.7163737 -0.57007951
-3.104404 -3.9925501 -0.56983668
-3.3696845 -4.3337255 -0.57236922
-3.6557667 -4.701654 -0.57096863
-4.0191169 -5.1689558 -0.57284218
-4.4407344 -5.7111945 -0.57239103
-4.985342 -6.4116106 -0.57470876
-5.6535873 -7.2710357 -0.57485592
-6.5525084 -8.4271317 -0.57723725
-7.7913017 -10.020333 -0.58061194
-9.5762701 -12.315968 -0.58374351
-12.446442 -16.007275 -0.5899924
-17.762838 -22.844652 -0.60134751
-30.997093 -39.865128 -0.62957197
-1.2800364 -1.6886907 -0.56778401
-1.3191422 -1.7402811 -0.56572062
-1.3726838 -1.8109159 -0.56857169
-1.4106113 -1.8609518 -0.56370097
-1.4715215 -1.9413078 -0.56665856
-1.5307248 -2.0194118 -0.56729919
-1.5863575 -2.0928054 -0.56503958
-1.6675069 -2.199862 -0.56998205
-1.7293541 -2.2814538 -0.56635684
-1.8145305 -2.3938231 -0.56835181
-1.8998283 -2.5063524 -0.56803656
-1.9932265 -2.6295681 -0.56768572
-2.1026905 -2.7739787 -0.56911784
-2.2143989 -2.92135 -0.5681138
-2.3539295 -3.1054263 -0.57078886
-2.4860542 -3.279732 -0.5679307
-2.646121 -3.4909008 -0.56743956
-2.8359671 -3.7413554 -0.56851929
-3.0536666 -4.0285559 -0.56957334
-3.3007169 -4.3544774 -0.56970644
-3.5993099 -4.7483969 -0.57122713
-3.95453 -5.2170215 -0.57273674
-4.3737917 -5.770134 -0.57286453
-4.8928285 -6.454874 -0.57315052
-5.5710392 -7.3496051 -0.57560813
-6.4525862 -8.5125875 -0.57761228
-7.6622519 -10.108441 -0.58021402
-9.416379 -12.422577 -0.58326441
-12.246231 -16.155867 -0.58987433
-17.46488 -23.040579 -0.60080647
-30.442436 -40.161247 -0.62828922
-1.2613047 -1.7071826 -0.56874377
-1.3026413 -1.7631319 -0.56789887
-1.3459665 -1.8217727 -0.56674111
-1.3928827 -1.8852741 -0.56583756
-1.4466414 -1.9580368 -0.56630647
-1.4997443 -2.0299118 -0.56502551
-1.5712758 -2.1267302 -0.56893945
-1.6318166 -2.2086723 -0.56702292
-1.7090923 -2.3132653 -0.56899381
-1.7866126 -2.4181895 -0.568878
-1.8641042 -2.5230749 -0.5665887
-1.9624752 -2.6562204 -0.568187
-2.0555892 -2.7822506 -0.56558639
-2.1830335 -2.9547474 -0.56934524
-2.3014433 -3.1150155 -0.567307
-2.4574034 -3.3261085 -0.57068574
-2.6138127 -3.5378091 -0.56979692
-2.7960722 -3.7844987 -0.56980753
-3.0046663 -4.0668316 -0.56971812
-3.2544122 -4.4048643 -0.57101983
-3.5448055 -4.7979131 -0.57189691
-3.8901696 -5.2653651 -0.5727492
-4.3036466 -5.8250079 -0.57301527
-4.8192954 -6.5229416 -0.57388914
-5.4730968 -7.4078655 -0.57485676
-6.3455405 -8.5887232 -0.5774402
-7.5301213 -10.192059 -0.57965493
-9.2693443 -12.546106 -0.58366865
-12.032735 -16.286369 -0.58919245
-17.160669 -23.227055 -0.6001212
-29.888422 -40.454136 -0.6270743
-1.2267984 -1.7039223 -0.56258941
-1.288721 -1.7899277 -0.57138234
-1.3255965 -1.8411448 -0.56765383
-1.3678674 -1.8998555 -0.56512296
-1.4314933 -1.9882268 -0.56990397
-1.4767871 -2.051136 -0.56583589
-1.5283248 -2.1227179 -0.56279606
-1.6080962 -2.2335138 -0.56828094
-1.6731783 -2.3239074 -0.56650794
-1.7578607 -2.4415243 -0.56923938
-1.842211 -2.5586801 -0.56945431
-1.9337335 -2.6857972 -0.56938428
-2.0298626 -2.8193128 -0.56800359
-2.1487076 -2.9843788 -0.56992066
-2.2656407 -3.1467893 -0.56797689
-2.4059591 -3.3416798 -0.56823838
-2.5678101 -3.5664775 -0.56928581
-2.7452779 -3.8129659 -0.56896806
-2.9618621 -4.1137834 -0.5711503
-3.1908352 -4.4318085 -0.56938338
-3.4831069 -4.8377495 -0.57149696
-3.8207018 -5.3066416 -0.57208544
-4.2266521 -5.8704734 -0.57233185
-4.7420335 -6.5862956 -0.5742895
-5.3855534 -7.4800916 -0.57527912
-6.2273078 -8.6492195 -0.5763157
-7.3997726 -10.277678 -0.57930559
-9.1077919 -12.649976 -0.58324653
-11.825521 -16.424681 -0.58889097
-16.852375 -23.406567 -0.59935981
-29.34024 -40.751186 -0.62603909
-1.2216479 -1.741534 -0.57000482
-1.2575015 -1.7926456 -0.56727099
-1.296941 -1.848869 -0.56507564
-1.3517452 -1.9269958 -0.56820881
-1.3988268 -1.9941134 -0.56661814
-1.4544109 -2.0733519 -0.56698799
-1.5164368 -2.1617737 -0.56816417
-1.587132 -2.2625539 -0.57066101
-1.6543678 -2.3584027 -0.56991482
-1.7204294 -2.4525776 -0.5668413
-1.8047774 -2.5728209 -0.56761944
-1.8953941 -2.7020004 -0.56783545
-1.9987037 -2.8492746 -0.56904542
-2.1032097 -2.9982543 -0.56758875
-2.23541 -3.1867142 -0.57017863
-2.361202 -3.3660381 -0.56740034
-2.5169208 -3.5880249 -0.56774211
-2.7044089 -3.8553004 -0.57027984
-2.9122751 -4.1516266 -0.57138926
-3.1425929 -4.479959 -0.57056177
-3.4183149 -4.8730173 -0.57065457
-3.7528565 -5.3499269 -0.57173371
-4.1581478 -5.9276948 -0.57288235
-4.6582847 -6.6406708 -0.57399279
-5.2845745 -7.5334849 -0.57434446
-6.1195779 -8.7238331 -0.57622981
-7.2650895 -10.356831 -0.57868791
-8.9487209 -12.75695 -0.58306122
-11.609714 -16.550358 -0.58823413
-16.544695 -23.585476 -0.5986864
-28.7759 -41.021809 -0.62471342
-1.1835033 -1.7320715 -0.56210214
-1.2299984 -1.8001176 -0.5648067
-1.2734474 -1.8637059 -0.56478173
-1.3289616 -1.9449515 -0.56864184
-1.3741403 -2.011071 -0.56659245
-1.4298694 -2.0926313 -0.56740916
-1.4842129 -2.1721637 -0.56605542
-1.549016 -2.267004 -0.56693643
-1.6208314 -2.3721066 -0.56836718
-1.6921891 -2.4765394 -0.56752729
-1.7706538 -2.5913734 -0.56686616
-1.8653715 -2.7299938 -0.56885499
-1.9663936 -2.8778412 -0.56987846
-2.0669637 -3.0250266 -0.56780249
-2.1884282 -3.2027912 -0.56819743
-2.3264759 -3.4048257 -0.56907338
-2.4862194 -3.6386127 -0.57086617
-2.644021 -3.8695571 -0.56753659
-2.8489826 -4.1695209 -0.56898755
-3.0814757 -4.5097775 -0.56949055
-3.35198 -4.9056635 -0.56960779
-3.6832047 -5.3904147 -0.5711773
-4.0820537 -5.9741354 -0.57247627
-4.5726905 -6.6921887 -0.5735423
-5.2009897 -7.611712 -0.57538909
-6.0208707 -8.8116179 -0.57709438
-7.1379552 -10.446485 -0.57874936
-8.7785854 -12.847567 -0.5822252
-11.397845 -16.680885 -0.58784759
-16.231956 -23.755669 -0.59789485
-28.214649 -41.292484 -0.62350482
-1.173528 -1.7636414 -0.56762147
-1.2089584 -1.816888 -0.5653615
-1.2514966 -1.8808167 -0.56526083
-1.2993009 -1.9526597 -0.56618154
-1.351792 -2.0315461 -0.56763506
-1.4037091 -2.10957 -0.56727898
-1.4614396 -2.1963305 -0.56762725
-1.5177687 -2.2809849 -0.5657227
-1.5868657 -2.3848276 -0.566697
-1.6610652 -2.4963388 -0.56734097
-1.7404554 -2.6156504 -0.56745231
-1.8225855 -2.7390802 -0.56603557
-1.9262364 -2.8948522 -0.56851375
-2.0272486 -3.046659 -0.56714106
-2.1492109 -3.2299507 -0.56828427
-2.2848816 -3.4338439 -0.56918442
-2.4345334 -3.6587484 -0.56928551
-2.5979352 -3.9043176 -0.5679065
-2.8067689 -4.2181644 -0.5708726
-3.0292063 -4.5524549 -0.57013303
-3.2972779 -4.9553275 -0.57062346
-3.6149855 -5.4327955 -0.57091475
-4.0108309 -6.0276933 -0.57283914
-4.4913011 -6.7497706 -0.57370073
-5.1019192 -7.6674399 -0.57481593
-5.9047337 -8.8739529 -0.57637805
-7.003427 -10.525129 -0.57829165
-8.6194906 -12.953837 -0.58219391
-11.181563 -16.804258 -0.58730549
-15.928916 -23.938837 -0.59753001
-27.644606 -41.545807 -0.62215006
-1.1652548 -1.7987776 -0.5742749
-1.1901605 -1.8372239 -0.56709266
-1.2331659 -1.9036102 -0.56751102
-1.2676681 -1.9568707 -0.56284022
-1.3286058 -2.0509388 -0.5684458
-1.3819667 -2.1333108 -0.56905043
-1.43032 -2.2079527 -0.56604266
-1.4957266 -2.3089194 -0.56804639
-1.5568181 -2.4032249 -0.56647694
-1.6297356 -2.5157859 -0.56716341
-1.7029027 -2.6287324 -0.56570482
-1.8013771 -2.780745 -0.57002521
-1.8870455 -2.9129896 -0.5674758
-1.9914117 -3.0740974 -0.56764746
-2.1074135 -3.2531669 -0.56776679
-2.2449348 -3.4654551 -0.5698055
-2.3907554 -3.6905553 -0.56961727
-2.5623794 -3.955487 -0.57072324
-2.7495315 -4.24439 -0.56980318
-2.9714756 -4.5869999 -0.56984025
-3.2391317 -5.0001745 -0.57115805
-3.5540059 -5.486239 -0.57189518
-3.9281707 -6.0638285 -0.5716396
-4.4011073 -6.7938905 -0.57280761
-5.0068216 -7.7289176 -0.57476586
-5.7963643 -8.9477167 -0.57649612
-6.8764091 -10.614958 -0.57853764
-8.4547634 -13.051427 -0.58186346
-10.966427 -16.928625 -0.58689481
-15.61533 -24.105032 -0.59684044
-27.090336 -41.818741 -0.62120181
-1.1247146 -1.783888 -0.56506324
-1.1693145 -1.854627 -0.56798333
-1.2050579 -1.9113188 -0.56534874
-1.2424451 -1.9706181 -0.5623576
-1.2922411 -2.0495985 -0.5636276
-1.3458288 -2.1345928 -0.56493533
-1.4037327 -2.226433 -0.56631243
-1.4519633 -2.3029308 -0.56213808
-1.5246131 -2.4181592 -0.56553537
-1.6025827 -2.5418253 -0.56854814
-1.676662 -2.6593208 -0.56780773
-1.7641425 -2.7980721 -0.56908727
-1.8529437 -2.9389179 -0.56804526
-1.951508 -3.0952489 -0.56707925
-2.0705631 -3.2840798 -0.56867534
-2.1926711 -3.4777529 -0.5673514
-2.3370869 -3.7068081 -0.56764734
-2.5037277 -3.9711137 -0.56849277
-2.6935763 -4.2722287 -0.56905097
-2.9185524 -4.6290593 -0.57056379
-3.1761568 -5.0376401 -0.57093328
-3.4803636 -5.5201373 -0.57092446
-3.8525064 -6.1103854 -0.57151949
-4.3173747 -6.8477044 -0.57282549
-4.8997779 -7.7714419 -0.57340431
-5.6798096 -9.0086355 -0.57587767
-6.7427821 -10.694595 -0.57831544
-8.2806282 -13.133743 -0.5809499
-10.758678 -17.064131 -0.58696181
-15.305782 -24.276203 -0.59637356
-26.504333 -42.03801 -0.61957085
-1.1017679 -1.7960695 -0.56458771
-1.1513063 -1.8768256 -0.57040292
-1.1844132 -1.9307954 -0.56675899
-1.2253036 -1.9974538 -0.56567329
-1.2734745 -2.0759804 -0.56653345
-1.3198479 -2.1515772 -0.56509244
-1.373781 -2.2394972 -0.56529593
-1.4280148 -2.3279076 -0.56390595
-1.4895605 -2.4282377 -0.56356615
-1.5675991 -2.5554538 -0.56724209
-1.6397508 -2.6730735 -0.56639618
-1.7276453 -2.8163564 -0.56844234
-1.8157616 -2.960001 -0.56776184
-1.9107374 -3.1148279 -0.56631893
-2.0287354 -3.3071849 -0.56831354
-2.1544123 -3.5120595 -0.56858331
-2.2975855 -3.7454562 -0.56919634
-2.4606397 -4.0112624 -0.56986576
-2.640748 -4.3048697 -0.5690304
-2.860594 -4.6632562 -0.57040012
-3.1115501 -5.0723572 -0.57048851
-3.4121568 -5.5623975 -0.57091266
-3.7745693 -6.1531916 -0.57113892
-4.2305207 -6.8964701 -0.57250994
-4.8023782 -7.8286953 -0.57322824
-5.5631866 -9.068943 -0.57531637
-6.6038599 -10.765417 -0.57771033
-8.1146898 -13.228328 -0.58067614
-10.536833 -17.176834 -0.58633745
-14.981135 -24.421806 -0.59538001
-25.947247 -42.298435 -0.61865997
-1.0843081 -1.8173701 -0.56704938
-1.1221589 -1.8808105 -0.56737751
-1.158965 -1.9424999 -0.56596863
-1.2022865 -2.0151093 -0.56644374
-1.250104 -2.0952547 -0.56755549
-1.3015141 -2.1814215 -0.56868446
-1.354422 -2.2700982 -0.56877327
-1.4099165 -2.3631108 -0.56819087
-1.4650344 -2.4554918 -0.56566775
-1.5358108 -2.5741177 -0.56715012
-1.6151036 -2.7070174 -0.56933737
-1.6935909 -2.8385673 -0.56867898
-1.7746638 -2.9744506 -0.56630492
-1.8739223 -3.1408143 -0.56681126
-1.9877659 -3.3316236 -0.56826991
-2.1155536 -3.545804 -0.56979179
-2.250859 -3.7725844 -0.5690698
-2.4057086 -4.0321221 -0.56858367
-2.5873849 -4.3366237 -0.56897926
-2.7957134 -4.6857958 -0.56890911
-3.0517712 -5.1149645 -0.57101679
-3.3473203 -5.6103239 -0.5715639
-3.709511 -6.2173791 -0.57281959
-4.1533661 -6.961309 -0.57360947
-4.7108521 -7.8956909 -0.5738489
-5.4481268 -9.1314106 -0.57498586
-6.4658608 -10.837198 -0.57725209
-7.9456758 -13.317464 -0.58025616
-10.306041 -17.273586 -0.58526999
-14.664623 -24.578852 -0.59476757
-25.363012 -42.51004 -0.61714673
-1.0607963 -1.8286957 -0.56647038
-1.0986501 -1.8939514 -0.56722343
-1.1284313 -1.945291 -0.56269652
-1.177703 -2.03023 -0.56658053
-1.2235239 -2.10922 -0.56722015
-1.2685964 -2.1869202 -0.56600845
-1.3230515 -2.2807946 -0.56733418
-1.3823107 -2.382951 -0.56883138
-1.4378166 -2.4786372 -0.56688392
-1.5064114 -2.5968871 -0.56804264
-1.5709028 -2.7080631 -0.56545192
-1.6588502 -2.8596745 -0.5687781
-1.7325482 -2.9867218 -0.56454241
-1.8419539 -3.1753252 -0.56890881
-1.9425287 -3.3487051 -0.56706637
-2.0702555 -3.568892 -0.56936812
-2.2072356 -3.8050303 -0.5698269
-2.3500504 -4.0512276 -0.56716001
-2.5327179 -4.3661261 -0.568721
-2.7347782 -4.7144556 -0.56826293
-2.987036 -5.1493201 -0.57070863
-3.2703433 -5.6377106 -0.57021403
-3.6348739 -6.2661214 -0.57314909
-4.0613127 -7.001255 -0.57274264
-4.6118827 -7.9503765 -0.57365841
-5.3360281 -9.1987238 -0.57504934
-6.3309321 -10.913828 -0.57714355
-7.7823343 -13.415885 -0.58033103
-10.088533 -17.391518 -0.58501828
-14.342164 -24.724306 -0.59397483
-24.789249 -42.733929 -0.61592519
-1.0334226 -1.8330709 -0.56384665
-1.0734576 -1.9040846 -0.56626219
-1.1127573 -1.9737937 -0.56694043
-1.1557471 -2.0500484 -0.5681023
-1.1986699 -2.1261842 -0.56777555
-1.2441951 -2.2069364 -0.56718642
-1.294479 -2.2961292 -0.5671463
-1.3495129 -2.3937476 -0.56740457
-1.417381 -2.5141311 -0.57097238
-1.4726272 -2.6121259 -0.56737214
-1.5464903 -2.7431433 -0.56876308
-1.6096535 -2.8551812 -0.563905
-1.7049127 -3.0241508 -0.56761163
-1.8015789 -3.195616 -0.56853223
-1.8984231 -3.3673968 -0.56623584
-2.0277584 -3.5968099 -0.56980103
-2.1549349 -3.8223939 -0.568416
-2.3079252 -4.0937662 -0.56909925
-2.4807768 -4.4003682 -0.56916475
-2.6816244 -4.7566285 -0.56932867
-2.9239788 -5.1865139 -0.57080275
-3.2067053 -5.6880102 -0.57127011
-3.5464556 -6.2906547 -0.57136106
-3.9685373 -7.0393376 -0.57182276
-4.5090694 -7.9981256 -0.57305974
-5.2284513 -9.2741556 -0.57570225
-6.1950002 -10.988607 -0.57702601
-7.6082659 -13.495438 -0.57968158
-9.867362 -17.502592 -0.584629
-14.019553 -24.867693 -0.59323317
-24.220333 -42.961697 -0.614869
-1.0133057 -1.8502032 -0.5652411
-1.052906 -1.9225098 -0.56784844
-1.0802311 -1.9724028 -0.56268305
-1.13131 -2.0656683 -0.56853282
-1.1671127 -2.1310406 -0.56519729
-1.2138343 -2.2163501 -0.565727
-1.2611864 -2.3028104 -0.56492341
-1.32611 -2.4213552 -0.57004023
-1.377092 -2.5144439 -0.56715488
-1.442273 -2.6334581 -0.56811059
-1.5070399 -2.7517166 -0.56665558
-1.5737126 -2.8734548 -0.56364959
-1.667312 -3.0443587 -0.56751347
-1.7531247 -3.2010448 -0.56562006
-1.8581674 -3.3928432 -0.56662971
-1.9735579 -3.6035357 -0.56697917
-2.1077473 -3.8485529 -0.56840891
-2.2578199 -4.1225719 -0.56920117
-2.4315896 -4.4398594 -0.57036221
-2.6299558 -4.8020577 -0.57085228
-2.8521264 -5.2077212 -0.56923395
-3.1297386 -5.7146158 -0.57003391
-3.4662659 -6.3290834 -0.57093698
-3.8802285 -7.0849414 -0.57160825
-4.4117589 -8.0554667 -0.57323796
-5.1075592 -9.3259344 -0.57497436
-6.0481391 -11.043346 -0.57595164
-7.4430666 -13.590357 -0.57978356
-9.6434269 -17.608013 -0.58414531
-13.702957 -25.020344 -0.59281033
-23.643713 -43.171253 -0.61366081
-0.98931557 -1.8603332 -0.56457669
-1.0241359 -1.9258103 -0.56506097
-1.0660902 -2.0047021 -0.56811458
-1.0968255 -2.0624974 -0.56390542
-1.1444535 -2.1520584 -0.5669964
-1.187845 -2.2336528 -0.56637245
-1.2401664 -2.3320391 -0.56830972
-1.283924 -2.4143219 -0.56462497
-1.3429099 -2.5252407 -0.56582278
-1.4094839 -2.6504281 -0.56798959
-1.4714621 -2.7669735 -0.56602854
-1.5489628 -2.9127076 -0.56757021
-1.6254222 -3.0564837 -0.56600511
-1.720367 -3.2350202 -0.56784254
-1.815807 -3.4144878 -0.56647277
-1.9338683 -3.6364932 -0.56838024
-2.0561626 -3.8664582 -0.5672763
-2.2080481 -4.1520677 -0.56948179
-2.365608 -4.4483471 -0.56767279
-2.5624146 -4.8184271 -0.56900954
-2.7894788 -5.2454038 -0.56956059
-3.0627685 -5.759305 -0.57069182
-3.3917642 -6.3779564 -0.57154018
-3.7962012 -7.1384697 -0.57211751
-4.3071418 -8.0992546 -0.57254177
-4.9833293 -9.3707743 -0.57391751
-5.9257588 -11.142941 -0.57730198
-7.2624698 -13.656526 -0.57875288
-9.4135656 -17.7015 -0.58336252
-13.376704 -25.153881 -0.59203231
-23.061392 -43.365208 -0.61234057
-0.96557802 -1.8708282 -0.56411576
-1.0042162 -1.9456904 -0.56722796
-1.0392021 -2.0134764 -0.56693697
-1.0722027 -2.0774157 -0.56433684
-1.1202517 -2.1705117 -0.56818593
-1.1665047 -2.2601278 -0.56940544
-1.2070231 -2.3386333 -0.56625688
-1.2580293 -2.4374588 -0.56637532
-1.3120981 -2.5422182 -0.56596893
-1.3734992 -2.6611841 -0.56663239
-1.440413 -2.7908311 -0.56724286
-1.5068902 -2.919632 -0.56526613
-1.5948792 -3.0901124 -0.56855792
-1.6794164 -3.2539053 -0.56748974
-1.7754341 -3.4399416 -0.56703085
-1.8799932 -3.6425271 -0.56566733
-2.0150568 -3.9042156 -0.56913751
-2.1550598 -4.1754742 -0.56901455
-2.3219562 -4.4988399 -0.57042962
-2.4970715 -4.8381295 -0.56766731
-2.7237298 -5.2772851 -0.56934261
-2.991416 -5.7959328 -0.57063323
-3.3058565 -6.4051681 -0.57029283
-3.7122934 -7.1926479 -0.57275784
-4.2097769 -8.1565332 -0.5728882
-4.8706818 -9.4370508 -0.57426512
-5.7735329 -11.186344 -0.57582897
-7.0942383 -13.745238 -0.57877177
-9.1948442 -17.815208 -0.58333963
-13.050298 -25.285233 -0.59130216
-22.483112 -43.561512 -0.61116254
-0.94834107 -1.8942215 -0.5676105
-0.97884184 -1.955144 -0.56643224
-1.0149039 -2.0271747 -0.5672372
-1.0515845 -2.1004407 -0.56703609
-1.0905206 -2.1782119 -0.56664854
-1.1340086 -2.2650752 -0.56709588
-1.1749928 -2.3469372 -0.56472641
-1.2279705 -2.452755 -0.56637818
-1.2862494 -2.5691617 -0.56840318
-1.3402077 -2.6769383 -0.56643504
-1.4032962 -2.8029516 -0.56615633
-1.4799397 -2.9560394 -0.56874865
-1.5541111 -3.1041901 -0.56758904
-1.6443417 -3.2844172 -0.56924164
-1.7399025 -3.4752908 -0.56928802
-1.843462 -3.6821411 -0.56825602
-1.9646468 -3.9241962 -0.56848556
-2.0987637 -4.1920819 -0.56771797
-2.2579613 -4.5100641 -0.5682894
-2.4406855 -4.8750381 -0.56843358
-2.6635036 -5.320097 -0.5703848
-2.9226146 -5.837646 -0.57115865
-3.2275431 -6.446712 -0.57041502
-3.6169593 -7.224534 -0.57171208
-4.1004143 -8.1901903 -0.57166755
-4.7531619 -9.4939909 -0.57413
-5.6399379 -11.265243 -0.57627684
-6.9260893 -13.834208 -0.57888824
-8.9644136 -17.905567 -0.58264494
-12.722702 -25.412394 -0.59057277
-21.905872 -43.75491 -0.61005056
-0.92387325 -1.9034609 -0.56693202
-0.95284981 -1.9631613 -0.56531775
-0.99001747 -2.0397379 -0.56730336
-1.0236069 -2.1089425 -0.56589055
-1.0590764 -2.1820207 -0.56420892
-1.0994027 -2.265105 -0.56367618
-1.1484271 -2.3661103 -0.56589919
-1.1946038 -2.4612484 -0.56490469
-1.2533299 -2.582242 -0.56784451
-1.3055499 -2.6898313 -0.56572348
-1.368974 -2.820504 -0.56625873
-1.44169 -2.9703214 -0.5680427
-1.5146427 -3.1206262 -0.567146
-1.5955536 -3.2873273 -0.56630284
-1.6858809 -3.473429 -0.56554443
-1.7992409 -3.7069855 -0.56863284
-1.9132106 -3.9417977 -0.56758446
-2.0503232 -4.2242913 -0.56862259
-2.2093487 -4.5519323 -0.5700987
-2.3779669 -4.8993373 -0.56781447
-2.5903127 -5.3368344 -0.56872135
-2.8424997 -5.8564167 -0.56953239
-3.1428528 -6.4752359 -0.56947637
-3.5266664 -7.2660093 -0.57151932
-4.0066214 -8.2548628 -0.57269949
-4.6254821 -9.5299044 -0.57281899
-5.4861555 -11.303155 -0.57472187
-6.7414856 -13.889518 -0.57769012
-8.7382421 -18.003445 -0.5822894
-12.395356 -25.538216 -0.58991003
-21.316917 -43.919357 -0.60864276
-0.90322429 -1.9206836 -0.5687108
-0.93343836 -1.9849331 -0.56823903
-0.95801723 -2.0371995 -0.56327832
-0.9968667 -2.119812 -0.56547523
-1.0283107 -2.1866767 -0.56210077
-1.0792606 -2.2950203 -0.56777519
-1.1185584 -2.3785863 -0.56555068
-1.167854 -2.483412 -0.56665283
-1.219885 -2.5940545 -0.56710064
-1.2748702 -2.7109792 -0.56683147
-1.3380276 -2.8452818 -0.56788713
-1.4064912 -2.9908681 -0.56862164
-1.4772336 -3.1413 -0.56755906
-1.5580018 -3.3130515 -0.5673911
-1.6441276 -3.496196 -0.56591684
-1.7455391 -3.7118449 -0.56604296
-1.8668689 -3.9698496 -0.56827521
-1.9989876 -4.2507963 -0.56883872
-2.142319 -4.5555873 -0.56721431
-2.3168302 -4.9266806 -0.56763875
-2.5226116 -5.3642697 -0.56829649
-2.7752485 -5.9014959 -0.57055444
-3.0654342 -6.5185685 -0.56992912
-3.4337473 -7.3017769 -0.57096839
-3.8960352 -8.2848206 -0.57141101
-4.513906 -9.5987072 -0.5735749
-5.3536067 -11.384309 -0.57545751
-6.568891 -13.968581 -0.57757533
-8.5130405 -18.102766 -0.58207202
-12.063815 -25.653399 -0.58909953
-20.727871 -44.077293 -0.60725337
-0.87492096 -1.9214994 -0.56572402
-0.89962739 -1.9757596 -0.5624035
-0.93654454 -2.0568368 -0.56548107
-0.97072601 -2.1319063 -0.56547457
-1.0126942 -2.2240767 -0.56847078
-1.0436175 -2.2919903 -0.5638082
-1.0837945 -2.3802269 -0.56272954
-1.1409855 -2.5058298 -0.56852376
-1.1894993 -2.6123757 -0.56786537
-1.2404221 -2.7242122 -0.56636631
-1.3011476 -2.8575773 -0.567105
-1.3621945 -2.9916487 -0.56554276
-1.4367509 -3.1553891 -0.5668698
-1.5123001 -3.32131 -0.56557798
-1.6108117 -3.5376608 -0.56937945
-1.7046438 -3.7437348 -0.56766665
-1.8176026 -3.9918146 -0.56817716
