# .PCD v0.7 - Point Cloud Data file format
VERSION 0.7
FIELDS x y z
SIZE 4 4 4
TYPE F F F
COUNT 1 1 1
WIDTH 1440
HEIGHT 1
VIEWPOINT 0 0 0 1 0 0 0
POINTS 1440
DATA ascii
0.26442826 2.9583678 -0.56198412
0.27727583 3.1021042 -0.56251907
0.29128093 3.25879 -0.56289399
0.30549267 3.417788 -0.56103623
0.32303795 3.6140811 -0.56233662
0.34117955 3.8170455 -0.56134301
0.36253077 4.0559182 -0.56194383
0.38719532 4.3318601 -0.56338239
0.41333455 4.6243005 -0.56222349
0.44399622 4.9673367 -0.56191492
0.48013416 5.3716407 -0.56230086
0.5224483 5.8450422 -0.56259537
0.57233995 6.4032197 -0.56244171
0.63127923 7.0626197 -0.56102031
0.70645386 7.9036579 -0.56150776
0.80012196 8.9515972 -0.56093192
0.92262405 10.322124 -0.56039029
1.0914764 12.211209 -0.5608018
1.3326517 14.909429 -0.56009471
1.7112807 19.145451 -0.55929577
2.3887813 26.725185 -0.55758184
3.9511628 44.204784 -0.55330992
0.16075897 2.0877235 -0.56105894
0.16633749 2.1601696 -0.56127143
0.17374006 2.2563045 -0.56622249
0.17936485 2.3293517 -0.56396377
0.18599965 2.4155157 -0.56355894
0.1918681 2.4917271 -0.55948734
0.20073698 2.6069045 -0.56257141
0.20938163 2.7191696 -0.5631246
0.21836531 2.8358378 -0.56268108
0.22828504 2.9646618 -0.56260401
0.23950914 3.1104255 -0.56345135
0.25120965 3.2623763 -0.56293738
0.2646431 3.4368322 -0.56358558
0.27931532 3.6273751 -0.56382811
0.29503933 3.8315775 -0.56290406
0.31258419 4.0594268 -0.56185496
0.33387479 4.3359213 -0.56333399
0.35714161 4.6380796 -0.56332225
0.38233855 4.9653039 -0.56111068
0.41459087 5.3841538 -0.56303447
0.45067215 5.8527293 -0.56275934
0.49405006 6.4160638 -0.56299371
0.54457039 7.072154 -0.56120336
0.6095174 7.9155998 -0.56178123
0.69163418 8.9820232 -0.56226307
0.796691 10.346361 -0.56113183
0.94232649 12.237681 -0.56144291
1.1502829 14.93834 -0.56060708
1.4769218 19.180292 -0.55974078
2.0624297 26.78409 -0.55823952
3.4143212 44.340656 -0.55444318
0.13486317 2.0862324 -0.56017017
0.14106488 2.1821682 -0.56649369
0.14530069 2.2476931 -0.56357044
0.15085265 2.3335776 -0.56449515
0.15519077 2.4006851 -0.55961138
0.1621504 2.5083454 -0.56272852
0.1695409 2.6226707 -0.56548113
0.17578283 2.7192287 -0.56264669
0.18333745 2.8360932 -0.56224191
0.19245802 2.9771817 -0.56448805
0.20192869 3.1236858 -0.5653609
0.21178502 3.2761557 -0.56482297
0.22225915 3.4381826 -0.56331629
0.2338049 3.6167867 -0.56169289
0.24860279 3.8456993 -0.56448692
0.26291007 4.0670223 -0.5624162
0.28085354 4.344594 -0.56396949
0.30048835 4.6483297 -0.56407577
0.32250798 4.9889569 -0.56329292
0.3475793 5.3767915 -0.56177521
0.37899679 5.8627968 -0.56323665
0.41498992 6.4195838 -0.56281227
0.45851988 7.0929594 -0.5623644
0.5128445 7.9333205 -0.56254882
0.58029091 8.9766665 -0.56143868
0.67006439 10.365395 -0.56167477
0.79246163 12.258788 -0.56192178
0.96772987 14.970057 -0.56130832
1.2425183 19.220829 -0.56043553
1.7342677 26.827824 -0.55866432
2.8751028 44.475689 -0.55564755
0.11002717 2.1035159 -0.56440502
0.11314109 2.1630483 -0.56112653
0.11748071 2.2460136 -0.56274462
0.12231608 2.3384569 -0.56526887
0.12640366 2.416604 -0.56291729
0.13130705 2.5103478 -0.56277299
0.1368833 2.6169553 -0.56384325
0.1424692 2.7237473 -0.56317657
0.14897154 2.8480604 -0.56420857
0.15582718 2.9791272 -0.56445098
0.16347322 3.1253054 -0.56524748
0.17200856 3.2884853 -0.56654119
0.17907101 3.4235063 -0.56050855
0.18904285 3.6141493 -0.56087989
0.20062013 3.8354855 -0.56258309
0.21317635 4.0755372 -0.56318867
0.22761095 4.3515 -0.56445992
0.24236335 4.6335387 -0.56187671
0.26090214 4.9879661 -0.56277621
0.28155226 5.3827581 -0.56199437
0.3056736 5.8439136 -0.561019
0.33521673 6.4087238 -0.56145632
0.37119859 7.0966301 -0.56225103
0.41530234 7.9398117 -0.56260443
0.47008234 8.9871044 -0.56168747
0.5429433 10.380072 -0.56206584
0.64165509 12.267258 -0.56190586
0.78352064 14.979465 -0.56125736
1.0072072 19.255936 -0.5610556
1.407429 26.907436 -0.55991948
2.3332386 44.607204 -0.55689007
0.084023982 2.1014333 -0.56352639
0.087072104 2.1776664 -0.56459832
0.089524902 2.2390108 -0.56067181
0.092971683 2.3252144 -0.56174904
0.096713945 2.4188082 -0.56311113
0.10125524 2.5323856 -0.5673914
0.10465731 2.617471 -0.56363451
0.10933807 2.7345364 -0.56508666
0.11404571 2.8522742 -0.56472284
0.11895077 2.9749494 -0.56333971
0.12473843 3.1196983 -0.56391335
0.13055791 3.2652431 -0.56221789
0.13772261 3.444432 -0.56361473
0.14573535 3.6448298 -0.56532037
0.15310089 3.8290415 -0.56131929
0.16329798 4.0840697 -0.56404763
0.17325868 4.3331861 -0.56176549
0.18576311 4.6459208 -0.56305867
0.19961753 4.9924188 -0.56295913
0.21575202 5.3959413 -0.56305122
0.23501304 5.8776579 -0.56393844
0.25683463 6.4234138 -0.56242412
0.28437006 7.1120734 -0.56315494
0.31780499 7.948278 -0.56288487
0.35999501 9.0034475 -0.56238973
0.41530624 10.386777 -0.56210989
0.49062788 12.270565 -0.56173849
0.59987754 15.00289 -0.56181628
0.77089602 19.28005 -0.56143957
1.077697 26.953119 -0.56055194
1.788407 44.727921 -0.55808043
0.058219813 2.1037688 -0.56391811
0.060403351 2.1826708 -0.56566048
0.061929561 2.2378204 -0.56014067
0.064773016 2.3405685 -0.56522322
0.067335352 2.4331582 -0.56621635
0.069656231 2.5170231 -0.5637148
0.072308816 2.612874 -0.56241065
0.075674228 2.734483 -0.56484061
0.078889564 2.8506689 -0.5641703
0.082267694 2.9727373 -0.56268674
0.086455151 3.1240509 -0.56446528
0.09054973 3.2720082 -0.56314844
0.094950736 3.4310381 -0.56118959
0.1004428 3.6294937 -0.5627076
0.10614777 3.8356423 -0.56205314
0.11271958 4.0731144 -0.56230062
0.12058227 4.3572316 -0.56464791
0.12834612 4.6377783 -0.56183809
0.1385255 5.005609 -0.56421179
0.14926787 5.393784 -0.56259209
0.16237146 5.8672814 -0.5627088
0.1779377 6.4297667 -0.56274623
0.19650465 7.1006823 -0.56201917
0.22030789 7.9608102 -0.56353796
0.2496693 9.0217829 -0.56330067
0.28761157 10.392824 -0.56220329
0.34021035 12.293477 -0.56255335
0.41592592 15.029454 -0.56257695
0.53427911 19.306139 -0.56196547
0.74700469 26.992964 -0.56114709
1.2410259 44.844387 -0.5593009
0.032210499 2.0953526 -0.56151354
0.033450481 2.1760156 -0.56378651
0.034673028 2.2555447 -0.56442785
0.035823829 2.3304067 -0.56262034
0.03717095 2.4180393 -0.56254917
0.03856533 2.5087464 -0.5617125
0.040187757 2.6142881 -0.5625661
0.041931316 2.72771 -0.5632925
0.043660656 2.8402066 -0.56195098
0.04592374 2.9874244 -0.56531715
0.047958177 3.1197684 -0.56354237
0.050557595 3.2888653 -0.56589997
0.053004541 3.4480438 -0.56382185
0.056228597 3.6577747 -0.56694216
0.05909219 3.8440566 -0.56313705
0.062734134 4.0809717 -0.5632363
0.066854157 4.3489871 -0.56343037
0.071769267 4.6687241 -0.56543738
0.076860718 4.9999323 -0.5634228
0.083087802 5.4050159 -0.56361443
0.090477616 5.8857365 -0.56432939
0.099190503 6.4525261 -0.56458873
0.10958449 7.128674 -0.56408542
0.12239805 7.9622202 -0.5634886
0.13861205 9.0169706 -0.56285125
0.15996462 10.405995 -0.56276685
0.18914106 12.303978 -0.56288487
0.23108408 15.032448 -0.56254017
0.297052 19.323784 -0.56233031
0.41529298 27.015579 -0.56146866
0.69090742 44.944809 -0.56040508
0.0064850464 2.108753 -0.56504047
0.006696986 2.1776695 -0.56415105
0.0069729029 2.26739 -0.56732762
0.0071827588 2.3356292 -0.56381726
0.007466672 2.4279497 -0.56479067
0.0077584437 2.5228255 -0.5648008
0.0080654444 2.6226535 -0.56430221
0.0083934059 2.7292974 -0.56355637
0.0087485807 2.84479 -0.56279397
0.0091523509 2.9760847 -0.56310743
0.0096202502 3.128232 -0.56500709
0.010112749 3.288379 -0.56575209
0.010631183 3.4569588 -0.56521553
0.011166834 3.6311374 -0.56274962
0.011860783 3.8567898 -0.56493837
0.01257787 4.0899663 -0.56441367
0.013372895 4.3484855 -0.56330156
0.014317026 4.6554904 -0.56377065
0.015360933 4.9949393 -0.56279629
0.016621727 5.4049139 -0.56353986
0.018048318 5.8688002 -0.56264168
0.019759238 6.4251432 -0.56212902
0.02192864 7.1305714 -0.56417155
0.024489596 7.9633212 -0.56350261
0.027744172 9.0216169 -0.56307739
0.0320522 10.422465 -0.56359363
0.037890203 12.320818 -0.56359142
0.046270434 15.045832 -0.56297714
0.059481218 19.341602 -0.56278497
0.083259128 27.073505 -0.56260872
0.13851976 45.042694 -0.56156182
-0.019285483 2.0915143 -0.56044251
-0.020080468 2.1777306 -0.56418812
-0.020840406 2.2601459 -0.5655365
-0.021502348 2.3319337 -0.56294644
-0.022260003 2.4141016 -0.56159055
-0.023207454 2.5168529 -0.56348491
-0.024156865 2.6198165 -0.56371313
-0.025068583 2.7186925 -0.5613879
-0.026361478 2.8589075 -0.56560826
-0.027546844 2.9874606 -0.56528121
-0.028767537 3.1198449 -0.56351358
-0.030329736 3.2892656 -0.56592602
-0.031897247 3.4592624 -0.56561351
-0.033468083 3.6296201 -0.5625357
-0.035507403 3.8507848 -0.56408006
-0.037560649 4.0734596 -0.56215698
-0.040090926 4.3478689 -0.56324291
-0.042876597 4.6499748 -0.563124
-0.046050519 4.9941874 -0.56273288
-0.049843572 5.4055448 -0.56362695
-0.054167293 5.8744535 -0.56320494
-0.059262548 6.4270344 -0.5623157
-0.065645896 7.1193099 -0.5633018
-0.073424928 7.9629478 -0.56349748
-0.083231598 9.0264826 -0.56340241
-0.096017666 10.413134 -0.56311029
-0.11356276 12.315903 -0.56338781
-0.13881537 15.054553 -0.56332475
-0.17857848 19.366869 -0.56354147
-0.24985825 27.097174 -0.56312186
-0.41632774 45.150822 -0.56293118
-0.045548134 2.1165752 -0.56726503
-0.046825394 2.1759281 -0.56382769
-0.048529483 2.2551155 -0.5643844
-0.050532993 2.3482165 -0.56698436
-0.05218599 2.4250295 -0.56423932
-0.054368276 2.5264382 -0.56573784
-0.056295943 2.6160147 -0.56300145
-0.058840983 2.7342801 -0.5647133
-0.061360128 2.8513422 -0.56421822
-0.064460367 2.9954071 -0.56689197
-0.067449465 3.1343074 -0.5662328
-0.070331655 3.26824 -0.56241482
-0.074337259 3.4543762 -0.56492138
-0.078466877 3.6462755 -0.56522387
-0.08271753 3.8437989 -0.56316316
-0.088277206 4.1021514 -0.56622362
-0.093604527 4.3497066 -0.56358749
-0.10010385 4.6517234 -0.56344223
-0.10771178 5.0052562 -0.56408668
-0.11647227 5.4123473 -0.56444293
-0.1266975 5.8875027 -0.56456268
-0.13863046 6.4420156 -0.56373298
-0.15327559 7.1225595 -0.56366545
-0.17155135 7.9718156 -0.56423163
-0.1941039 9.0198097 -0.56309229
-0.2243163 10.423748 -0.56379086
-0.26518202 12.322738 -0.56380701
-0.32432997 15.071281 -0.56405729
-0.41697913 19.376595 -0.56393099
-0.58379567 27.128386 -0.56387705
-0.97320461 45.223824 -0.56394792
-0.071333773 2.1088972 -0.56539959
-0.073492989 2.1727316 -0.563191
-0.076351091 2.2572281 -0.56510532
-0.078744106 2.3279746 -0.56228817
-0.0817701 2.4174345 -0.56266361
-0.085067488 2.5149179 -0.56334978
-0.089009374 2.6314552 -0.56651717
-0.092310652 2.7290533 -0.56382561
-0.096784241 2.8613095 -0.56638318
-0.10049164 2.9709144 -0.56244797
-0.10590227 3.1308732 -0.5658049
-0.11133683 3.2915394 -0.56661707
-0.11713772 3.4630358 -0.56653023
-0.12296675 3.6353638 -0.56372422
-0.1301637 3.8481331 -0.56399
-0.1378161 4.074367 -0.56257987
-0.1470037 4.3459873 -0.56329721
-0.1573659 4.6523333 -0.56370789
-0.16883862 4.9915109 -0.562729
-0.18294115 5.4084353 -0.56422687
-0.19875252 5.8758788 -0.56363982
-0.2180506 6.4464035 -0.56430894
-0.24111842 7.1283755 -0.5643177
-0.26942879 7.9653373 -0.56396496
-0.30555251 9.0332918 -0.5641259
-0.35281694 10.430608 -0.56435382
-0.41704482 12.329428 -0.56430513
-0.5094173 15.060309 -0.56383842
-0.65531498 19.3736 -0.56403571
-0.91871566 27.160723 -0.56474131
-1.5327424 45.313686 -0.56526083
-0.097433068 2.1116459 -0.56641489
-0.099975124 2.1667392 -0.56191397
-0.10421038 2.2585292 -0.56570911
-0.10754107 2.3307145 -0.56322676
-0.11185304 2.4241669 -0.56450802
-0.11624809 2.5194197 -0.56463575
-0.12072589 2.6164663 -0.56356722
-0.12577672 2.7259319 -0.56345767
-0.13055724 2.8295388 -0.56036973
-0.13748984 2.9797876 -0.5644052
-0.14405078 3.1219814 -0.56447542
-0.15161642 3.2859499 -0.56593305
-0.15861589 3.4376481 -0.56265348
-0.16785297 3.6378412 -0.56438577
-0.17709567 3.8381562 -0.5628044
-0.18890819 4.0941668 -0.56559175
-0.20103264 4.3569369 -0.56499416
-0.21515743 4.6630607 -0.5652855
-0.23068851 4.9996624 -0.56392515
-0.24958371 5.409174 -0.56458139
-0.27150396 5.8842463 -0.56472003
-0.29749459 6.447536 -0.56468558
-0.32840034 7.1173496 -0.5637219
-0.36717767 7.9577622 -0.56370574
-0.41657361 9.0283098 -0.56409204
-0.48094702 10.423461 -0.56424445
-0.56909871 12.333954 -0.56478983
-0.69555688 15.074654 -0.56465304
-0.89507145 19.398689 -0.56504393
-1.2542421 27.182917 -0.56548071
-2.0938728 45.380054 -0.56636709
-0.12291922 2.1022446 -0.56425595
-0.12669156 2.1667619 -0.56228131
-0.13082936 2.237529 -0.56080967
-0.13620891 2.3295336 -0.56330359
-0.14192615 2.4273138 -0.56560445
-0.14730006 2.5192218 -0.56495464
-0.15278256 2.612987 -0.56317991
-0.15892662 2.7180667 -0.56219333
-0.16636655 2.8453093 -0.56385547
-0.17384695 2.973244 -0.56352806
-0.18222174 3.1164751 -0.56384236
-0.19123985 3.2707086 -0.56367046
-0.20140508 3.444561 -0.56414771
-0.21242483 3.633028 -0.56400162
-0.22411969 3.8330412 -0.56241596
-0.23761342 4.0638199 -0.5617606
-0.25422871 4.3479853 -0.56419605
-0.27209482 4.653543 -0.56449461
-0.29222777 4.99787 -0.56408566
-0.3155517 5.396771 -0.56364918
-0.34310368 5.8679833 -0.5635215
-0.37618795 6.4338117 -0.56384611
-0.41655383 7.1241755 -0.56462556
-0.46578726 7.9661975 -0.56466627
-0.52759033 9.0231943 -0.56413507
-0.60949939 10.424056 -0.56463969
-0.72134691 12.336946 -0.56529027
-0.88157457 15.077263 -0.56511408
-1.1343493 19.400383 -0.56545675
-1.589635 27.186974 -0.565929
-2.656687 45.436394 -0.56743503
-0.14974315 2.1144831 -0.56799209
-0.15479892 2.1858745 -0.5676921
-0.15817127 2.2334943 -0.56024349
-0.16516079 2.3321915 -0.56439471
-0.1702731 2.404381 -0.5607062
-0.17746076 2.5058761 -0.56240857
-0.18515396 2.6145098 -0.5639562
-0.19243032 2.7172573 -0.56247282
-0.20225915 2.8560474 -0.56643349
-0.20963432 2.9601905 -0.56150013
-0.21962263 3.1012325 -0.56153077
-0.23207672 3.2770936 -0.56521988
-0.24439892 3.451092 -0.56566679
-0.25733215 3.633719 -0.56455743
-0.27234441 3.8457029 -0.56472248
-0.28894985 4.0801835 -0.56447119
-0.30689937 4.3336444 -0.56278229
-0.32898247 4.6454735 -0.56396389
-0.35353899 4.9922299 -0.56389713
-0.38316384 5.4105544 -0.56553811
-0.41575688 5.8707919 -0.56423956
-0.4556255 6.4337664 -0.56429046
-0.50437027 7.1220784 -0.56490815
-0.56424296 7.9675245 -0.56520939
-0.63920003 9.0259733 -0.56475753
-0.73852354 10.428494 -0.56532925
-0.8730728 12.328428 -0.56534916
-1.067095 15.068166 -0.56522214
-1.3751329 19.417885 -0.56641692
-1.9264723 27.203201 -0.56671703
-3.2219577 45.496407 -0.5686363
-0.17376947 2.088908 -0.56165361
-0.18035214 2.1680388 -0.56359339
-0.18667032 2.2439907 -0.56340957
-0.19398347 2.3319032 -0.56485945
-0.20156467 2.4230378 -0.56559229
-0.20971066 2.520962 -0.56633031
-0.21771373 2.6171679 -0.56506431
-0.22691512 2.7277792 -0.56518573
-0.23745774 2.8545134 -0.56666553
-0.24619718 2.9595716 -0.5619145
-0.25998205 3.1252816 -0.56642127
-0.27107105 3.2585838 -0.56255978
-0.28511739 3.4274371 -0.56232166
-0.30115107 3.6201801 -0.56298673
-0.31973794 3.8436155 -0.56495059
-0.33901122 4.0753026 -0.56432992
-0.36088553 4.3382568 -0.5639149
-0.38772643 4.6609149 -0.56637442
-0.41622597 5.0035119 -0.56570685
-0.45028114 5.4128942 -0.56631863
-0.48784938 5.8645077 -0.56416947
-0.53483737 6.4293566 -0.56443787
-0.59223175 7.1193027 -0.56522292
-0.6609053 7.9448376 -0.56413388
-0.74949539 9.0097914 -0.56427902
-0.86483991 10.396364 -0.56412137
-1.0239463 12.309005 -0.56499314
-1.2537154 15.071093 -0.56586748
-1.6127337 19.386904 -0.56604886
-2.2637777 27.213196 -0.56746227
-3.7907917 45.569653 -0.57009131
-0.20011134 2.093631 -0.56354254
-0.20759119 2.1718874 -0.56521469
-0.21468465 2.2461019 -0.5645597
-0.22339666 2.3372495 -0.56677711
-0.23205426 2.4278283 -0.56733364
-0.24090956 2.5204754 -0.56684363
-0.25036529 2.6194043 -0.56616908
-0.25877136 2.7073514 -0.56156999
-0.27056098 2.8306983 -0.56255579
-0.28175095 2.9477715 -0.5602895
-0.29521844 3.0886726 -0.56040186
-0.31387857 3.2839012 -0.56755394
-0.32969302 3.449357 -0.56654024
-0.34594637 3.619405 -0.56348515
-0.36686429 3.8382554 -0.5647831
-0.38886693 4.0684543 -0.56400114
-0.41441423 4.3357382 -0.56420732
-0.44368953 4.6420264 -0.56469947
-0.47607267 4.9808292 -0.56376153
-0.51506615 5.388792 -0.56441694
-0.56141299 5.8736882 -0.56567395
-0.61402065 6.424087 -0.5645954
-0.67978305 7.1121144 -0.56527311
-0.75935817 7.9446554 -0.56474125
-0.86139637 9.0122137 -0.56505138
-0.99470127 10.406893 -0.56531364
-1.177182 12.316067 -0.56593895
-1.4408127 15.074259 -0.56660873
-1.8539971 19.397129 -0.56697023
-2.6021876 27.224945 -0.56833154
-4.3604693 45.62067 -0.57135713
-0.22533196 2.0863218 -0.56227845
-0.23459199 2.1720593 -0.56596732
-0.24366735 2.2560871 -0.56777972
-0.25115556 2.3254194 -0.56461453
-0.26008326 2.4080801 -0.56342363
-0.26990336 2.4990032 -0.56271851
-0.28036121 2.5958312 -0.56177652
-0.29250666 2.7082844 -0.56246704
-0.30622414 2.8352928 -0.56417453
-0.31998461 2.9626994 -0.56383216
-0.3344284 3.0964329 -0.56251347
-0.35126707 3.2523401 -0.56280321
-0.37026647 3.4282532 -0.56377918
-0.39164928 3.6262341 -0.56525534
-0.41411355 3.834228 -0.56489706
-0.44109187 4.0840173 -0.56686765
-0.46717733 4.3255391 -0.56358504
-0.50068498 4.6357827 -0.56464618
-0.53863132 4.9871235 -0.56518084
-0.58115202 5.3808174 -0.56428748
-0.63289088 5.8598614 -0.56504911
-0.69377267 6.4235587 -0.565256
-0.76710528 7.1025367 -0.56521887
-0.85716105 7.9363523 -0.56485754
-0.97271544 9.0062561 -0.56538504
-1.1252569 10.41862 -0.56665939
-1.3276937 12.292958 -0.56558454
-1.6269027 15.063298 -0.56690586
-2.0939481 19.387617 -0.56740189
-2.9398627 27.219839 -0.56893659
-4.9313598 45.658875 -0.57255173
-0.2525886 2.0968518 -0.56591064
-0.26048818 2.1624298 -0.56425017
-0.26976538 2.2394443 -0.56438339
-0.27851239 2.312057 -0.56215918
-0.29022259 2.4092686 -0.56449401
-0.30070418 2.4962811 -0.5628956
-0.31335118 2.6012695 -0.56374472
-0.32754195 2.7190735 -0.56550151
-0.34058949 2.8273871 -0.56339216
-0.35721952 2.9654405 -0.56514704
-0.37466222 3.1102402 -0.56581593
-0.39273176 3.2602437 -0.56496388
-0.41277853 3.426661 -0.56430942
-0.43660709 3.6244726 -0.56577486
-0.46152237 3.8313055 -0.56525987
-0.49101758 4.0761585 -0.56657207
-0.52062029 4.3219037 -0.56390285
-0.55845428 4.6359811 -0.56546402
-0.59970772 4.9784446 -0.56499028
-0.64704615 5.3714218 -0.56409395
-0.70582533 5.8593745 -0.56579632
-0.77215278 6.4099889 -0.56485468
-0.85336924 7.0842032 -0.56455231
-0.9558093 7.9346046 -0.5655269
-1.0835446 8.9949932 -0.56547165
-1.2512158 10.386908 -0.5657286
-1.4795837 12.282692 -0.56590647
-1.8123928 15.04549 -0.5670315
-2.3340697 19.376165 -0.56786376
-3.2773025 27.206367 -0.56945425
-5.5034976 45.687019 -0.57370991
-0.27803257 2.0911894 -0.56526238
-0.28741282 2.161742 -0.56495017
-0.29812148 2.242286 -0.56598067
-0.30778256 2.3149505 -0.56374031
-0.3213737 2.4171746 -0.56722945
-0.33271915 2.5025082 -0.56517959
-0.34560052 2.5993938 -0.56421655
-0.36110914 2.7160401 -0.56575137
-0.37576401 2.8262649 -0.56404662
-0.39178172 2.9467402 -0.56245881
-0.4105615 3.0879903 -0.56264412
-0.43172553 3.2471731 -0.56357622
-0.45584941 3.428618 -0.56551206
-0.48093113 3.6172671 -0.56553048
-0.50744873 3.816716 -0.56398535
-0.53824139 4.0483193 -0.56357986
-0.57601154 4.3324032 -0.56615412
-0.61494863 4.6252642 -0.56503648
-0.66051137 4.9679589 -0.56467938
-0.7145564 5.3744526 -0.56529218
-0.77587676 5.8356662 -0.56438559
-0.85162425 6.4053917 -0.56532967
-0.94252199 7.0890684 -0.56582081
-1.0529358 7.9195337 -0.56533283
-1.1957165 8.9934416 -0.56625563
-1.3803601 10.382217 -0.56635481
-1.6339475 12.289545 -0.56710505
-1.999472 15.038795 -0.56766284
-2.5760984 19.375822 -0.56873912
-3.6178827 27.211483 -0.57044935
-6.0770173 45.707573 -0.57486296
-0.3030493 2.0829763 -0.56400698
-0.31257549 2.1484535 -0.56243926
-0.32452118 2.2305608 -0.56398571
-0.33759847 2.3204463 -0.56604677
-0.34847569 2.3952096 -0.56303799
-0.36426544 2.5037389 -0.56642628
-0.37721357 2.5927362 -0.56373566
-0.39377066 2.7065399 -0.56473833
-0.40985918 2.8171222 -0.56318527
-0.42904082 2.9489653 -0.56384784
-0.45116583 3.1010389 -0.56598967
-0.4732835 3.2530625 -0.56556571
-0.49921048 3.4312687 -0.56691885
-0.52349526 3.5981874 -0.56351131
-0.55482626 3.8135378 -0.56448114
-0.58979893 4.0539184 -0.56532621
-0.6284247 4.3194084 -0.56542307
-0.67056698 4.6090689 -0.56402266
-0.72100914 4.9557776 -0.56425983
-0.78133637 5.3704305 -0.56583691
-0.84849274 5.8320222 -0.56499952
-0.93304849 6.4132071 -0.56698918
-1.0299164 7.0790181 -0.56598669
-1.1506361 7.908772 -0.56553185
-1.304969 8.9695616 -0.56571966
-1.5100319 10.37904 -0.56715155
-1.786394 12.278584 -0.56756997
-2.1833501 15.007018 -0.56743389
-2.8154867 19.35194 -0.56901127
-3.9569571 27.197712 -0.57113749
-6.6537023 45.733494 -0.57617438
-0.32766014 2.0729082 -0.56232923
-0.34076303 2.1558022 -0.56541729
-0.35145324 2.2234328 -0.56323355
-0.36672908 2.3200738 -0.56701308
-0.37904111 2.3979645 -0.56473851
-0.39364609 2.4903617 -0.56445235
-0.40744287 2.5776455 -0.56150138
-0.42786631 2.7068522 -0.56585848
-0.44638824 2.8240292 -0.5656206
-0.46539122 2.9442496 -0.56399781
-0.48863864 3.0913219 -0.56527007
-0.51077598 3.2313716 -0.56284398
-0.53894258 3.4095647 -0.56438524
-0.5682686 3.5950928 -0.56407839
-0.60206693 3.8089147 -0.56484997
-0.63642019 4.0262465 -0.56251609
-0.68340963 4.3235207 -0.56701851
-0.73017275 4.6193628 -0.5663383
-0.78399909 4.9598894 -0.5657829
-0.84693646 5.3580561 -0.56558764
-0.91836131 5.8099184 -0.56390947
-1.0095541 6.3868403 -0.56571287
-1.114029 7.0477901 -0.56454247
-1.2500879 7.9085522 -0.56657249
-1.4159985 8.958169 -0.56605649
-1.6381887 10.363832 -0.56737834
-1.9373505 12.256449 -0.56760502
-2.3711898 15.001089 -0.56826919
-3.0568702 19.338974 -0.56969219
-4.2989693 27.196985 -0.57218909
-7.231297 45.748058 -0.57743442
-0.3558318 2.0845923 -0.56664306
-0.36901361 2.1618161 -0.56814176
-0.37953439 2.2234509 -0.56437767
-0.39436588 2.3103392 -0.56577635
-0.40901291 2.3961468 -0.5654521
-0.4229469 2.4777772 -0.56273627
-0.43977383 2.5763555 -0.56235588
-0.46010435 2.6954591 -0.56461686
-0.47995123 2.8117292 -0.56429648
-0.50189501 2.940284 -0.56437767
-0.52686489 3.0865667 -0.56554246
-0.55345744 3.2423553 -0.56589979
-0.5815323 3.4068282 -0.56507319
-0.61511368 3.6035604 -0.56655085
-0.64821643 3.7974882 -0.56429487
-0.68966168 4.0402899 -0.56562018
-0.73231441 4.2901649 -0.56378233
-0.78482187 4.5977726 -0.56483173
-0.84111804 4.9275761 -0.56323415
-0.91186887 5.3420601 -0.56504005
-0.99401885 5.8233247 -0.56635427
-1.0856721 6.3602633 -0.5644986
-1.2050539 7.0596457 -0.5666362
-1.3461305 7.8861232 -0.5661087
-1.5268643 8.9449282 -0.56636339
-1.7635199 10.331343 -0.56674403
-2.0885615 12.235555 -0.56778383
-2.5561678 14.974962 -0.56842721
-3.2969115 19.31451 -0.57012266
-4.636807 27.164106 -0.57265359
-7.8114824 45.762512 -0.57878554
-0.38028708 2.0737939 -0.5649361
-0.39350095 2.1458521 -0.56517524
-0.40484425 2.2077098 -0.56160331
-0.4199467 2.290067 -0.56203395
-0.43749681 2.3857718 -0.56423068
-0.45541406 2.4834788 -0.56526029
-0.47436309 2.5868123 -0.56586868
-0.49531177 2.7010503 -0.56702095
-0.51695675 2.8190851 -0.56700563
-0.53900993 2.9393466 -0.56542718
-0.56478208 3.0798879 -0.56554842
-0.59162265 3.2262559 -0.56431693
-0.62218267 3.3929067 -0.56399041
-0.65641624 3.5795903 -0.56400871
-0.6962505 3.7968156 -0.56542438
-0.73901749 4.0300341 -0.56541389
-0.7858665 4.2855129 -0.56439823
-0.84155643 4.5892029 -0.56500751
-0.90552872 4.9380589 -0.56566226
-0.9813242 5.3513889 -0.56726021
-1.0632998 5.7984204 -0.56516105
-1.1681734 6.3703213 -0.56662333
-1.2888654 7.0284829 -0.5653643
-1.4433229 7.8707752 -0.56623822
-1.6381932 8.9334488 -0.56686914
-1.8914914 10.314743 -0.56706643
-2.2403328 12.217056 -0.56816083
-2.7437115 14.962097 -0.5691765
-3.5391431 19.29977 -0.57092905
-4.9781017 27.146746 -0.57353473
-8.3903723 45.754646 -0.57994711
-0.40465161 2.0633261 -0.56339747
-0.41797972 2.1312864 -0.56265002
-0.43216276 2.2036061 -0.56186867
-0.45025831 2.2958755 -0.56477565
-0.46876007 2.3902164 -0.56660211
-0.48491398 2.4725854 -0.56409538
-0.50616938 2.5809672 -0.56590885
-0.52400583 2.6719155 -0.56221491
-0.55172902 2.8132768 -0.56715906
-0.57355976 2.924592 -0.56390303
-0.60214961 3.0703721 -0.56511801
-0.63423854 3.233994 -0.56699169
-0.66353506 3.3833776 -0.56372005
-0.70182079 3.5785973 -0.56516927
-0.74348754 3.7910569 -0.56588548
-0.78722095 4.0140543 -0.56448734
-0.84154326 4.2910447 -0.56644678
-0.8980341 4.5790925 -0.56507957
-0.96745455 4.9330688 -0.5664106
-1.0456583 5.3318315 -0.56650722
-1.1343772 5.7842107 -0.56509286
-1.2455181 6.3509202 -0.56621712
-1.3797934 7.0355926 -0.56725806
-1.539135 7.8480783 -0.56592411
-1.7495917 8.9212008 -0.56741416
-2.0221364 10.310912 -0.56817991
-2.3896606 12.184924 -0.56799012
-2.92852 14.932578 -0.56938034
-3.7774935 19.261511 -0.57112813
-5.3159213 27.105982 -0.57401115
-8.9711447 45.744034 -0.58116686
-0.43079945 2.0620656 -0.56445706
-0.44737327 2.141398 -0.56672889
-0.46276522 2.2150731 -0.56620061
-0.47734752 2.284873 -0.56347036
-0.49988562 2.3927538 -0.56861776
-0.51483434 2.4643073 -0.56360847
-0.53734887 2.5720756 -0.56536525
-0.56054515 2.6831067 -0.56597733
-0.58242118 2.7878187 -0.56342787
-0.60783929 2.9094851 -0.56238878
-0.63801372 3.0539181 -0.56349093
-0.67126673 3.2130868 -0.56473064
-0.70883483 3.3929105 -0.5667178
-0.7469576 3.5753891 -0.56607038
-0.7891854 3.7775171 -0.56527019
-0.83667547 4.0048332 -0.56459469
-0.89955002 4.3057885 -0.56981015
-0.95436341 4.5681581 -0.56513572
-1.0265017 4.913455 -0.56556511
-1.1104817 5.3154349 -0.56617308
-1.2068075 5.7765079 -0.56574738
-1.3236121 6.3356047 -0.56625992
-1.4650755 7.0127344 -0.56682473
-1.6390278 7.8453746 -0.56713963
-1.8605373 8.905652 -0.56783748
-2.1495576 10.289078 -0.56839025
-2.5428951 12.171828 -0.56879425
-3.1153786 14.912079 -0.57001638
-4.0144229 19.215446 -0.57118273
-5.6562653 27.074295 -0.5747695
-9.5543766 45.733006 -0.58247536
-0.45532352 2.0530167 -0.56347007
-0.47481483 2.1409016 -0.56809974
-0.4887332 2.2036583 -0.5647763
-0.50790691 2.2901108 -0.5662595
-0.52315116 2.3588459 -0.56204611
-0.54829717 2.4722273 -0.56691897
-0.5709911 2.5745525 -0.56741017
-0.59464908 2.6812243 -0.56707978
-0.61882639 2.7902379 -0.56541198
-0.64900661 2.9263179 -0.56714219
-0.67772651 3.0558138 -0.56533563
-0.71114421 3.2064915 -0.56506568
-0.74724197 3.3692532 -0.5642584
-0.78733063 3.5500097 -0.56354243
-0.83301675 3.756005 -0.56354129
-0.88637388 3.9965878 -0.56492615
-0.9460746 4.2657738 -0.56601143
-1.0136598 4.5705099 -0.56692576
-1.0906216 4.9175239 -0.56753421
-1.174498 5.2957163 -0.56556833
-1.2781494 5.7630715 -0.56592792
-1.4021925 6.322372 -0.56657541
-1.5507053 6.9920039 -0.56664759
-1.7364255 7.8294015 -0.56748551
-1.9709605 8.8869009 -0.5681442
-2.2717538 10.243154 -0.56735355
-2.6929636 12.142354 -0.56892133
-3.2977688 14.869372 -0.56989086
-4.2567401 19.193295 -0.57203698
-6.0002642 27.054703 -0.57587641
-10.140569 45.723 -0.58389193
-0.48382217 2.0612803 -0.56732804
-0.49782711 2.1209471 -0.56438643
-0.51612222 2.1988919 -0.56513852
-0.53515399 2.2799747 -0.56533754
-0.55553412 2.3668025 -0.56552678
-0.57958579 2.4692724 -0.56783277
-0.59964448 2.5547307 -0.56462395
-0.62577093 2.6660402 -0.56545305
-0.65110523 2.7739747 -0.56369615
-0.68168235 2.9042456 -0.56444633
-0.71543127 3.0480299 -0.56548035
-0.75145626 3.2015109 -0.56577361
-0.79098612 3.3699245 -0.56595695
-0.8321805 3.5454292 -0.56439704
-0.88210738 3.7581382 -0.56544602
-0.93785512 3.9956462 -0.56638038
-0.99690706 4.247232 -0.565135
-1.0681163 4.5506124 -0.56604403
-1.145961 4.8822627 -0.56504822
-1.2422236 5.2923803 -0.56680053
-1.3497485 5.7504807 -0.56627852
-1.4782807 6.2980804 -0.56598473
-1.6415719 6.9937677 -0.56838346
-1.8302318 7.7975359 -0.56676424
-2.0775132 8.8510561 -0.56744289
-2.4024773 10.235536 -0.56852496
-2.8461447 12.125741 -0.56973964
-3.4828207 14.838241 -0.57029599
-4.4987273 19.166418 -0.57284135
-6.3342476 26.986485 -0.57603872
-10.721718 45.678905 -0.58496821
-0.50499016 2.0384641 -0.56271482
-0.52155161 2.1053164 -0.5618912
-0.54226434 2.1889265 -0.56424844
-0.56311566 2.2730956 -0.56530607
-0.5831129 2.3538175 -0.56409478
-0.60862559 2.4568031 -0.56664348
-0.62896037 2.5388873 -0.56278914
-0.65716875 2.6527543 -0.56430644
-0.68244106 2.7547696 -0.56145632
-0.72235268 2.9158785 -0.56839055
-0.75257105 3.0378592 -0.56526756
-0.79113436 3.1935256 -0.56603873
-0.83062851 3.3529491 -0.56477869
-0.88265437 3.5629587 -0.56887233
-0.92787784 3.7455099 -0.56521994
-0.98465347 3.9746926 -0.56508374
-1.0545255 4.2567406 -0.56808269
-1.1233366 4.5345063 -0.56571609
-1.2079382 4.8760128 -0.56600118
-1.3027066 5.2585588 -0.56485122
-1.420163 5.7326884 -0.56620324
-1.5563141 6.2822814 -0.56624192
-1.7244366 6.9609318 -0.56739521
-1.9271896 7.7793722 -0.56712359
-2.1873233 8.8294392 -0.56773847
-2.5310993 10.217139 -0.56918883
-2.9967535 12.096818 -0.57006902
-3.6670849 14.802706 -0.57062018
-4.7363267 19.118851 -0.57311702
-6.6759567 26.948441 -0.57693529
-11.306938 45.642052 -0.58623242
-0.53344291 2.0452397 -0.56635314
-0.54740632 2.0987759 -0.56189954
-0.57248741 2.1949377 -0.56756967
-0.58756095 2.2527301 -0.56199557
-0.61106455 2.3428438 -0.56322306
-0.63927197 2.4509921 -0.5670734
-0.65895957 2.5264752 -0.56179148
-0.69009733 2.6458585 -0.56460196
-0.72098619 2.7642875 -0.56516039
-0.7550177 2.8947656 -0.56604195
-0.7886681 3.0237823 -0.56441003
-0.82811809 3.175035 -0.56452358
-0.87243748 3.3449574 -0.56519681
-0.92105514 3.531359 -0.56559253
-0.97923559 3.7544253 -0.56833947
-1.0354129 3.969811 -0.56615698
-1.1028996 4.2285571 -0.56608856
-1.1789346 4.5200782 -0.56568182
-1.2675974 4.8600149 -0.5659107
-1.3712577 5.257452 -0.56650066
-1.4953173 5.7331014 -0.56801718
-1.6336563 6.2634978 -0.56631672
-1.8090801 6.9360795 -0.56713986
-2.0241272 7.7605782 -0.56752509
-2.2961514 8.8035288 -0.56784499
-2.6582956 10.192002 -0.56956643
-3.1449959 12.05803 -0.57002044
-3.8534005 14.774078 -0.57129997
-4.9745879 19.072752 -0.57352543
-7.0161834 26.900305 -0.57770807
-11.891036 45.590664 -0.5874061
-0.55368477 2.0207698 -0.56141996
-0.5736168 2.0935154 -0.5623371
-0.59799439 2.1824856 -0.56620836
-0.61627746 2.2492127 -0.56296605
-0.63854784 2.3304925 -0.56209892
-0.66597241 2.4305835 -0.56420356
-0.69441724 2.5343978 -0.56540912
-0.7231158 2.6391382 -0.56502265
-0.7529937 2.7481828 -0.5637182
-0.7924031 2.8920143 -0.56736636
-0.82940423 3.0270565 -0.56688201
-0.86915642 3.1721392 -0.56586617
-0.91415089 3.3363545 -0.5655998
-0.9637199 3.5172651 -0.56519049
-1.0193788 3.720402 -0.56504381
-1.0881644 3.9714475 -0.56825572
-1.1543466 4.2129908 -0.56586212
-1.2353216 4.5085235 -0.56609404
-1.3295922 4.8525805 -0.56690592
-1.4338334 5.233027 -0.56572586
-1.56583 5.7147717 -0.56806582
-1.7144394 6.2571478 -0.56760579
-1.8963736 6.9211488 -0.56778282
-2.1217213 7.7435946 -0.56814808
-2.4088151 8.7913942 -0.56892979
-2.782326 10.154588 -0.56934446
-3.295404 12.027156 -0.57043338
-4.0408158 14.747668 -0.57215685
-5.2144632 19.031099 -0.5741576
-7.3561401 26.847525 -0.57847345
-12.478167 45.541264 -0.58870196
-0.5803774 2.0203817 -0.56325233
-0.60233432 2.0968173 -0.56517071
-0.62300819 2.1687858 -0.56459904
-0.64304686 2.2385435 -0.5622322
-0.67023546 2.3331914 -0.56469494
-0.69822025 2.4306104 -0.56615996
-0.727391 2.5321584 -0.56686211
-0.75345802 2.6229017 -0.56348741
-0.79038781 2.7514598 -0.56634122
-0.82361376 2.8671243 -0.56442755
-0.86247343 3.0024009 -0.56420815
-0.90850419 3.162641 -0.56612188
-0.95300716 3.3175626 -0.56435806
-1.0129912 3.526376 -0.56861311
-1.0660359 3.7110329 -0.56556898
-1.1332698 3.9450841 -0.56643462
-1.2036045 4.1899295 -0.56470984
-1.2862653 4.4776845 -0.56416512
-1.3896201 4.8374782 -0.56709492
-1.5000135 5.2217746 -0.56646055
-1.6359552 5.6950083 -0.56805795
-1.7914908 6.2364511 -0.5676837
-1.9815837 6.8981934 -0.56785566
-2.2140055 7.7072887 -0.56743884
-2.5164831 8.7602596 -0.56887442
-2.9066639 10.118538 -0.56928414
-3.4429216 11.985332 -0.57041454
-4.225029 14.707967 -0.57258886
-5.4488058 18.968121 -0.5742355
-7.6960773 26.791212 -0.5792554
-13.063889 45.477379 -0.58990812
-0.60179114 2.0018361 -0.5601027
-0.63197416 2.1022387 -0.56868362
-0.654486 2.1771235 -0.56882161
-0.67003351 2.2288418 -0.56182235
-0.69756937 2.3204389 -0.56364191
-0.72367579 2.4072807 -0.562756
-0.75752538 2.5198801 -0.56615591
-0.78720647 2.6186132 -0.56460303
-0.82437778 2.7422621 -0.56649172
-0.86350793 2.872427 -0.56751883
-0.90208328 3.0007467 -0.56593901
-0.9472267 3.1509144 -0.56606495
-0.99609828 3.3134842 -0.56570512
-1.0504276 3.4942086 -0.56546623
-1.113029 3.7024498 -0.56630397
-1.1848371 3.9413168 -0.56794262
-1.2565068 4.1797233 -0.5653739
-1.3451294 4.4745231 -0.56580806
-1.4493452 4.8211932 -0.56723225
-1.5698032 5.2218924 -0.56852436
-1.7013053 5.6593294 -0.56654298
-1.869859 6.2200165 -0.56823772
-2.0652819 6.8700838 -0.56758934
-2.3109169 7.68718 -0.56800753
-2.6277692 8.7411776 -0.56969047
-3.0360849 10.099424 -0.57026607
-3.5950427 11.958777 -0.57121146
-4.4031734 14.646994 -0.57227975
-5.6931033 18.937897 -0.57539636
-8.0355463 26.729948 -0.58002329
-13.649387 45.404182 -0.5910911
-0.63069177 2.0080795 -0.56397682
-0.6542114 2.0829647 -0.56560314
-0.675515 2.1507938 -0.56406999
-0.69638795 2.2172518 -0.56101698
-0.72693419 2.3145089 -0.5643301
-0.75787783 2.4130313 -0.56623614
-0.78539622 2.500648 -0.5639621
-0.81832302 2.6054847 -0.56389934
-0.85654169 2.7271702 -0.56550705
-0.89424795 2.8472245 -0.56466931
-0.93823975 2.9872913 -0.56553441
-0.98580098 3.1387231 -0.5660097
-1.0375236 3.3034046 -0.56611955
-1.097023 3.4928463 -0.56738591
-1.1576585 3.6859055 -0.56590796
-1.2295706 3.9148688 -0.56626737
-1.3098892 4.170598 -0.56627548
-1.4012812 4.4615836 -0.5663079
-1.5066998 4.7972293 -0.56654972
-1.6297079 5.188879 -0.56706905
-1.7703633 5.6367159 -0.56641567
-1.9482757 6.203177 -0.56884491
-2.1471231 6.8362937 -0.56693608
-2.4111731 7.6770105 -0.56940383
-2.7349102 8.7077675 -0.5696618
-3.1602058 10.06188 -0.57029724
-3.7422471 11.915059 -0.57127804
-4.5922022 14.621259 -0.57343715
-5.9294252 18.878885 -0.57577515
-8.3777599 26.674215 -0.58100539
-14.242099 45.345871 -0.59256709
-0.65838307 2.0094776 -0.56660044
-0.67911339 2.0727496 -0.56505418
-0.70503277 2.1518593 -0.56658024
-0.72978759 2.2274144 -0.56581616
-0.75675178 2.3097129 -0.56538683
-0.78515238 2.3963954 -0.56455523
-0.81986219 2.5023346 -0.56657326
-0.85132295 2.5983574 -0.56457973
-0.88876605 2.7126389 -0.56471729
-0.93203747 2.8447094 -0.56640065
-0.97414613 2.9732311 -0.56509763
-1.0242031 3.1260118 -0.56594574
-1.0790983 3.2935598 -0.56666356
-1.1371167 3.4706397 -0.5660072
-1.2051151 3.6781807 -0.56695426
-1.2755022 3.893012 -0.56533176
-1.3609198 4.1537185 -0.56621301
-1.4554397 4.4422064 -0.56607717
-1.5654917 4.778101 -0.56652123
-1.693315 5.1682358 -0.56704569
-1.8414043 5.620225 -0.56699097
-2.0216999 6.1705127 -0.56808627
-2.2381651 6.8311944 -0.56875259
-2.504154 7.6430297 -0.56912428
-2.8406236 8.6699829 -0.56943196
-3.2807412 10.013284 -0.56978625
-3.8912828 11.876742 -0.57169181
-4.769949 14.558555 -0.57323498
-6.1653543 18.817528 -0.57617241
-8.713233 26.594011 -0.58154815
-14.830407 45.264488 -0.59384173
-0.68582904 2.0093994 -0.56891322
-0.70622158 2.0691473 -0.56639665
-0.72928238 2.1367128 -0.56491065
-0.75349808 2.2076619 -0.56310964
-0.78665644 2.3048122 -0.56651223
-0.81458753 2.386647 -0.56457567
-0.85072237 2.4925177 -0.56667626
-0.88691908 2.5985701 -0.56695271
-0.92009574 2.6957736 -0.56351906
-0.96314543 2.8219044 -0.56417543
-1.012099 2.9653327 -0.56591904
-1.0619948 3.1115215 -0.56564385
-1.1199919 3.2814462 -0.56690603
-1.1835057 3.4675343 -0.56783116
-1.249281 3.6602483 -0.56651521
-1.3278871 3.8905549 -0.56730324
-1.416649 4.1506171 -0.56812185
-1.513528 4.4344611 -0.56741893
-1.6285919 4.7715855 -0.56808019
-1.7614759 5.1609201 -0.56857651
-1.9145455 5.609396 -0.56823057
-2.0941067 6.1354895 -0.56718969
-2.3229003 6.8058281 -0.56897575
-2.5963116 7.6068912 -0.56876761
-2.9489641 8.6401224 -0.56980932
-3.4053371 9.9772425 -0.57007509
-4.0393763 11.834904 -0.57202554
-4.9538713 14.514267 -0.57384628
-6.3993826 18.749449 -0.57645375
-9.050498 26.516909 -0.58225179
-15.418156 45.173405 -0.59508908
-0.70754117 1.9925281 -0.56655693
-0.72726452 2.0480714 -0.56303293
-0.75659192 2.1306612 -0.56572765
-0.78353751 2.2065437 -0.56523919
-0.81433737 2.2932801 -0.56609619
-0.84385723 2.3764117 -0.56456643
-0.8807506 2.4803083 -0.56631982
-0.91785443 2.5847974 -0.56636745
-0.95976454 2.7028217 -0.56741649
-1.0014162 2.8201182 -0.56623739
-1.0460109 2.9457028 -0.56458479
-1.1012663 3.1013088 -0.56620622
-1.1623827 3.273421 -0.56794596
-1.2257385 3.4518392 -0.56768626
-1.293583 3.6428981 -0.56624889
-1.3723835 3.8648102 -0.5659672
-1.4675809 4.1328988 -0.56812376
-1.563688 4.4035492 -0.56588101
-1.6847198 4.74439 -0.56726593
-1.8222499 5.1316929 -0.56778222
-1.9842966 5.5880375 -0.56849563
-2.178678 6.1354408 -0.5696187
-2.4039741 6.7699037 -0.56840074
-2.6911132 7.5785246 -0.56907785
-3.0545166 8.6019163 -0.56972361
-3.5319517 9.946435 -0.57075316
-4.187645 11.792953 -0.57244354
-5.1367273 14.465693 -0.57437968
-6.6350999 18.685305 -0.57694644
-9.3904428 26.444708 -0.58315778
-16.008417 45.081783 -0.59643018
-0.72991735 1.9780694 -0.56495512
-0.75686908 2.0511084 -0.56638342
-0.78278273 2.1213341 -0.56576407
-0.81088507 2.1974909 -0.56543171
-0.84008217 2.2766149 -0.56448966
-0.87371773 2.3677671 -0.56502235
-0.91235012 2.4724605 -0.56704664
-0.95151377 2.5785935 -0.5675289
-0.9933542 2.6919808 -0.56766194
-1.0328635 2.7990506 -0.56451476
-1.0814989 2.9308522 -0.56424463
-1.1370778 3.0814705 -0.56509429
-1.200716 3.2539296 -0.56708294
-1.2709528 3.4442706 -0.56896871
-1.3397372 3.6306756 -0.56686687
-1.4205709 3.8497341 -0.56627464
-1.5099864 4.0920491 -0.56501806
-1.6225288 4.397038 -0.56756532
-1.7418998 4.7205324 -0.56693155
-1.8889581 5.1190591 -0.56891131
-2.0489905 5.5527453 -0.56742561
-2.2517788 6.1022997 -0.5690695
-2.4916701 6.7524033 -0.56946075
-2.792176 7.566771 -0.57073027
-3.1618268 8.5685215 -0.5700438
-3.6578374 9.9127054 -0.57135546
-4.333282 11.743155 -0.57256943
-5.3141732 14.401361 -0.57437652
-6.8719563 18.622938 -0.57758623
-9.7251759 26.355137 -0.58377546
-16.598959 44.983028 -0.5977788
-0.75478464 1.9705142 -0.56540531
-0.77814484 2.0315006 -0.56356865
-0.81047541 2.1159058 -0.56693143
-0.83689088 2.1848688 -0.56478912
-0.86831117 2.2668977 -0.56468499
-0.89995134 2.3495004 -0.56326157
-0.93701601 2.446265 -0.56363875
-0.97640306 2.5490928 -0.56363589
-1.0244032 2.6744065 -0.56656945
-1.0698637 2.7930901 -0.56592309
-1.1243017 2.9352114 -0.56770253
-1.1799494 3.0804906 -0.56753248
-1.240407 3.238327 -0.56697911
-1.3095338 3.4187963 -0.56737769
-1.3837445 3.6125379 -0.56664884
-1.4714314 3.8414617 -0.56767637
-1.5653337 4.0866122 -0.56688225
-1.6711413 4.362844 -0.56576127
-1.8046427 4.7113757 -0.56845391
-1.9473526 5.0839481 -0.56762755
-2.1180375 5.5295548 -0.56767434
-2.3225718 6.0635314 -0.56807452
-2.5734794 6.718576 -0.56923366
-2.8723943 7.4989519 -0.56823605
-3.2765307 8.5540295 -0.57171685
-3.778837 9.8653994 -0.57126385
-4.4791837 11.693792 -0.57280481
-5.4948754 14.345455 -0.57479817
-7.113503 18.571203 -0.57865083
-10.060417 26.264704 -0.58446831
-17.184233 44.862827 -0.59894419
-0.77874839 1.9605619 -0.56525457
-0.80598396 2.0291295 -0.5656175
-0.83323061 2.0977252 -0.56476265
-0.86767012 2.1844294 -0.56739062
-0.89510268 2.2534931 -0.56404501
-0.93186456 2.3460441 -0.56513721
-0.96609294 2.4322166 -0.56309646
-1.0151087 2.5556178 -0.56779569
-1.0563613 2.6594746 -0.5661152
-1.1034461 2.7780144 -0.56557494
-1.1598971 2.9201341 -0.56750208
-1.2202411 3.0720549 -0.56869972
-1.2761068 3.2127016 -0.56519711
-1.3460889 3.3888872 -0.56511825
-1.4250883 3.5877745 -0.56547046
-1.5153432 3.8149984 -0.56647646
-1.6168642 4.0705857 -0.56737411
-1.7294549 4.3540421 -0.56733471
-1.8641806 4.6932244 -0.56898665
-2.0117755 5.0648069 -0.56820941
-2.1851153 5.5012035 -0.56747925
-2.3944683 6.0282669 -0.56748629
-2.6543841 6.6826258 -0.56891018
-2.9721193 7.4825497 -0.56971943
-3.3762822 8.500062 -0.57084149
-3.904326 9.8294554 -0.57191926
-4.6246371 11.642896 -0.57305396
-5.6786919 14.296564 -0.57559353
-7.3426881 18.485807 -0.57875955
-10.392149 26.163073 -0.58500618
-17.773193 44.745445 -0.60024947
-0.80626559 1.9592705 -0.5676977
-0.83193141 2.0216398 -0.56633848
-0.86157864 2.0936842 -0.56648421
-0.88943797 2.1613839 -0.5642029
-0.92654449 2.251555 -0.56636876
-0.96313173 2.3404639 -0.56660312
-0.99937981 2.4285488 -0.56504965
-1.0403579 2.5281281 -0.56448776
-1.0924808 2.6547894 -0.56793451
-1.1398635 2.769932 -0.56674016
-1.1989087 2.9134152 -0.5690183
-1.2489905 3.0351167 -0.5646621
-1.317625 3.2019026 -0.56610489
-1.3929193 3.3848717 -0.56726199
-1.4739343 3.5817428 -0.56733346
-1.5644292 3.8016503 -0.56730801
-1.6650246 4.046103 -0.56677246
-1.7831109 4.3330588 -0.56741464
-1.9131294 4.6490116 -0.56643564
-2.0751731 5.0427866 -0.56855881
-2.2539961 5.4773369 -0.56783342
-2.4745152 6.0132098 -0.56889021
-2.7403111 6.6591091 -0.56973374
-3.0639334 7.4455295 -0.56972623
-3.4805543 8.4579411 -0.57084388
-4.026051 9.7835293 -0.57208437
-4.7722931 11.596939 -0.57363695
-5.8579335 14.235106 -0.57597572
-7.5699062 18.395296 -0.57879627
-10.728913 26.071859 -0.58587223
-18.357244 44.609131 -0.60140347
-0.829705 1.9478239 -0.56729436
-0.85546833 2.0083063 -0.56550735
-0.8900829 2.0895677 -0.5682888
-0.92093933 2.1620066 -0.56727862
-0.95340276 2.2382181 -0.56592017
-0.99167371 2.3280632 -0.56651032
-1.0346832 2.429033 -0.56807959
-1.0825262 2.5413496 -0.57036895
-1.1233095 2.6370931 -0.56706077
-1.1748559 2.7581038 -0.56723303
-1.2246574 2.8750184 -0.56441754
-1.2920765 3.0332921 -0.56723559
-1.36159 3.1964827 -0.56806386
-1.4352868 3.3694937 -0.56759965
-1.5192227 3.5665429 -0.56784195
-1.6092765 3.7779541 -0.56668198
-1.710126 4.0147095 -0.56527781
-1.8348533 4.3075204 -0.56698203
-1.9755521 4.6378264 -0.56798965
-2.1331537 5.0078135 -0.56753016
-2.3273036 5.4636016 -0.56933326
-2.5508492 5.9884 -0.56946743
-2.8145037 6.607358 -0.56822407
-3.1580534 7.4138784 -0.57023269
-3.5840261 8.4138966 -0.57080245
-4.1499157 9.7423849 -0.57261908
-4.9113255 11.529878 -0.5732637
-6.0299501 14.155973 -0.57573044
-7.8070803 18.327982 -0.57965505
-11.062759 25.971046 -0.58661932
-18.949038 44.484955 -0.60282511
-0.84798652 1.9247521 -0.56356907
-0.88172495 2.0013313 -0.56655347
-0.91037875 2.0663695 -0.56498146
-0.94191217 2.1379437 -0.56396127
-0.98008561 2.2245896 -0.56547868
-1.0166833 2.3076587 -0.5645445
-1.0574846 2.400269 -0.56435102
-1.0996742 2.4960306 -0.56318998
-1.1548283 2.6212189 -0.56665802
-1.2137159 2.7548816 -0.56959665
-1.2659943 2.8735425 -0.56714112
-1.3291873 3.0169773 -0.56719822
-1.3986815 3.1747146 -0.56720895
-1.4784083 3.3556778 -0.56829172
-1.5648934 3.5519807 -0.56854415
-1.6623091 3.7730942 -0.56897599
-1.7691146 4.0155206 -0.56841207
-1.8819832 4.2717085 -0.56527156
-2.0302157 4.6081653 -0.56737161
-2.1970782 4.986908 -0.56817973
-2.3859532 5.4156146 -0.56734711
-2.6203284 5.9475975 -0.5686084
-2.9025724 6.588233 -0.56960571
-3.2498739 7.3765345 -0.57039094
-3.6947715 8.3863592 -0.5719732
-4.2735806 9.7001352 -0.57318115
-5.0665379 11.499982 -0.57483137
-6.2123437 14.100721 -0.57654661
-8.0378704 18.244286 -0.58009005
-11.391911 25.857256 -0.58716875
-19.536951 44.344791 -0.60413557
-0.87820137 1.9287038 -0.56784511
-0.90299982 1.9831661 -0.56451178
-0.93502426 2.053498 -0.56456316
-0.96986842 2.1300228 -0.56497502
-1.0164328 2.2322874 -0.5705694
-1.0467436 2.298856 -0.5654971
-1.0924957 2.3993366 -0.56724739
-1.1359725 2.4948204 -0.56602591
-1.1914369 2.616631 -0.56879038
-1.2385699 2.7201443 -0.56552052
-1.305166 2.8664026 -0.56885642
-1.3682746 3.0050015 -0.56806695
-1.4364777 3.154789 -0.56676197
-1.5118532 3.3203285 -0.56541079
-1.6063671 3.5278997 -0.56780839
-1.7080458 3.7512062 -0.56879956
-1.8170327 3.9905632 -0.56799906
-1.9391005 4.2586479 -0.56665576
-2.086344 4.5820236 -0.56726879
-2.2586582 4.9604602 -0.56828779
-2.4627552 5.4086971 -0.56975186
-2.6986825 5.9268403 -0.56975341
-2.9841244 6.5537271 -0.56975186
-3.3443956 7.344954 -0.57108575
-3.7934124 8.3310833 -0.57134145
-4.393436 9.6488533 -0.57329983
-5.207561 11.436833 -0.57483226
-6.3889956 14.031497 -0.57688481
-8.2708435 18.164408 -0.58074003
-11.72667 25.754086 -0.58805597
-20.123203 44.194534 -0.60541379
-0.90819967 1.9312637 -0.5718435
-0.92409831 1.9650718 -0.56255317
-0.96181822 2.0452821 -0.56551319
-0.99568021 2.1172888 -0.56480217
-1.0360619 2.2031593 -0.56633776
-1.0801717 2.296958 -0.56825453
-1.1216587 2.3851788 -0.56711823
-1.1695458 2.4870098 -0.56747377
-1.211578 2.5763903 -0.56323892
-1.2711505 2.7030694 -0.56517762
-1.3328509 2.8342738 -0.56569004
-1.3995796 2.9761708 -0.56582743
-1.4748706 3.1362751 -0.56665117
-1.5565407 3.3099444 -0.56685901
-1.6517713 3.51245 -0.56854784
-1.7486334 3.7184248 -0.5670464
-1.8650695 3.9660232 -0.56772751
-1.9939544 4.2400937 -0.56740648
-2.1458917 4.5631847 -0.5681603
-2.321363 4.9363198 -0.56874937
-2.5252011 5.3697762 -0.56887984
-2.7719555 5.8944936 -0.56987745
-3.0699635 6.5281997 -0.57077122
-3.4302778 7.2943993 -0.57039148
-3.9010944 8.295579 -0.57215303
-4.5126367 9.5960083 -0.57341361
-5.3505635 11.377838 -0.5751304
-6.572649 13.976572 -0.57790571
-8.5082979 18.09268 -0.58174777
-12.053098 25.630608 -0.5885762
-20.704268 44.0271 -0.6065619
-0.92189997 1.8993953 -0.56572115
-0.95337826 1.9642501 -0.56563127
-0.98683596 2.0331833 -0.56548029
-1.0259234 2.1137152 -0.56717116
-1.0609455 2.1858714 -0.56520462
-1.1075916 2.2819767 -0.56787473
-1.1523081 2.3741064 -0.56781161
-1.2017905 2.4760551 -0.56830317
-1.2473423 2.5699058 -0.56513172
-1.3103173 2.6996534 -0.56778932
-1.371577 2.8258672 -0.56733549
-1.43616 2.9589279 -0.56586385
-1.515698 3.1228004 -0.56754112
-1.5928621 3.2817822 -0.56534755
-1.6949205 3.4920535 -0.56857693
-1.7976259 3.7036579 -0.56812239
-1.9147582 3.9449861 -0.56804353
-2.0491302 4.2218337 -0.56829178
-2.1994884 4.5316176 -0.56755441
-2.3760695 4.8954287 -0.56736141
-2.5920262 5.3403654 -0.56909764
-2.8396704 5.8505874 -0.56896549
-3.1448951 6.4794436 -0.56984639
-3.5185206 7.2492261 -0.57019919
-4.0026684 8.2467184 -0.57213449
-4.6301217 9.539463 -0.57339352
-5.4919925 11.315181 -0.57533336
-6.7391248 13.884654 -0.57748783
-8.7421503 18.011497 -0.58254987
-12.384391 25.515625 -0.58938819
-21.297411 43.879166 -0.60808575
-0.94876546 1.8950694 -0.56786454
-0.97533154 1.9481325 -0.56440091
-1.0070603 2.0115077 -0.56285334
-1.0493164 2.0959103 -0.56581306
-1.0892669 2.1757076 -0.56599706
-1.1261047 2.2492876 -0.56314325
-1.17884 2.3546214 -0.56657547
-1.226424 2.449666 -0.56566489
-1.2864984 2.569659 -0.56851321
-1.3361741 2.6688814 -0.56473029
-1.4116739 2.8196852 -0.56953633
-1.4757928 2.9477565 -0.567155
-1.5527848 3.1015408 -0.56710464
-1.6366504 3.2690547 -0.5665791
-1.739311 3.4741092 -0.56909448
-1.8392743 3.6737766 -0.56696516
-1.9642293 3.9233623 -0.56836474
-2.1048796 4.204298 -0.56937236
-2.2616336 4.5173993 -0.56921369
-2.4421155 4.8778949 -0.56876665
-2.6592178 5.3115363 -0.56946701
-2.919152 5.8307304 -0.57048202
-3.226651 6.4449301 -0.57025737
-3.6166751 7.2239666 -0.57166719
-4.1064353 8.2022161 -0.57250696
-4.7463365 9.4803581 -0.57330561
-5.6297102 11.244814 -0.57523179
-6.91535 13.812757 -0.57799059
-8.9646931 17.906128 -0.58266312
-12.711325 25.389669 -0.59004462
-21.874277 43.691803 -0.60917073
-0.97208172 1.8834293 -0.56791544
-1.000567 1.93862 -0.56516677
-1.0343817 2.0041368 -0.56430727
-1.0784796 2.0895774 -0.5676406
-1.1155055 2.1613157 -0.56577867
-1.1531494 2.2342515 -0.5628863
-1.2122873 2.3488326 -0.56872648
-1.2588183 2.4389875 -0.5667305
-1.3118135 2.5416667 -0.5658462
-1.3761172 2.6662567 -0.56771249
-1.4369875 2.7841942 -0.56589389
-1.5146514 2.9346697 -0.56817758
-1.5889976 3.0787168 -0.56646121
-1.6734711 3.2423861 -0.56548071
-1.7784088 3.4457052 -0.56798089
-1.8909777 3.66381 -0.56897247
-2.0020599 3.879034 -0.5654667
-2.1521301 4.1697984 -0.56824106
-2.3145218 4.4844356 -0.56860328
-2.5030231 4.8496609 -0.56902033
-2.7190289 5.268177 -0.56835991
-2.9821069 5.7778959 -0.56885743
-3.3113673 6.4158449 -0.57124346
