# .PCD v0.7 - Point Cloud Data file format
VERSION 0.7
FIELDS x y z
SIZE 4 4 4
TYPE F F F
COUNT 1 1 1
WIDTH 1420
HEIGHT 1
VIEWPOINT 0 0 0 1 0 0 0
POINTS 1420
DATA ascii
-2.8728492 -0.31922901 -0.57184041
-2.9994516 -0.33329698 -0.57101905
-3.1339061 -0.34823745 -0.56951308
-3.3005073 -0.36675006 -0.57133096
-3.4694326 -0.38552094 -0.57074368
-3.6651413 -0.40726796 -0.57151288
-3.8834333 -0.4315244 -0.57233948
-4.1355934 -0.45954427 -0.57422012
-4.3993268 -0.48885012 -0.57339233
-4.6986003 -0.52210516 -0.57249051
-5.0777497 -0.56423604 -0.57564551
-5.4863782 -0.60964257 -0.57555175
-5.9859262 -0.66515195 -0.57739991
-6.5648327 -0.72947961 -0.57788259
-7.2709341 -0.80794114 -0.57881504
-8.1615257 -0.90690303 -0.58107984
-9.3075361 -1.0342469 -0.58449554
-10.774549 -1.1972604 -0.58621567
-12.858477 -1.428825 -0.5918029
-15.874762 -1.7639924 -0.59764665
-14.542853 -1.6159917 -0.42575762
-13.732201 -1.5259126 -0.28712097
-13.358893 -1.484431 -0.16757394
-13.078471 -1.4532707 -0.054682925
-12.890886 -1.4324263 0.053898603
-12.736835 -1.4153084 0.15977085
-12.627382 -1.4031459 0.26402077
-12.542264 -1.3936876 0.36718822
-12.479638 -1.3867288 0.46982846
-12.439324 -1.3822491 0.57251167
-12.401713 -1.3780698 0.67474562
-12.395567 -1.3773868 0.778418
-12.397659 -1.3776193 0.88268179
-12.439066 -1.3822204 0.990233
-12.453547 -1.3838295 1.0962485
-12.525967 -1.3918767 1.2082493
-12.616811 -1.4019712 1.3235739
-12.727776 -1.4143016 1.4429002
-12.940714 -1.4379631 1.5767325
-13.27669 -1.4752966 1.7304358
-14.939121 -1.6600248 2.0742714
-14.94558 -1.6607424 2.2026758
-2.11325 -0.26116523 -0.5705505
-2.1791334 -0.2693074 -0.56882226
-2.2593582 -0.27922195 -0.56961602
-2.3320386 -0.28820416 -0.56723052
-2.4209969 -0.29919803 -0.56745505
-2.5284615 -0.31247899 -0.5703662
-2.6215415 -0.32398224 -0.56835145
-2.745362 -0.33928457 -0.57118338
-2.8487909 -0.35206681 -0.56787038
-2.9909821 -0.36963943 -0.57022882
-3.1228738 -0.38593921 -0.56832767
-3.3043337 -0.40836489 -0.57281929
-3.4723525 -0.42912942 -0.57204878
-3.6637955 -0.45278883 -0.57212794
-3.8753917 -0.47893891 -0.57197905
-4.1096439 -0.50788891 -0.57144105
-4.398119 -0.54353994 -0.57406265
-4.706696 -0.58167535 -0.574305
-5.0709229 -0.62668818 -0.57570159
-5.4820242 -0.67749399 -0.57592535
-5.9784985 -0.73885059 -0.57751608
-6.5555964 -0.81017101 -0.57790279
-7.2768464 -0.89930642 -0.58012217
-8.1398354 -1.0059587 -0.58037239
-9.279995 -1.1468649 -0.58360749
-10.763056 -1.3301483 -0.58643597
-12.821433 -1.5845321 -0.59095001
-15.861983 -1.9602975 -0.59802788
-13.969487 -1.726414 -0.40956223
-13.339203 -1.6485206 -0.27930665
-13.001936 -1.6068395 -0.16333178
-12.747258 -1.5753653 -0.053375032
-12.591949 -1.5561715 0.05272473
-12.47632 -1.5418814 0.15672892
-12.381422 -1.5301535 0.25925189
-12.315729 -1.5220349 0.36107677
-12.263633 -1.5155966 0.46236303
-12.237097 -1.5123173 0.56401753
-12.219746 -1.5101728 0.66580522
-12.210234 -1.5089973 0.76788664
-12.218453 -1.5100131 0.87117893
-12.222937 -1.5105672 0.97443265
-12.231261 -1.511596 1.078236
-12.287447 -1.5185397 1.1869533
-12.340466 -1.5250921 1.2964531
-12.44536 -1.5380553 1.4129211
-12.586822 -1.5555378 1.5358278
-12.806501 -1.5826868 1.6715631
-13.234709 -1.6356068 1.8402702
-14.539845 -1.7969015 2.145973
-2.1108789 -0.28726509 -0.57082087
-2.1952076 -0.29874122 -0.57393366
-2.259588 -0.30750263 -0.57058412
-2.3238404 -0.31624657 -0.56613952
-2.4345145 -0.33130804 -0.57153517
-2.5222342 -0.3432456 -0.56987053
-2.6116397 -0.3554126 -0.56710941
-2.7170525 -0.36975801 -0.56619662
-2.8450665 -0.3871792 -0.56803411
-2.9915755 -0.40711728 -0.57125318
-3.1263821 -0.42546284 -0.56987518
-3.286833 -0.44729826 -0.57069582
-3.4632998 -0.47131324 -0.57146901
-3.6601064 -0.49809626 -0.57246506
-3.8568618 -0.5248723 -0.57015359
-4.1107583 -0.55942452 -0.57250917
-4.3964405 -0.59830242 -0.57476038
-4.7050128 -0.64029539 -0.5750168
-5.0339737 -0.68506294 -0.57241982
-5.4654727 -0.74378479 -0.57510388
-5.9657655 -0.81186861 -0.57720685
-6.5440831 -0.89057064 -0.57780951
-7.2580519 -0.98773319 -0.5795483
-8.1450338 -1.1084408 -0.58167088
-9.2732897 -1.2619827 -0.58411759
-10.74773 -1.4626362 -0.58653659
-12.798772 -1.7417581 -0.59084803
-15.832468 -2.1546075 -0.5978688
-13.586512 -1.8489602 -0.39897045
-12.999109 -1.7690217 -0.27262038
-12.687701 -1.7266428 -0.15963896
-12.514113 -1.7030197 -0.052482534
-12.372 -1.6836797 0.051886529
-12.282591 -1.6715122 0.15454179
-12.250177 -1.6671011 0.2569136
-12.228407 -1.6641384 0.35908946
-12.252436 -1.6674085 0.46267891
-12.469892 -1.6970016 0.57566547
-12.477876 -1.698088 0.68095589
-12.468718 -1.6968418 0.78539515
-12.438733 -1.6927613 0.88830191
-12.445202 -1.6936415 0.9937371
-12.210238 -1.6616658 1.0781025
-12.185913 -1.6583555 1.1790259
-12.200701 -1.660368 1.2838176
-12.241852 -1.6659682 1.3920373
-12.34471 -1.6799659 1.5086921
-12.488863 -1.6995834 1.632708
-12.749401 -1.7350394 1.7756211
-14.133488 -1.9233968 2.0893304
-14.211824 -1.9340576 2.2228241
-2.0938909 -0.31122151 -0.56721902
-2.1638999 -0.32162717 -0.56673944
-2.2439535 -0.33352578 -0.56762886
-2.3378489 -0.34748173 -0.57055008
-2.4147007 -0.35890448 -0.5678767
-2.5183172 -0.37430531 -0.56998235
-2.6156259 -0.38876861 -0.56897002
-2.7245388 -0.40495667 -0.56875134
-2.8602328 -0.4251253 -0.57206261
-2.9854867 -0.44374219 -0.57108927
-3.1178043 -0.46340895 -0.56930721
-3.276747 -0.4870331 -0.56994134
-3.46644 -0.51522779 -0.57298923
-3.6436365 -0.54156506 -0.57088745
-3.8653553 -0.57451975 -0.57241023
-4.0965981 -0.60889012 -0.5715366
-4.3813481 -0.65121341 -0.57379079
-4.6855488 -0.6964277 -0.5736413
-5.0492244 -0.7504819 -0.57515991
-5.4618521 -0.81181204 -0.57572979
-5.9576478 -0.88550371 -0.57743126
-6.5153017 -0.96838951 -0.57627612
-7.2476401 -1.0772393 -0.57973081
-8.1284018 -1.2081496 -0.58150005
-9.2445707 -1.3740493 -0.58332872
-10.719559 -1.5932814 -0.58602399
-12.77039 -1.8981028 -0.59057063
-15.800911 -2.3485384 -0.59772247
-13.287248 -1.9749249 -0.39086607
-12.720015 -1.8906153 -0.2672345
-12.486363 -1.8558871 -0.15738094
-12.343341 -1.8346292 -0.051857024
-12.294385 -1.8273526 0.051651351
-12.325723 -1.8320105 0.15535618
-12.531177 -1.8625476 0.26326719
-15.87841 -2.3600576 1.2700967
-15.677841 -2.3302462 1.3866994
-15.434064 -2.294013 1.4959111
-12.496234 -1.8573542 1.3172188
-12.255396 -1.8215576 1.3960189
-12.240085 -1.8192818 1.4985262
-12.295679 -1.8275449 1.6102686
-12.477356 -1.8545482 1.7407775
-12.844067 -1.9090536 1.9020439
-13.833545 -2.0561228 2.1674492
-2.088913 -0.33678341 -0.56694949
-2.1720302 -0.35018393 -0.56995356
-2.2293122 -0.3594192 -0.56500047
-2.3359277 -0.37660816 -0.57116824
-2.4129717 -0.38902956 -0.56855214
-2.5038273 -0.40367767 -0.56778336
-2.6128826 -0.42126003 -0.56945705
-2.7229083 -0.43899882 -0.56949472
-2.8405402 -0.45796394 -0.56920719
-2.9775476 -0.48005289 -0.57065666
-3.1082821 -0.50113046 -0.56865072
-3.2572849 -0.52515328 -0.56763643
-3.4473021 -0.5557887 -0.57091236
-3.639771 -0.58681935 -0.57136917
-3.8495586 -0.62064219 -0.57115793
-4.0973878 -0.66059828 -0.5727368
-4.3610001 -0.70309895 -0.57221496
-4.6670709 -0.75244498 -0.57246858
-5.0328093 -0.8114109 -0.57438314
-5.4530134 -0.87915796 -0.57589412
-5.9440985 -0.95833278 -0.57721657
-6.5279675 -1.0524666 -0.57849735
-7.2348018 -1.1664255 -0.57980734
-8.1020947 -1.3062541 -0.58072329
-9.218029 -1.4861697 -0.58276302
-10.699454 -1.7250113 -0.5860402
-12.756339 -2.0566311 -0.59104568
-15.77775 -2.5437558 -0.59798437
-12.905394 -2.0806625 -0.38035709
-12.529222 -2.0200143 -0.26372802
-12.375647 -1.9952543 -0.15628286
-12.350598 -1.9912158 -0.051986452
-12.58654 -2.0292554 0.052979585
-15.296288 -2.4661326 0.19316548
-15.53229 -2.5041816 0.3269397
-15.719807 -2.5344141 0.4633055
-15.748621 -2.5390594 0.59688038
-15.781689 -2.5443907 0.73122066
-15.763803 -2.5415072 0.86342931
-15.757695 -2.5405226 0.9962002
-15.611499 -2.5169523 1.118965
-15.541925 -2.5057352 1.2455521
-15.319619 -2.4698942 1.3575985
-15.036375 -2.4242282 1.4601449
-14.649858 -2.3619123 1.547175
-12.546504 -2.0228007 1.4319042
-12.466961 -2.0099764 1.5292125
-12.23478 -1.9725432 1.6053483
-12.320661 -1.9863893 1.7221937
-12.565149 -2.0258067 1.8642876
-13.615766 -2.1951916 2.1373951
-2.0698571 -0.35987654 -0.56293607
-2.1678839 -0.37691998 -0.57003862
-2.2423968 -0.38987523 -0.56948864
-2.3243406 -0.40412241 -0.56950706
-2.4002805 -0.41732574 -0.56672806
-2.485167 -0.43208456 -0.56471395
-2.6120558 -0.45414612 -0.57045078
-2.725697 -0.47390443 -0.57125366
-2.8257282 -0.49129638 -0.56740677
-2.9599187 -0.51462746 -0.56844783
-3.1161695 -0.54179406 -0.57126933
-3.2769208 -0.56974316 -0.57223594
-3.4467945 -0.59927827 -0.57200539
-3.6461558 -0.63394034 -0.57355177
-3.8572447 -0.67064142 -0.57347852
-4.0842671 -0.71011281 -0.57208008
-4.3514247 -0.75656223 -0.57213598
-4.6740885 -0.8126623 -0.57451165
-5.0141129 -0.87178075 -0.57342947
-5.4426804 -0.94629383 -0.57598817
-5.9022489 -1.026197 -0.57433462
-6.499001 -1.1299514 -0.57711804
-7.2177095 -1.25491 -0.57963037
-8.0962572 -1.4076591 -0.58150154
-9.208807 -1.6010929 -0.58338058
-10.696594 -1.8597676 -0.58709174
-12.734875 -2.2141542 -0.591268
-15.712292 -2.7318239 -0.59673148
-12.725224 -2.2124763 -0.3758204
-12.445355 -2.1638167 -0.26250294
-12.393783 -2.15485 -0.15683463
-12.643085 -2.1981952 -0.053327344
-14.174006 -2.4643693 0.059784617
-14.622975 -2.5424294 0.18504351
-15.053881 -2.6173489 0.31752309
-15.219676 -2.6461751 0.44949028
-15.33804 -2.6667545 0.58251792
-15.335864 -2.6663761 0.7120294
-15.361973 -2.6709156 0.84315509
-15.329181 -2.6652141 0.97110802
-15.295964 -2.6594388 1.0986097
-15.083676 -2.6225295 1.2113202
-14.893215 -2.5894148 1.322533
-14.644318 -2.5461402 1.4250057
-14.334699 -2.4923081 1.517013
-13.916741 -2.4196398 1.5915616
-12.633187 -2.1964741 1.5527976
-12.612092 -2.1928065 1.6582687
-12.285314 -2.1359909 1.7207941
-12.397904 -2.1555667 1.843267
-2.080945 -0.38822263 -0.56720704
-2.1572852 -0.40246469 -0.56851006
-2.2180619 -0.41380325 -0.56455797
-2.3045554 -0.42993954 -0.56591189
-2.3992596 -0.44760761 -0.5677436
-2.4859219 -0.4637754 -0.56613857
-2.6113698 -0.48717904 -0.57156605
-2.7122679 -0.50600266 -0.56970012
-2.8361254 -0.5291096 -0.57075781
-2.9651659 -0.5531835 -0.57071877
-3.1148374 -0.58110631 -0.57229179
-3.263128 -0.60877156 -0.57109141
-3.4291816 -0.6397506 -0.57034487
-3.6437862 -0.6797874 -0.57445049
-3.834039 -0.71528107 -0.57129282
-4.0851941 -0.76213682 -0.57347924
-4.3441811 -0.81045359 -0.57245058
-4.6597366 -0.86932385 -0.57401812
-5.0267611 -0.93779618 -0.57615113
-5.4320874 -1.0134141 -0.57614237
-5.9041872 -1.1014894 -0.57579768
-6.503242 -1.2132496 -0.5787757
-7.1954322 -1.3423851 -0.57912314
-8.0732441 -1.5061502 -0.58113492
-9.2010441 -1.7165536 -0.58418185
-10.657421 -1.9882563 -0.58623928
-12.680057 -2.3656006 -0.59002876
-15.69245 -2.9275949 -0.59729993
-12.652653 -2.3604882 -0.37450603
-12.462316 -2.3249786 -0.26344377
-12.573247 -2.345674 -0.15945856
-12.740464 -2.3768702 -0.053857282
-13.867383 -2.5871091 0.058621064
-14.231611 -2.6550598 0.18049057
-14.471631 -2.6998379 0.30591914
-14.654399 -2.7339354 0.43375576
-14.799407 -2.7609882 0.56330818
-14.884797 -2.7769186 0.6926198
-14.892554 -2.7783656 0.81920385
-14.853545 -2.7710881 0.94306374
-14.777179 -2.7568412 1.0637032
-14.663136 -2.7355652 1.18016
-14.524117 -2.7096298 1.2926177
-14.324866 -2.6724575 1.3970127
-14.069395 -2.6247966 1.4922392
-13.678914 -2.5519481 1.5678331
-13.194763 -2.4616246 1.6254208
-12.645299 -2.3591161 1.6663229
-12.396716 -2.3127403 1.74025
-12.394708 -2.3123655 1.8468795
-2.0878773 -0.41614407 -0.57044822
-2.1543677 -0.4293966 -0.56908965
-2.2291856 -0.44430888 -0.56873691
-2.3066833 -0.45975527 -0.56777972
-2.4011514 -0.47858411 -0.5695408
-2.4932001 -0.49693075 -0.56914461
-2.5893157 -0.51608801 -0.56808496
-2.7188771 -0.54191148 -0.57244474
-2.8171928 -0.56150723 -0.56829429
-2.9526041 -0.58849657 -0.56965065
-3.1026773 -0.61840838 -0.57141155
-3.24353 -0.64648235 -0.56900978
-3.4066744 -0.67899936 -0.56794721
-3.6222532 -0.72196734 -0.57241207
-3.8285456 -0.76308441 -0.57182926
-4.0704741 -0.81130421 -0.57276994
-4.3363876 -0.8643046 -0.57278079
-4.6421309 -0.92524362 -0.5732075
-4.9842782 -0.9934386 -0.57263881
-5.4094715 -1.0781858 -0.57510632
-5.9064069 -1.1772321 -0.57738221
-6.4718242 -1.289928 -0.57734758
-7.1871653 -1.4325057 -0.57983166
-8.0506182 -1.6046045 -0.58088267
-9.1796761 -1.8296418 -0.58420938
-10.634133 -2.1195362 -0.58634764
-12.663916 -2.524101 -0.59067726
-15.663126 -3.1218872 -0.5975998
-12.657693 -2.522861 -0.37554505
-12.509459 -2.4933155 -0.26506838
-12.692147 -2.5297282 -0.16134882
-12.791575 -2.5495455 -0.054201771
-13.313313 -2.6535356 0.056412533
-13.898005 -2.7700729 0.17667827
-14.139031 -2.8181131 0.29959813
-14.281915 -2.8465917 0.42373461
-14.388202 -2.8677762 0.54895723
-14.455673 -2.8812244 0.67424941
-14.479619 -2.8859971 0.79838103
-14.468972 -2.8838749 0.9208287
-14.43847 -2.8777955 1.0417904
-14.35293 -2.8607461 1.1579368
-14.233113 -2.8368649 1.2697276
-14.054906 -2.8013456 1.3739406
-13.919751 -2.7744074 1.4798741
-13.534103 -2.6975422 1.5549197
-12.927284 -2.5765944 1.5962532
-12.69041 -2.5293818 1.6762391
-12.50555 -2.4925368 1.7596977
-12.408708 -2.4732347 1.8533571
-2.0779619 -0.44079971 -0.56917703
-2.1371009 -0.45334494 -0.56595826
-2.2238002 -0.47173655 -0.56879985
-2.2966034 -0.48718032 -0.56673032
-2.3948643 -0.50802451 -0.56948817
-2.4844098 -0.52701986 -0.56857443
-2.5986836 -0.55126089 -0.57158422
-2.7107301 -0.57502937 -0.57217485
-2.830735 -0.6004861 -0.57247227
-2.9563611 -0.62713528 -0.57182008
-3.0949707 -0.65653861 -0.57143581
-3.2488298 -0.68917692 -0.57138294
-3.4261901 -0.7268005 -0.57264745
-3.6082053 -0.7654115 -0.57163626
-3.8232341 -0.81102574 -0.57248217
-4.0550065 -0.86019182 -0.57203859
-4.3369184 -0.919994 -0.57430178
-4.6433439 -0.98499632 -0.57480943
-4.9901724 -1.0585693 -0.57476795
-5.3920188 -1.1438133 -0.57470268
-5.8958769 -1.2506971 -0.57781255
-6.4567399 -1.3696735 -0.57746077
-7.1734195 -1.5217032 -0.58018845
-8.0308571 -1.7035922 -0.58092439
-9.1424694 -1.9393994 -0.58331513
-10.599025 -2.2483797 -0.5858919
-12.643273 -2.6820278 -0.59120804
-15.606952 -3.3107152 -0.59696466
-12.713957 -2.6970217 -0.37816972
-12.556813 -2.663687 -0.26674569
-12.717049 -2.6976779 -0.16207482
-12.827786 -2.7211688 -0.054492872
-13.000411 -2.7577877 0.055226188
-13.435114 -2.8500016 0.17122634
-13.753456 -2.9175317 0.29216611
-13.928143 -2.9545882 0.41428503
-14.050339 -2.9805095 0.53742433
-14.113179 -2.9938402 0.65994179
-14.150167 -3.0016863 0.78219163
-14.14599 -3.0008004 0.9025538
-14.063258 -2.9832504 1.0172874
-14.043076 -2.9789689 1.1358083
-13.872021 -2.942683 1.2406489
-13.807364 -2.928967 1.3531605
-13.531325 -2.8704109 1.4422222
-13.221452 -2.8046772 1.5228467
-12.82686 -2.7209723 1.5878643
-12.73898 -2.7023304 1.6869165
-12.537265 -2.6595399 1.7686282
-12.440726 -2.6390615 1.8628454
-2.0622799 -0.46404231 -0.56640172
-2.1338444 -0.48014534 -0.56661654
-2.2125564 -0.49785668 -0.56744689
-2.2976744 -0.51700944 -0.56852049
-2.3924336 -0.53833157 -0.57044119
-2.4841342 -0.5589655 -0.57004124
-2.5898929 -0.58276272 -0.57118362
-2.7085052 -0.60945219 -0.57324374
-2.8257396 -0.63583159 -0.57299984
-2.9293532 -0.65914613 -0.56812102
-3.0658319 -0.68985575 -0.56757915
-3.2292297 -0.72662258 -0.56946415
-3.4041805 -0.76598907 -0.57049996
-3.6044395 -0.81105012 -0.57257634
-3.8042517 -0.85601068 -0.57117271
-4.0536757 -0.91213465 -0.57338977
-4.3226056 -0.97264767 -0.57394677
-4.6261802 -1.0409564 -0.57422578
-4.9810729 -1.1208122 -0.5752638
-5.3759522 -1.2096657 -0.57453221
-5.8557134 -1.3176188 -0.5754208
-6.4300971 -1.4468633 -0.57662553
-7.1331511 -1.6050603 -0.57848406
-8.0003147 -1.8001845 -0.58027238
-9.1246872 -2.0531843 -0.58374727
-10.577556 -2.3801005 -0.58627862
-12.588208 -2.8325257 -0.59021717
-15.569106 -3.5032701 -0.59711963
-20.362396 -4.5818286 -0.60729831
-12.602259 -2.8356874 -0.26843154
-12.697517 -2.8571219 -0.1622614
-12.856898 -2.8929849 -0.054763515
-12.892265 -2.900943 0.054914162
-13.078697 -2.942893 0.16713248
-13.311264 -2.9952235 0.28353351
-13.527249 -3.0438235 0.40344346
-13.683016 -3.0788732 0.52478272
-13.730124 -3.0894732 0.64375764
-13.72219 -3.0876877 0.76057518
-13.731349 -3.0897486 0.87845612
-13.708854 -3.084687 0.99431956
-13.676243 -3.0773492 1.1091156
-13.572648 -3.0540388 1.217141
-13.394272 -3.0139017 1.316209
-13.182656 -2.9662852 1.4088409
-12.931995 -2.9098828 1.4935154
-12.781545 -2.8760293 1.5865126
-12.708964 -2.8596978 1.6874706
-12.532126 -2.8199067 1.772661
-12.529088 -2.8192229 1.8811251
-2.0645471 -0.49129847 -0.56864065
-2.1373956 -0.50863415 -0.56917733
-2.2124009 -0.52648312 -0.56902432
-2.2737117 -0.54107314 -0.56419486
-2.3789349 -0.56611305 -0.56883937
-2.4873321 -0.59190828 -0.572402
-2.5815613 -0.61433184 -0.57096905
-2.6750317 -0.63657492 -0.56777298
-2.790189 -0.66397882 -0.56740367
-2.9256074 -0.69620425 -0.56901181
-3.0603137 -0.72826016 -0.56817245
-3.2194285 -0.76612461 -0.569354
-3.4130712 -0.81220555 -0.57362026
-3.5928276 -0.85498202 -0.57235861
-3.8059838 -0.90570664 -0.57306159
-4.0391178 -0.96118534 -0.57295907
-4.3138456 -1.026562 -0.57441634
-4.6055331 -1.0959747 -0.57329243
-4.9741039 -1.1836832 -0.57609642
-5.3683505 -1.2775017 -0.57535517
-5.8531799 -1.392876 -0.57681125
-6.426744 -1.5293666 -0.57796758
-7.1153135 -1.693225 -0.5786823
-7.9815836 -1.8993704 -0.5805639
-9.0919962 -2.1636145 -0.58331382
-10.555138 -2.5117967 -0.5867036
-12.559623 -2.9888024 -0.59055543
-15.522852 -3.6939595 -0.59704262
-20.313503 -4.8339868 -0.60756695
-12.73068 -3.0295088 -0.27193987
-12.662518 -3.0132883 -0.16227536
-12.783496 -3.0420773 -0.054606069
-12.897527 -3.0692132 0.055093162
-12.948863 -3.0814297 0.16594499
-13.03294 -3.1014373 0.27839643
-13.141874 -3.1273601 0.39306703
-13.255499 -3.1543994 0.5098353
-13.334741 -3.1732564 0.62700158
-13.389072 -3.1861858 0.74422693
-13.388622 -3.1860788 0.85897177
-13.349935 -3.1768723 0.97104669
-13.300257 -3.1650503 1.0816983
-13.184907 -3.1376009 1.1857402
-13.065191 -3.1091123 1.2875309
-12.92979 -3.0768907 1.3857554
-12.861899 -3.060735 1.4896541
-12.794024 -3.0445828 1.5925882
-12.625288 -3.0044289 1.6811385
-12.546373 -2.9856496 1.7797347
-2.0687857 -0.51926535 -0.57152355
-2.1271975 -0.53392673 -0.56816697
-2.2003634 -0.55229133 -0.56763208
-2.2844694 -0.57340199 -0.56857085
-2.349391 -0.5896973 -0.56346631
-2.4608316 -0.61766893 -0.56800842
-2.5659692 -0.64405847 -0.56922907
-2.6972768 -0.67701668 -0.57421803
-2.7904174 -0.70039499 -0.56915849
-2.9249327 -0.73415828 -0.57059324
-3.0566802 -0.76722693 -0.56920636
-3.2239835 -0.80922008 -0.57187605
-3.3836052 -0.84928519 -0.57038009
-3.5790379 -0.89833874 -0.57187831
-3.7747402 -0.94746006 -0.57006836
-4.0145245 -1.007646 -0.57118487
-4.2952909 -1.0781183 -0.57366753
-4.5996571 -1.1545143 -0.57428479
-4.9452024 -1.2412461 -0.57447332
-5.3569732 -1.3446006 -0.57586426
-5.8345795 -1.4644799 -0.57670927
-6.3934135 -1.6047472 -0.5767011
-7.09307 -1.7803609 -0.57860994
-7.9533982 -1.9963034 -0.58025545
-9.0677147 -2.2759969 -0.58350736
-10.518563 -2.6401601 -0.58643085
-12.521968 -3.1430149 -0.59055752
-15.478041 -3.8849893 -0.59711134
-20.235788 -5.0791841 -0.60706466
-29.235302 -7.3380623 -0.6263749
-12.755276 -3.201575 -0.16395621
-12.718799 -3.1924193 -0.054493271
-12.814668 -3.2164824 0.054904018
-12.889464 -3.2352564 0.16568106
-12.974268 -3.2565422 0.2779775
-12.981028 -3.2582388 0.38942507
-13.019872 -3.2679887 0.50228018
-13.05044 -3.2756615 0.61548114
-13.071733 -3.2810061 0.7287752
-13.052588 -3.2762008 0.83993405
-13.059454 -3.2779238 0.95277756
-13.012571 -3.2661562 1.0614872
-12.978392 -3.2575772 1.1706818
-12.930455 -3.2455451 1.2780893
-12.890355 -3.2354798 1.3856882
-12.822804 -3.2185247 1.4895972
-12.70129 -3.1880248 1.5858046
-12.640222 -3.1726966 1.6881942
-2.0528991 -0.54219466 -0.56893355
-2.136097 -0.56416816 -0.57235366
-2.1946478 -0.57963216 -0.56795335
-2.2803154 -0.60225797 -0.56933713
-2.3562949 -0.622325 -0.5669145
-2.4544351 -0.64824504 -0.56832892
-2.5612895 -0.67646652 -0.56999314
-2.6523042 -0.70050454 -0.5664348
-2.7695355 -0.73146677 -0.56669098
-2.9068191 -0.76772493 -0.56885827
-3.0586033 -0.80781287 -0.57137102
-3.1974487 -0.84448361 -0.56896824
-3.3795569 -0.89258051 -0.57150459
-3.5553734 -0.93901569 -0.56989896
-3.7792835 -0.99815297 -0.57256484
-4.0111475 -1.0593909 -0.57251453
-4.2689371 -1.1274762 -0.57195622
-4.5842547 -1.2107552 -0.57417709
-4.9283905 -1.3016455 -0.57433623
-5.335885 -1.4092696 -0.57541662
-5.8204184 -1.5372405 -0.57713431
-6.3737054 -1.6833701 -0.57674688
-7.0717354 -1.867728 -0.57869929
-7.9364834 -2.0961182 -0.58085793
-9.0417624 -2.3880351 -0.58368284
-10.489466 -2.7703905 -0.58666348
-12.500941 -3.3016448 -0.59143585
-15.410471 -4.0700855 -0.59639031
-20.170637 -5.327301 -0.60702944
-29.117416 -7.6902499 -0.62582791
-52.421013 -13.845002 -0.67595649
-12.767958 -3.3721669 0.0548774
-12.79074 -3.3781841 0.16493355
-12.849999 -3.3938351 0.27618825
-12.919059 -3.4120746 0.38879532
-12.966515 -3.4246082 0.5018084
-12.969617 -3.4254277 0.61360949
-13.016358 -3.4377725 0.72798967
-12.992325 -3.4314249 0.8387078
-12.996676 -3.4325743 0.95120502
-12.943486 -3.4185262 1.0592006
-12.912656 -3.4103835 1.1684465
-12.857878 -3.395916 1.2749466
-12.778256 -3.374887 1.3779948
-12.709295 -3.3566735 1.4810939
-12.680913 -3.3491774 1.5882821
-19.61735 -5.1811719 2.628351
-2.0491724 -0.56825346 -0.56979412
-2.1018121 -0.58285093 -0.56504488
-2.1932223 -0.60819978 -0.56947678
-2.2625623 -0.62742835 -0.56678802
-2.3684106 -0.65678102 -0.57172936
-2.4473443 -0.67866999 -0.56857634
-2.5563133 -0.70888811 -0.57078242
-2.6418693 -0.7326135 -0.56608742
-2.7725127 -0.7688421 -0.56919158
-2.9002502 -0.80426478 -0.56946504
-3.0465796 -0.84484327 -0.57102245
-3.1952786 -0.88607877 -0.57047778
-3.3696852 -0.93444324 -0.57173514
-3.5622723 -0.98784935 -0.57290858
-3.7677042 -1.0448174 -0.57271367
-3.9855447 -1.1052264 -0.57075685
-4.2603536 -1.1814333 -0.57270926
-4.5624352 -1.2652032 -0.57334948
-4.9137177 -1.362617 -0.57453555
-5.3162112 -1.474232 -0.57520646
-5.7776866 -1.6022031 -0.57480723
-6.3615251 -1.7641066 -0.577564
-7.043335 -1.9531785 -0.5782969
-7.8999658 -2.1907296 -0.58011299
-9.0096197 -2.4984465 -0.583547
-10.444747 -2.8964198 -0.58611006
-12.441101 -3.4500265 -0.59056717
-15.36298 -4.2602892 -0.59653467
-20.099325 -5.573719 -0.60690004
-29.022079 -8.0480766 -0.62585855
-52.217037 -14.480243 -0.6755712
-12.812463 -3.5530083 0.27629963
-12.792226 -3.5473964 0.38626188
-12.813589 -3.5533204 0.49754342
-12.832396 -3.5585358 0.60914153
-12.852659 -3.5641549 0.7212308
-12.849896 -3.5633891 0.83227921
-12.830535 -3.5580196 0.94217622
-12.809981 -3.55232 1.0517706
-12.778586 -3.5436141 1.1601701
-12.72842 -3.5297024 1.266318
-12.792625 -3.5475073 1.3841438
-21.826933 -6.0528002 2.5521102
-21.117649 -5.8561091 2.6538005
-19.949455 -5.5321589 2.6817582
-2.03634 -0.59175259 -0.56820637
-2.1132925 -0.61411464 -0.57011825
-2.1836753 -0.63456762 -0.56898093
-2.2558022 -0.65552741 -0.56707096
-2.3487203 -0.68252903 -0.56895912
-2.4432156 -0.70998907 -0.56960243
-2.5350535 -0.73667675 -0.5680151
-2.649195 -0.76984584 -0.56964248
-2.762743 -0.80284244 -0.56916958
-2.887866 -0.8392027 -0.56901658
-3.0406039 -0.88358778 -0.5718956
-3.1845007 -0.92540365 -0.57054198
-3.3431296 -0.97150064 -0.56921333
-3.5346987 -1.0271698 -0.57046217
-3.7563634 -1.0915847 -0.57298678
-3.9878364 -1.1588498 -0.57308239
-4.2605615 -1.2381028 -0.57474035
-4.5425348 -1.3200432 -0.57284516
-4.8937125 -1.422094 -0.57419765
-5.2979522 -1.5395645 -0.57523572
-5.7795758 -1.6795225 -0.57700622
-6.3287935 -1.839123 -0.57660192
-7.0272522 -2.0420923 -0.57899433
-7.8740067 -2.288156 -0.58022898
-8.9676981 -2.6059785 -0.58286321
-10.409668 -3.0250094 -0.58618462
-12.388573 -3.6000714 -0.59013045
-15.30807 -4.4484663 -0.59648144
-20.019165 -5.817492 -0.60659373
-28.901981 -8.3988037 -0.62544847
-51.985874 -15.106894 -0.67493278
-21.413296 -6.2226214 2.7003651
-20.263031 -5.8883586 2.733438
-2.0291607 -0.61682189 -0.56827652
-2.0884461 -0.63484341 -0.5654785
-2.1719689 -0.6602326 -0.56800318
-2.2505195 -0.68411028 -0.56781477
-2.3456445 -0.71302629 -0.57029486
-2.4338548 -0.73984033 -0.56949794
-2.5284507 -0.76859552 -0.56861037
-2.6527519 -0.80638039 -0.57249612
-2.7524102 -0.83667439 -0.56911731
-2.8896785 -0.8784011 -0.57145876
-3.0430124 -0.92501134 -0.57444453
-3.1771965 -0.96580046 -0.57131791
-3.3407848 -1.0155278 -0.57089704
-3.5216923 -1.0705199 -0.57044446
-3.7435429 -1.1379578 -0.57312232
-3.9607646 -1.2039887 -0.57127637
-4.232842 -1.2866944 -0.57309204
-4.5345688 -1.3784128 -0.57393461
-4.8768415 -1.4824567 -0.57431358
-5.2825036 -1.6057693 -0.57565874
-5.7388821 -1.7444986 -0.57504165
-6.3157506 -1.9198544 -0.57752073
-7.0096064 -2.1307719 -0.57965541
-7.864718 -2.3907077 -0.58166683
-8.924921 -2.7129869 -0.58220714
-10.3674 -3.1514702 -0.58594233
-12.335523 -3.7497377 -0.58975518
-15.258268 -4.6381907 -0.59671813
-19.946278 -6.0632458 -0.60659844
-28.796803 -8.7536182 -0.62545443
-51.77636 -15.738917 -0.67467433
-21.709326 -6.5991755 2.7477219
-22.332012 -6.7884588 3.023571
-2.0163076 -0.6401009 -0.56683838
-2.0999377 -0.66665024 -0.57076639
-2.1574364 -0.68490386 -0.56636226
-2.2520709 -0.71494681 -0.57038116
-2.3293066 -0.73946613 -0.56849039
-2.4270434 -0.77049392 -0.57007796
-2.5266888 -0.80212748 -0.57038909
-2.620183 -0.83180839 -0.5676319
-2.7516928 -0.87355769 -0.57114691
-2.8707879 -0.91136581 -0.5698961
-3.0101914 -0.95562112 -0.57042384
-3.1605101 -1.0033416 -0.57049274
-3.3345006 -1.0585769 -0.57200432
-3.5184362 -1.1169695 -0.57209855
-3.7234385 -1.1820499 -0.57222641
-3.9517157 -1.2545193 -0.57215291
-4.2211328 -1.340049 -0.57369429
-4.5107079 -1.431978 -0.57309991
-4.8623757 -1.5436192 -0.57480186
-5.2506123 -1.6668695 -0.57437354
-5.7202635 -1.8159659 -0.57537001
-6.2819939 -1.9942938 -0.57663274
-6.9795322 -2.2157357 -0.57937771
-7.8339667 -2.4869862 -0.58161026
-8.9045553 -2.8268573 -0.58310211
-10.31969 -3.2761085 -0.58547837
-12.291213 -3.9019923 -0.58988613
-15.184228 -4.8204141 -0.59609556
-19.863953 -6.3060489 -0.60640723
-28.669535 -9.1014853 -0.62507373
-51.535454 -16.360544 -0.67410564
-22.041473 -6.9973283 2.8004398
-21.060324 -6.6858506 2.8623092
-2.0210669 -0.66907567 -0.57044613
-2.0841753 -0.68996775 -0.5687452
-2.14943 -0.71157038 -0.56651467
-2.2394986 -0.74138761 -0.56946284
-2.3225427 -0.76887941 -0.56910402
-2.4270999 -0.8034932 -0.57236868
-2.5117741 -0.83152455 -0.56928736
-2.6011224 -0.86110342 -0.5657537
-2.7396324 -0.90695727 -0.57091528
-2.8483443 -0.94294637 -0.56769955
-2.9868035 -0.98878342 -0.56825298
-3.140938 -1.0398097 -0.56922477
-3.316323 -1.0978711 -0.57115871
-3.4950063 -1.1570243 -0.57055908
-3.7123709 -1.228983 -0.57280469
-3.9435606 -1.3055185 -0.57325315
-4.198267 -1.3898393 -0.57286602
-4.484551 -1.4846138 -0.57205278
-4.8427815 -1.6032063 -0.57477254
-5.2325082 -1.7322255 -0.57467973
-5.7143331 -1.891734 -0.57706964
-6.2694373 -2.0755017 -0.57777911
-6.9398026 -2.2974265 -0.57838106
-7.7845359 -2.5770762 -0.58024919
-8.8611288 -2.9334831 -0.58257639
-10.288188 -3.4059119 -0.58602291
-12.250722 -4.0556102 -0.59029156
-15.131913 -5.0094304 -0.59641492
-19.774666 -6.5464168 -0.60609305
-28.536526 -9.4470377 -0.6246593
-51.283985 -16.977598 -0.67349613
-22.373882 -7.4068899 2.8540299
-21.528349 -7.1269755 2.9376073
-2.0018365 -0.69013429 -0.56737065
-2.0720856 -0.71435267 -0.56780016
-2.1575015 -0.74379987 -0.57100946
-2.2382228 -0.77162862 -0.57150793
-2.324614 -0.80141205 -0.57198304
-2.4040864 -0.82881016 -0.56930184
-2.5054345 -0.86375004 -0.57021463
-2.6152773 -0.90161836 -0.57120067
-2.7237031 -0.93899828 -0.56995887
-2.8340933 -0.97705531 -0.56721091
-2.9862647 -1.0295165 -0.57051587
-3.1306648 -1.0792985 -0.5697251
-3.3032367 -1.1387928 -0.57127345
-3.4698269 -1.1962248 -0.56880683
-3.691627 -1.2726905 -0.57197541
-3.9142838 -1.3494515 -0.57136619
-4.1746078 -1.4391985 -0.57200921
-4.4865003 -1.5467236 -0.57468414
-4.8122292 -1.6590188 -0.57352424
-5.2069201 -1.7950886 -0.57425028
-5.6811972 -1.958596 -0.57611197
-6.2400746 -2.1512692 -0.57746732
-6.9154758 -2.3841143 -0.57875317
-7.7577968 -2.674505 -0.58066356
-8.8310528 -3.0445106 -0.58301628
-10.231956 -3.527473 -0.58524638
-12.198368 -4.2053943 -0.59021604
-15.060389 -5.1920776 -0.59606713
-19.686981 -6.7870984 -0.60591769
-28.420624 -9.7980261 -0.62471229
-51.03912 -17.595766 -0.67307103
-22.717665 -7.8319283 2.9099476
-1.9897851 -0.71347141 -0.56639874
-2.0758541 -0.74433297 -0.57129771
-2.1378767 -0.76657218 -0.56826723
-2.2128875 -0.79346859 -0.56748718
-2.3000376 -0.82471776 -0.56838816
-2.4048367 -0.86229521 -0.57194716
-2.5009551 -0.89676023 -0.57166159
-2.5962756 -0.93093896 -0.56950766
-2.6958809 -0.96665418 -0.56658131
-2.8290761 -1.0144135 -0.5686602
-2.9640877 -1.0628242 -0.5687328
-3.1123886 -1.1160001 -0.56885344
-3.2913101 -1.1801555 -0.57167733
-3.4724553 -1.2451081 -0.57170427
-3.6765733 -1.3182982 -0.57211137
-3.8978181 -1.3976293 -0.57142812
-4.1673245 -1.4942653 -0.57348555
-4.4521713 -1.5964022 -0.57275802
-4.7883263 -1.7169362 -0.57314837
-5.1878009 -1.8601745 -0.5746209
-5.6530762 -2.0270071 -0.57574433
-6.2144775 -2.2283072 -0.57759058
-6.8809404 -2.4672787 -0.57835823
-7.7139859 -2.7659814 -0.57988626
-8.7832689 -3.1493912 -0.58237427
-10.191121 -3.6542006 -0.58543652
-12.135556 -4.3514109 -0.5897212
-14.987046 -5.3738613 -0.59573466
-19.57921 -7.0204606 -0.60521191
-28.288847 -10.143449 -0.62451017
-50.769985 -18.204445 -0.67242295
-23.054544 -8.2666006 2.9658954
-1.9876039 -0.74039435 -0.56832647
-2.0562973 -0.76598305 -0.5684647
-2.138216 -0.79649818 -0.57091761
-2.2156727 -0.8253513 -0.57076091
-2.2911553 -0.85346907 -0.56874365
-2.3768651 -0.88539642 -0.56784105
-2.4615395 -0.91693819 -0.56518656
-2.585582 -0.96314478 -0.56971681
-2.7007625 -1.0060502 -0.57016408
-2.8227279 -1.051483 -0.56994003
-2.969712 -1.1062355 -0.5723787
-3.10079 -1.1550628 -0.56928647
-3.263289 -1.2155946 -0.56936347
-3.4635313 -1.2901862 -0.57280374
-3.660358 -1.3635052 -0.57215387
-3.8730218 -1.4427239 -0.57035065
-4.1445751 -1.5438789 -0.57292408
-4.4377317 -1.6530815 -0.57347202
-4.7805257 -1.7807745 -0.57479221
-5.1591802 -1.9218254 -0.57402492
-5.6311631 -2.0976419 -0.576096
-6.1832638 -2.3033028 -0.5772782
-6.8587723 -2.5549338 -0.57909185
-7.6776614 -2.8599749 -0.57975549
-8.7469635 -3.2582963 -0.58257955
-10.153705 -3.7823157 -0.58591461
-12.075836 -4.4983211 -0.58946252
-14.90946 -5.553863 -0.59532022
-19.501047 -7.264257 -0.60551119
-28.128193 -10.477921 -0.6237607
-50.491676 -18.808451 -0.67174923
-23.380196 -8.7092619 3.0213382
-1.9760545 -0.76388967 -0.56766701
-2.0508981 -0.79282212 -0.56962407
-2.1217673 -0.82021832 -0.56917572
-2.1960106 -0.84891874 -0.56834203
-2.2779984 -0.88061303 -0.56812268
-2.3645096 -0.91405594 -0.56753159
-2.4569945 -0.94980806 -0.56678182
-2.5712686 -0.99398339 -0.56921303
-2.6918211 -1.0405858 -0.57093453
-2.8116839 -1.0869215 -0.57036561
-2.949425 -1.1401685 -0.57112765
-3.0855923 -1.1928072 -0.5691461
-3.2587967 -1.2597634 -0.57123923
-3.4357166 -1.3281559 -0.57086152
-3.6405575 -1.4073418 -0.57172066
-3.8707075 -1.4963115 -0.57267606
-4.1140618 -1.5903858 -0.57136625
-4.4094901 -1.7045904 -0.57248783
-4.7413263 -1.8328695 -0.57274562
-5.142467 -1.9879397 -0.57484168
-5.6012511 -2.1652935 -0.57571626
-6.1555672 -2.3795769 -0.57738054
-6.8057747 -2.6309297 -0.57730496
-7.6370511 -2.9522789 -0.57938641
-8.7048578 -3.3650644 -0.58248711
-10.093419 -3.9018447 -0.5851602
-12.017519 -4.6456504 -0.58935982
-14.841599 -5.7373633 -0.59538257
-19.403168 -7.5007439 -0.60529011
-27.984768 -10.81816 -0.62348294
-50.2015 -19.406551 -0.67101282
-23.715546 -9.1677933 3.0790095
-27.131157 -10.488177 4.5079775
-27.203815 -10.516265 4.7685966
-27.29468 -10.55139 5.0345793
-27.370106 -10.580548 5.2999563
-1.9584092 -0.78488082 -0.56532776
-2.0327179 -0.81466192 -0.56731403
-2.1090167 -0.84524053 -0.5685004
-2.1839666 -0.87527859 -0.56796753
-2.267772 -0.90886569 -0.56831652
-2.3474298 -0.94079041 -0.56616586
-2.4582925 -0.98522139 -0.5698328
-2.5605896 -1.0262195 -0.56959939
-2.672606 -1.0711129 -0.56960952
-2.7946577 -1.1200281 -0.56966251
-2.9389777 -1.1778679 -0.57186604
-3.069437 -1.2301527 -0.56891328
-3.2419879 -1.2993068 -0.57105023
-3.416877 -1.3693979 -0.57048589
-3.6099229 -1.4467658 -0.56966043
-3.8332872 -1.5362846 -0.56989151
-4.1050444 -1.645198 -0.57288021
-4.3971686 -1.7622739 -0.57365817
-4.7141609 -1.8893163 -0.57222712
-5.1233549 -2.0533111 -0.57548416
-5.5578189 -2.2274332 -0.57402396
-6.1219225 -2.4535117 -0.57701093
-6.7859597 -2.719641 -0.57841718
-7.6256785 -3.056179 -0.58133066
-8.6583872 -3.4700627 -0.58218873
-10.05297 -4.028976 -0.58564305
-11.958118 -4.7925115 -0.58929223
-14.76274 -5.9165325 -0.59509259
-19.308437 -7.7383337 -0.60525757
-27.840494 -11.157765 -0.62327826
-49.922619 -20.007723 -0.67052293
-24.097731 -9.6577606 3.1438093
-26.346014 -10.558816 3.6767225
-26.441374 -10.597034 3.9310164
-26.572426 -10.649556 4.1932359
-26.592604 -10.657642 4.4399333
-1.9542913 -0.81125939 -0.56697583
-2.0347877 -0.84467483 -0.57074738
-2.0899675 -0.86758089 -0.56619847
-2.1891007 -0.90873277 -0.57216543
-2.2431493 -0.93116921 -0.56497264
-2.3503952 -0.97568882 -0.56973171
-2.4533231 -1.0184159 -0.57154047
-2.5428531 -1.0555813 -0.56849831
-2.6717687 -1.1090963 -0.57229441
-2.7852588 -1.156208 -0.57060152
-2.9119954 -1.2088186 -0.56946504
-3.0544398 -1.2679497 -0.5689804
-3.2280838 -1.3400322 -0.57146037
-3.4095504 -1.4153621 -0.5721252
-3.6001687 -1.494491 -0.57097799
-3.8218906 -1.5865314 -0.57105434
-4.096447 -1.7005045 -0.5745551
-4.3628531 -1.8110942 -0.57204348
-4.6992664 -1.950745 -0.57328755
-5.0841742 -2.1105268 -0.57395482
-5.5363717 -2.2982414 -0.57468414
-6.0845885 -2.5258155 -0.5763759
-6.7542539 -2.8038049 -0.57860959
-7.5573659 -3.1371903 -0.57902002
-8.6109543 -3.5745528 -0.58191079
-9.9924917 -4.1480522 -0.58504707
-11.90602 -4.94239 -0.58967513
-14.687686 -6.0971069 -0.59504437
-19.199795 -7.9701595 -0.60487837
-27.682316 -11.491398 -0.6228534
-49.607899 -20.593079 -0.66964632
-24.697966 -10.252543 3.2383192
-25.887249 -10.746235 3.6308658
-26.000086 -10.793076 3.8848476
-1.9423791 -0.83445829 -0.56645393
-2.0103061 -0.86364019 -0.56681633
-2.0853493 -0.89587921 -0.5678888
-2.1673024 -0.93108678 -0.56941742
-2.2489257 -0.96615267 -0.56937671
-2.3394868 -1.0050583 -0.57004017
-2.4316669 -1.0446594 -0.56944489
-2.5276942 -1.0859134 -0.56805164
-2.6602256 -1.1428497 -0.57278877
-2.770206 -1.1900979 -0.5704726
-2.9031894 -1.2472285 -0.57069898
-3.0547965 -1.3123598 -0.57200968
-3.1987796 -1.3742158 -0.56922108
-3.394464 -1.4582832 -0.57255936
-3.596087 -1.5449016 -0.57330012
-3.8076124 -1.6357744 -0.57188314
-4.0674 -1.7473807 -0.57345134
-4.3513827 -1.8693814 -0.57351011
-4.6690407 -2.0058494 -0.57256591
-5.0598741 -2.1737537 -0.57418567
-5.5291042 -2.3753378 -0.57691801
-6.0455356 -2.5972002 -0.57565826
-6.7251663 -2.8891737 -0.57911748
-7.5265737 -3.2334635 -0.57966328
-8.5893402 -3.6900346 -0.58347237
-9.950222 -4.2746782 -0.5856055
-11.828592 -5.0816379 -0.58889061
-14.608808 -6.2760358 -0.59493029
-19.089708 -8.2010584 -0.60454148
-27.536421 -11.82982 -0.6227966
-49.307693 -21.182896 -0.6690594
-1.9493241 -0.86598641 -0.57154155
-2.008379 -0.89222157 -0.5693233
-2.0713267 -0.9201861 -0.56710863
-2.1406872 -0.95099938 -0.56545436
-2.2161572 -0.98452687 -0.56410289
-2.3199179 -1.0306225 -0.56831694
-2.4169011 -1.0737073 -0.56903589
-2.5148582 -1.1172248 -0.56821138
-2.6281557 -1.1675571 -0.56893188
-2.7503574 -1.221845 -0.56943607
-2.8704669 -1.2752037 -0.56730604
-3.0331676 -1.3474834 -0.57101911
-3.1890314 -1.4167259 -0.57054323
-3.3607855 -1.4930276 -0.56993222
-3.5692661 -1.585645 -0.57208943
-3.7882416 -1.6829247 -0.57203865
-4.0338416 -1.7920325 -0.57178354
-4.3300471 -1.9236215 -0.57377225
-4.6656256 -2.0727022 -0.57522905
-5.0383763 -2.2382965 -0.57482594
-5.4936862 -2.4405677 -0.57631022
-6.0274849 -2.6777077 -0.57703114
-6.6766071 -2.9660797 -0.57803291
-7.4881368 -3.3266017 -0.57980961
-8.5014153 -3.7767501 -0.58061045
-9.8939085 -4.3953648 -0.58542788
-11.774525 -5.2308278 -0.58935654
-14.539684 -6.459249 -0.59530485
-18.976471 -8.4302893 -0.60419261
-27.36396 -12.156428 -0.62222987
-48.995918 -21.766417 -0.66841018
-1.9172285 -0.88011086 -0.56526142
-1.9954901 -0.91603714 -0.5688197
-2.0742261 -0.95218122 -0.57106489
-2.1387334 -0.98179352 -0.5680843
-2.2288511 -1.0231624 -0.57049328
-2.3075533 -1.0592909 -0.56843585
-2.403873 -1.1035068 -0.56912023
-2.5087359 -1.1516446 -0.56998461
-2.592593 -1.1901394 -0.56435871
-2.741766 -1.2586179 -0.57081842
-2.8685889 -1.3168365 -0.57009196
-3.0151784 -1.3841289 -0.57079351
-3.1662855 -1.4534953 -0.56962836
-3.3537998 -1.5395743 -0.57191479
-3.5495188 -1.6294198 -0.57209247
-3.771529 -1.7313344 -0.57268643
-4.0150957 -1.8431448 -0.57229573
-4.3014169 -1.9745815 -0.57315254
-4.6157303 -2.1188681 -0.57224643
-4.9989967 -2.2948079 -0.57350916
-5.4603329 -2.5065861 -0.57600117
-6.0012941 -2.7549164 -0.57772315
-6.6365204 -3.0465195 -0.57776201
-7.4373817 -3.4141579 -0.57908654
-8.4801817 -3.8928592 -0.58238548
-9.8350182 -4.5148015 -0.58518398
-11.696283 -5.3692222 -0.58870041
-14.439051 -6.6283002 -0.59447676
-18.863985 -8.6595831 -0.60395581
-27.188437 -12.480952 -0.62168139
-48.684925 -22.348997 -0.66786611
-1.924974 -0.91248763 -0.57081008
-1.9938351 -0.94512957 -0.57161754
-2.0464234 -0.97005779 -0.56665158
-2.1280599 -1.0087556 -0.568501
-2.2086551 -1.0469599 -0.56857616
-2.2965777 -1.0886374 -0.56898671
-2.3826911 -1.1294575 -0.56735057
-2.4894915 -1.1800836 -0.56886613
-2.6122699 -1.2382838 -0.5719133
-2.7093625 -1.2843081 -0.56731725
-2.8558605 -1.353752 -0.57082748
-2.9975173 -1.4209009 -0.57071453
-3.1413438 -1.4890785 -0.5683924
-3.3225245 -1.5749629 -0.56984091
-3.5227716 -1.6698852 -0.57104784
-3.7462106 -1.7758011 -0.57211441
-3.9938846 -1.8932049 -0.57254726
-4.2676506 -2.0229774 -0.57192469
-4.6021056 -2.1815176 -0.5738396
-4.9783292 -2.3598573 -0.57442373
-5.4243779 -2.571296 -0.57550019
-5.9593601 -2.8248913 -0.57698661
-6.593236 -3.1253648 -0.57729578
-7.3941121 -3.5050011 -0.57902944
-8.4180231 -3.9903612 -0.58144248
-9.7503195 -4.6219044 -0.58348185
-11.623707 -5.5099387 -0.58841312
-14.348353 -6.8014917 -0.59414101
-18.742052 -8.8842192 -0.60350394
-27.036385 -12.815948 -0.62176108
-48.354332 -22.921207 -0.66714698
-1.9152901 -0.93690962 -0.57131153
-1.9641048 -0.96078849 -0.56643832
-2.0496659 -1.0026428 -0.57092017
-2.1235716 -1.0387955 -0.5706712
-2.2014749 -1.0769038 -0.57009363
-2.2790258 -1.1148396 -0.56799161
-2.3668916 -1.1578213 -0.56693572
-2.4799197 -1.2131115 -0.5700444
-2.5844038 -1.2642225 -0.56917292
-2.7130549 -1.3271552 -0.5714643
-2.8417208 -1.3900952 -0.57137465
-2.9755242 -1.4555483 -0.56989175
-3.1354401 -1.533775 -0.57069355
-3.3092935 -1.6188195 -0.57094252
-3.5006647 -1.7124332 -0.57083446
-3.7278666 -1.8235744 -0.57269418
-3.9655328 -1.9398346 -0.57185912
-4.2570319 -2.0824282 -0.57388979
-4.5611458 -2.2311926 -0.57211
-4.9436021 -2.4182801 -0.5738045
-5.3849006 -2.6341519 -0.57470483
-5.9340138 -2.9027636 -0.57794476
-6.5612597 -3.2095959 -0.57790792
-7.3601141 -3.6003747 -0.57979017
-8.3707829 -4.0947671 -0.58161336
-9.7122784 -4.7509918 -0.58465725
-11.543704 -5.6468768 -0.58783382
-14.262759 -6.9769673 -0.59410429
-18.638029 -9.1172352 -0.6037187
-26.856142 -13.13732 -0.62128407
-48.011726 -23.486076 -0.66635424
-1.8766637 -0.94678599 -0.56321985
-1.9483088 -0.98293126 -0.5653258
-2.0178874 -1.018034 -0.5655126
-2.1031256 -1.0610371 -0.56863987
-2.1814005 -1.1005273 -0.56835663
-2.2736049 -1.1470448 -0.57011271
-2.3555188 -1.1883707 -0.56766886
-2.4495273 -1.2357985 -0.56650847
-2.5768123 -1.3000143 -0.5709784
-2.6836584 -1.3539187 -0.56873614
-2.8301117 -1.4278051 -0.57252723
-2.9792914 -1.503067 -0.57410979
-3.1100209 -1.5690206 -0.56953549
-3.3019273 -1.6658384 -0.57316238
-3.4901092 -1.7607771 -0.57260054
-3.6979609 -1.8656393 -0.57158095
-3.9395247 -1.9875094 -0.57158965
-4.2232437 -2.1306469 -0.57282346
-4.5472984 -2.2941344 -0.57386816
-4.9205675 -2.4824502 -0.57463056
-5.3500991 -2.699151 -0.57448941
-5.8800354 -2.9665065 -0.57619673
-6.5251336 -3.2919617 -0.57824767
-7.3081279 -3.686986 -0.57922256
-8.3211813 -4.1980767 -0.58170974
-9.6331587 -4.8599753 -0.58344775
-11.487533 -5.795516 -0.5885579
-14.167761 -7.1477046 -0.59376341
-18.502134 -9.3344164 -0.60298914
-26.676247 -13.458296 -0.62090385
-47.65678 -24.043077 -0.66548085
-1.8883182 -0.98197716 -0.57029825
-1.9397943 -1.0087461 -0.56641161
-2.0090914 -1.0447826 -0.56660509
-2.0795126 -1.0814035 -0.565808
-2.1765628 -1.1318723 -0.57067931
-2.2399349 -1.1648275 -0.56521869
-2.350554 -1.2223525 -0.57005155
-2.4427099 -1.2702761 -0.56850129
-2.555387 -1.3288713 -0.56980854
-2.6727574 -1.3899071 -0.57000488
-2.8054981 -1.458936 -0.57113397
-2.9357109 -1.5266501 -0.56928623
-3.0985184 -1.6113145 -0.57101434
-3.2530055 -1.6916519 -0.5682382
-3.4473562 -1.7927196 -0.56915992
-3.6716199 -1.9093429 -0.57109529
-3.9112449 -2.0339546 -0.57107216
-4.1958637 -2.1819639 -0.57270563
-4.5117416 -2.3462291 -0.57297844
-4.8822241 -2.5388901 -0.5737552
-5.3323078 -2.7729461 -0.57619679
-5.8426461 -3.038336 -0.57615036
-6.4626403 -3.36075 -0.57632822
-7.2643328 -3.777652 -0.57938933
-8.2743015 -4.3028636 -0.58208734
-9.5808601 -4.9823098 -0.58394665
-11.403723 -5.9302483 -0.58795559
-14.091967 -7.3282084 -0.59431845
-18.384552 -9.5604715 -0.60294288
-26.482004 -13.771367 -0.62027735
-47.304016 -24.599384 -0.66472852
-1.8565435 -0.99464267 -0.56435305
-1.9394981 -1.0390855 -0.57001287
-2.0040333 -1.0736603 -0.56885886
-2.0671265 -1.1074624 -0.56610036
-2.1534417 -1.1537058 -0.56829375
-2.2361598 -1.1980219 -0.56794047
-2.3210254 -1.2434887 -0.56655574
-2.425185 -1.2992922 -0.56809801
-2.5323365 -1.3566985 -0.56834567
-2.6633506 -1.4268894 -0.57169741
-2.7853372 -1.4922436 -0.57072204
-2.9113846 -1.5597736 -0.56824523
-3.0863624 -1.6535177 -0.57247788
-3.2484212 -1.7403407 -0.57113236
-3.4371855 -1.8414712 -0.57117599
-3.6609704 -1.9613638 -0.57314688
-3.883013 -2.0803232 -0.57064193
-4.181262 -2.2401099 -0.57442892
-4.4805298 -2.4004426 -0.57271993
-4.8518791 -2.5993929 -0.57390201
-5.2971802 -2.8379626 -0.5761283
-5.805027 -3.1100416 -0.5761683
-6.4330559 -3.4465077 -0.57742566
-7.2312708 -3.8741512 -0.58050805
-8.208209 -4.3975458 -0.58119792
-9.5211592 -5.1009583 -0.58408672
-11.32435 -6.0670176 -0.58766526
-13.985404 -7.4926758 -0.593665
-18.254084 -9.7796202 -0.60256231
-26.298357 -14.089337 -0.61998689
-46.954639 -25.155935 -0.66411561
-1.8464258 -1.0186372 -0.56504232
-1.9153198 -1.0566447 -0.5666827
-1.9943725 -1.1002566 -0.56991386
-2.0623777 -1.1377738 -0.56858832
-2.1335611 -1.1770443 -0.56682396
-2.2249031 -1.2274358 -0.56887186
-2.3096278 -1.2741767 -0.56755519
-2.417798 -1.3338522 -0.57016665
-2.5130196 -1.3863841 -0.56779349
-2.6294701 -1.4506276 -0.56821078
-2.7669053 -1.5264479 -0.57074815
-2.8803263 -1.58902 -0.56595421
-3.0503173 -1.6828008 -0.56958711
-3.2115462 -1.7717477 -0.56843656
-3.4073272 -1.8797561 -0.57001221
-3.6257546 -2.0002584 -0.57144111
-3.8724494 -2.1363552 -0.57290673
-4.1456418 -2.28707 -0.57335562
-4.4599333 -2.4604585 -0.57391113
-4.8237162 -2.6611505 -0.57439792
-5.2610173 -2.902401 -0.57603329
-5.7549572 -3.1748979 -0.57503003
-6.3904352 -3.5254788 -0.57744753
-7.1589084 -3.9494305 -0.5785538
-8.1640377 -4.5039411 -0.58194774
-9.4722157 -5.225637 -0.58498192
-11.264704 -6.2145181 -0.58849102
-13.894442 -7.6652932 -0.59375995
-18.124851 -9.9991274 -0.60230953
-26.110319 -14.404555 -0.61968279
-46.58345 -25.699184 -0.66328496
-1.8383534 -1.0438704 -0.56645715
-1.9101952 -1.0846643 -0.56906962
-1.9629338 -1.1146108 -0.56480384
-2.0482087 -1.1630323 -0.56858176
-2.1247766 -1.2065098 -0.56838858
-2.207922 -1.2537222 -0.56842881
-2.3042352 -1.3084116 -0.57014054
-2.3959506 -1.3604903 -0.56891662
-2.5003133 -1.4197505 -0.56882405
-2.6074152 -1.480566 -0.56733608
-2.7368333 -1.5540534 -0.56844383
-2.885098 -1.6382425 -0.57080686
-3.0420136 -1.7273437 -0.57195956
-3.2034497 -1.8190118 -0.57091933
-3.4067113 -1.9344295 -0.57384509
-3.6046827 -2.0468435 -0.5720436
-3.8343675 -2.1772652 -0.57119042
-4.1109223 -2.334301 -0.57248032
-4.4208865 -2.5103078 -0.57281536
-4.7859502 -2.7176015 -0.57383668
-5.2173715 -2.962575 -0.5751996
-5.7094402 -3.2419858 -0.57442188
-6.3316674 -3.5953045 -0.57608849
-7.1100554 -4.0372958 -0.57857406
-8.1037169 -4.6015258 -0.58163732
-9.3913984 -5.3327088 -0.58399636
-11.164816 -6.3397064 -0.58730084
-13.799421 -7.835712 -0.59377193
-18.006069 -10.224369 -0.60249472
-25.900856 -14.707258 -0.61895686
-46.198833 -26.23304 -0.66235149
-1.8183519 -1.0622895 -0.5642764
-1.8968829 -1.1081676 -0.56912023
-1.9522845 -1.1405336 -0.56573224
-2.0368714 -1.1899496 -0.56945336
-2.1073565 -1.2311274 -0.56773537
-2.2036066 -1.2873571 -0.57134998
-2.2703044 -1.3263222 -0.56573761
-2.3807657 -1.3908542 -0.56932896
-2.4871089 -1.4529804 -0.56984162
-2.597759 -1.5176227 -0.56925243
-2.7195265 -1.5887599 -0.56886387
-2.8737812 -1.678876 -0.57260895
-3.0024438 -1.7540414 -0.56853193
-3.1792994 -1.8573612 -0.57064241
-3.3687134 -1.9680178 -0.57147765
-3.5787737 -2.0907362 -0.57196856
-3.8036427 -2.2221055 -0.57064068
-4.0752378 -2.3807726 -0.57154459
-4.3912249 -2.5653737 -0.57301605
-4.7572641 -2.7792156 -0.57445133
-5.1889997 -3.0314374 -0.57613772
-5.6875329 -3.3226829 -0.57628489
-6.2945061 -3.6772795 -0.57677794
-7.0689845 -4.1297331 -0.57932043
-8.0430984 -4.6988153 -0.58138955
-9.3175335 -5.443346 -0.58352125
-11.097148 -6.4830046 -0.58789027
-13.687318 -7.9961939 -0.59313422
-17.854511 -10.430688 -0.60166967
-25.686085 -15.005928 -0.61818719
-45.811768 -26.763445 -0.66147035
-1.8188744 -1.0928109 -0.56856555
-1.8792193 -1.1290672 -0.56794316
-1.9456449 -1.1689768 -0.56793064
-2.0154581 -1.2109218 -0.56758672
-2.0907464 -1.2561562 -0.56737894
-2.1692564 -1.3033265 -0.56655622
-2.2645633 -1.3605884 -0.56843305
-2.3761249 -1.4276165 -0.57237387
-2.46334 -1.4800168 -0.56852245
-2.581522 -1.5510226 -0.56983066
-2.7056553 -1.625604 -0.57010049
-2.8364651 -1.7041968 -0.56930602
-2.9724014 -1.7858696 -0.56695861
-3.1582096 -1.8975064 -0.57100183
-3.3405304 -2.0070479 -0.57084018
-3.5444796 -2.1295841 -0.5706296
-3.7964039 -2.2809443 -0.57371914
-4.0435381 -2.4294269 -0.57124525
-4.3658218 -2.6230605 -0.57386672
-4.7143764 -2.832478 -0.57343489
-5.1408038 -3.0886829 -0.57495999
-5.6379151 -3.3873558 -0.57543427
-6.2545662 -3.7578504 -0.57730865
-7.0156412 -4.2151175 -0.5791527
-7.9792905 -4.7940946 -0.58099449
-9.243926 -5.5539093 -0.58314437
-10.998085 -6.6078382 -0.58690244
-13.559477 -8.1467657 -0.59189069
-17.734745 -10.655339 -0.60200351
-25.505854 -15.324353 -0.61833787
-45.42028 -27.289282 -0.66061294
-1.8003998 -1.1120654 -0.5670222
-1.8758997 -1.1587 -0.57120275
-1.9287329 -1.1913339 -0.56722724
-2.0028217 -1.2370968 -0.56826913
-2.0764301 -1.282563 -0.56773078
-2.1596241 -1.3339499 -0.56828147
-2.252284 -1.391184 -0.56960171
-2.3486185 -1.4506875 -0.57000184
-2.4517293 -1.5143768 -0.57009745
-2.5502145 -1.5752087 -0.56715262
-2.6820943 -1.6566679 -0.56938541
-2.8049986 -1.732583 -0.56722361
-2.9723377 -1.8359445 -0.57120937
-3.1315227 -1.9342693 -0.57043397
-3.3133059 -2.0465527 -0.57044512
-3.5339947 -2.1828671 -0.57321954
-3.752775 -2.3180027 -0.57139009
-4.0244069 -2.4857836 -0.57281744
-4.323143 -2.6703057 -0.57252955
-4.6760526 -2.8882899 -0.57305002
-5.0991092 -3.1496022 -0.57458484
-5.5980229 -3.4577696 -0.5756588
-6.2054005 -3.8329329 -0.57707727
-6.9550705 -4.2959867 -0.57846963
-7.9169002 -4.8900867 -0.58078605
-9.1738853 -5.6664972 -0.58307737
-10.920313 -6.7452254 -0.58713394
-13.48565 -8.3297749 -0.59309423
-17.580446 -10.859036 -0.60125297
-25.290417 -15.621307 -0.61772513
-45.036381 -27.817934 -0.65995449
-1.785925 -1.133696 -0.56681108
-1.8617114 -1.1818048 -0.57126421
-1.922999 -1.2207098 -0.56991231
-1.9913442 -1.2640951 -0.56937987
-2.0542753 -1.3040434 -0.56601477
