# .PCD v0.7 - Point Cloud Data file format
VERSION 0.7
FIELDS x y z
SIZE 4 4 4
TYPE F F F
COUNT 1 1 1
WIDTH 1421
HEIGHT 1
VIEWPOINT 0 0 0 1 0 0 0
POINTS 1421
DATA ascii
-12.472813 -1.3859702 1.0979444
-12.529478 -1.392267 1.2085881
-12.607931 -1.4009845 1.3226424
-12.755134 -1.4173416 1.4460018
-12.949119 -1.438897 1.5777565
-13.281573 -1.4758391 1.7310722
-14.949481 -1.6611758 2.0757098
-14.967834 -1.6632153 2.2059557
-2.1045148 -0.2600857 -0.56819212
-2.1701052 -0.26819167 -0.56646568
-2.2665613 -0.28011215 -0.57143199
-2.3441513 -0.28970107 -0.57017672
-2.4259772 -0.29981354 -0.56862241
-2.5196474 -0.31138968 -0.56837797
-2.6235373 -0.32422891 -0.56878412
-2.7398503 -0.33860341 -0.57003659
-2.8634968 -0.35388422 -0.57080179
-2.9904592 -0.36957482 -0.57012916
-3.1260059 -0.38632631 -0.56889766
-3.298599 -0.40765616 -0.57182515
-3.4774997 -0.42976555 -0.57289678
-3.6696591 -0.4535135 -0.57304358
-3.8655131 -0.47771806 -0.570521
-4.1205034 -0.50923091 -0.57295096
-4.3960638 -0.54328591 -0.57379436
-4.7100635 -0.58209151 -0.57471585
-5.0613065 -0.62549973 -0.57460988
-5.4775076 -0.67693579 -0.5754509
-5.9678521 -0.73753488 -0.57648772
-6.5494213 -0.80940789 -0.57735842
-7.2555757 -0.89667773 -0.57842642
-8.1567402 -1.0080477 -0.58157766
-9.2908087 -1.1482012 -0.58428752
-10.774406 -1.3315511 -0.58705443
-12.820855 -1.5844607 -0.59092337
-15.859603 -1.9600034 -0.59793818
-13.990122 -1.7289642 -0.41016722
-13.355942 -1.6505892 -0.27965716
-12.993605 -1.6058099 -0.16322711
-12.763919 -1.5774243 -0.053444795
-12.587961 -1.5556786 0.05270803
-12.45991 -1.5398536 0.15652278
-12.382503 -1.5302871 0.25927451
-12.313701 -1.5217843 0.36101732
-12.260095 -1.5151594 0.46222961
-12.248949 -1.5137819 0.56456381
-12.238575 -1.5124998 0.66683114
-12.195569 -1.507185 0.76696444
-12.202737 -1.5080708 0.8700583
-12.211144 -1.5091099 0.9734925
-12.261547 -1.5153389 1.0809059
-12.275341 -1.5170436 1.1857839
-12.35144 -1.5264482 1.2976061
-12.430848 -1.5362619 1.4112735
-12.595536 -1.5566148 1.5368911
-12.814359 -1.5836579 1.6725887
-13.24673 -1.6370924 1.8419417
-14.543675 -1.797375 2.1465385
-2.0991383 -0.28566736 -0.56764603
-2.1732481 -0.29575279 -0.56819236
-2.2703431 -0.30896625 -0.57329994
-2.3391666 -0.31833231 -0.56987333
-2.4316278 -0.33091515 -0.57085741
-2.5206738 -0.34303322 -0.56951797
-2.6180956 -0.35629117 -0.56851125
-2.7288098 -0.37135804 -0.56864667
-2.856909 -0.38879079 -0.57039851
-2.9833419 -0.4059968 -0.56968099
-3.1351938 -0.426662 -0.57148135
-3.3010991 -0.44923967 -0.57317281
-3.4736533 -0.47272226 -0.5731774
-3.6390283 -0.49522778 -0.56916827
-3.8681788 -0.52641243 -0.57182658
-4.105444 -0.55870128 -0.571769
-4.3859305 -0.59687215 -0.57338637
-4.6950068 -0.63893372 -0.57379395
-5.0571089 -0.68821138 -0.57505053
-5.4570742 -0.74264187 -0.57422018
-5.9591699 -0.81097096 -0.57656866
-6.538228 -0.88977385 -0.57729256
-7.2450356 -0.98596179 -0.57850897
-8.1507807 -1.1092228 -0.58208126
-9.2657061 -1.2609507 -0.58363992
-10.75704 -1.4639031 -0.5870446
-12.816963 -1.7442338 -0.59168786
-15.81109 -2.1516984 -0.59706151
-13.578852 -1.8479176 -0.39874548
-12.995667 -1.7685533 -0.27254817
-12.693703 -1.7274597 -0.15971448
-12.51916 -1.7037064 -0.052503698
-12.374317 -1.6839951 0.051896248
-12.294775 -1.6731703 0.15469509
-12.235888 -1.6651566 0.25661394
-12.232717 -1.6647249 0.359216
-12.242466 -1.6660517 0.46230245
-12.469207 -1.6969084 0.57563388
-12.457209 -1.6952755 0.67982799
-12.462101 -1.6959413 0.78497839
-12.456964 -1.6952423 0.88960379
-12.452843 -1.6946814 0.99434721
-12.199372 -1.6601871 1.0771431
-12.182128 -1.6578404 1.1786597
-12.189799 -1.6588844 1.2826705
-12.234086 -1.6649114 1.3911543
-12.342377 -1.6796484 1.5084071
-12.492586 -1.7000901 1.6331948
-12.77454 -1.7384604 1.7791221
-14.143098 -1.9247048 2.0907512
-14.223708 -1.9356748 2.2246826
-2.1022456 -0.31246328 -0.56948221
-2.1699355 -0.32252425 -0.56832021
-2.2433705 -0.33343914 -0.5674814
-2.3315089 -0.34653941 -0.56900287
-2.4178278 -0.35936928 -0.56861216
-2.5223219 -0.37490058 -0.57088876
-2.6161344 -0.38884419 -0.56908059
-2.7246728 -0.40497661 -0.56877929
-2.8635356 -0.4256162 -0.57272315
-2.9704623 -0.44150907 -0.56821531
-3.1264493 -0.4646939 -0.57088584
-3.2832086 -0.48799351 -0.57106525
-3.4595513 -0.51420385 -0.57185054
-3.6605971 -0.54408592 -0.57354486
-3.8534365 -0.57274824 -0.57064521
-4.1069903 -0.61043477 -0.57298648
-4.3799634 -0.65100759 -0.57360941
-4.673665 -0.69466138 -0.57218635
-5.0536957 -0.7511465 -0.57566923
-5.4712195 -0.81320441 -0.5767172
-5.9509974 -0.88451523 -0.5767867
-6.5348001 -0.97128767 -0.57800072
-7.2321434 -1.0749359 -0.57849121
-8.1218376 -1.2071739 -0.58103043
-9.2474861 -1.3744826 -0.58351266
-10.73173 -1.5950904 -0.58668941
-12.781311 -1.899726 -0.59107572
-15.792188 -2.3472419 -0.5973925
-13.30121 -1.9770004 -0.39127681
-12.719858 -1.890592 -0.2672312
-12.481038 -1.8550955 -0.15731381
-12.353937 -1.8362042 -0.051901545
-12.297466 -1.8278106 0.051664297
-12.322321 -1.8315048 0.1553133
-12.571307 -1.8685125 0.2641103
-15.880393 -2.3603523 1.2702552
-15.682655 -2.3309617 1.3871253
-15.419177 -2.2918003 1.4944682
-12.491888 -1.8567082 1.3167607
-12.241471 -1.8194879 1.3944327
-12.235682 -1.8186275 1.4979873
-12.312576 -1.8300564 1.6124815
-12.494773 -1.857137 1.7432073
-12.858952 -1.911266 1.9042481
-13.835517 -2.0564158 2.1677582
-2.0923078 -0.33733076 -0.56787091
-2.1713223 -0.35006982 -0.56976783
-2.2351606 -0.36036205 -0.56648266
-2.3257477 -0.37496692 -0.56867909
-2.4218159 -0.39045545 -0.57063603
-2.5029485 -0.40353596 -0.56758404
-2.609482 -0.42071176 -0.56871587
-2.7338152 -0.4407573 -0.57177597
-2.8551743 -0.4603233 -0.57213968
-2.9763477 -0.47985941 -0.57042664
-3.1224861 -0.50342047 -0.57124931
-3.2800562 -0.52882463 -0.57160473
-3.4656272 -0.55874312 -0.57394719
-3.6303306 -0.58529729 -0.56988722
-3.8476601 -0.62033612 -0.57087624
-4.0981894 -0.66072744 -0.5728488
-4.3792529 -0.70604175 -0.57460994
-4.6799946 -0.75452858 -0.57405376
-5.0305753 -0.81105071 -0.57412821
-5.4572725 -0.87984467 -0.57634389
-5.9398108 -0.95764154 -0.57680017
-6.529593 -1.0527287 -0.57864141
-7.228488 -1.1654075 -0.5793013
-8.1110382 -1.307696 -0.58136427
-9.2348862 -1.4888875 -0.58382875
-10.718307 -1.7280509 -0.58707285
-12.769565 -2.0587635 -0.59165847
-15.757492 -2.5404897 -0.59721655
-12.908126 -2.0811028 -0.38043761
-12.536928 -2.0212567 -0.26389024
-12.402951 -1.9996564 -0.15662767
-12.33068 -1.9880046 -0.051902611
-12.583264 -2.0287273 0.052965797
-15.299404 -2.4666348 0.19320482
-15.546765 -2.5065155 0.3272444
-15.725105 -2.5352681 0.46346164
-15.772248 -2.5428689 0.59777588
-15.795035 -2.5465426 0.73183912
-15.790294 -2.5457783 0.86488032
-15.754039 -2.539933 0.995969
-15.612554 -2.5171223 1.1190406
-15.52848 -2.5035675 1.2444744
-15.328433 -2.4713149 1.3583796
-15.041999 -2.4251349 1.460691
-14.662232 -2.3639073 1.5484819
-12.537761 -2.0213909 1.4309063
-12.458065 -2.0085421 1.5281212
-12.247421 -1.9745812 1.607007
-12.344664 -1.9902591 1.7255489
-12.547674 -2.0229893 1.8616948
-13.617281 -2.1954358 2.1376331
-2.0851989 -0.36254391 -0.56710851
-2.1651177 -0.37643906 -0.56931126
-2.2325683 -0.38816637 -0.56699252
-2.3058455 -0.40090674 -0.56497538
-2.4145639 -0.4198091 -0.57010049
-2.5070546 -0.43589002 -0.56968755
-2.6139505 -0.45447555 -0.57086456
-2.7124574 -0.4716025 -0.56847888
-2.8494649 -0.49542338 -0.57217312
-2.9603133 -0.51469606 -0.56852359
-3.1182005 -0.54214716 -0.57164162
-3.2683983 -0.56826138 -0.57074767
-3.4390664 -0.59793466 -0.57072294
-3.6377201 -0.63247365 -0.5722248
-3.8635859 -0.67174393 -0.57442129
-4.0971184 -0.71234709 -0.57388008
-4.369554 -0.75971425 -0.57451963
-4.6733351 -0.81253129 -0.57441902
-5.0254855 -0.87375808 -0.5747301
-5.436511 -0.94522119 -0.57533526
-5.922832 -1.0297756 -0.57633746
-6.5008883 -1.1302795 -0.57728565
-7.2061276 -1.2528962 -0.57870024
-8.0789719 -1.4046537 -0.58026004
-9.2010622 -1.5997463 -0.58288991
-10.690019 -1.8586243 -0.58673084
-12.723954 -2.2122555 -0.59076095
-15.717561 -2.7327402 -0.59693158
-12.711723 -2.210129 -0.37542167
-12.444819 -2.1637235 -0.26249161
-12.405287 -2.1568501 -0.15698022
-12.640661 -2.1977737 -0.053317115
-14.188878 -2.4669549 0.059847351
-14.647849 -2.5467541 0.18535827
-15.075689 -2.6211407 0.31798312
-15.241324 -2.6499391 0.45012966
-15.347526 -2.6684039 0.58287817
-15.353325 -2.6694119 0.71284008
-15.341508 -2.6673574 0.8420319
-15.335151 -2.6662521 0.97148621
-15.313763 -2.6625335 1.0998881
-15.090014 -2.6236315 1.2118291
-14.892816 -2.5893455 1.3224975
-14.640627 -2.5454984 1.4246465
-14.366511 -2.4978395 1.5203797
-13.913661 -2.4191043 1.5912094
-12.63565 -2.1969023 1.5531002
-12.595091 -2.1898506 1.6560334
-12.297814 -2.1381643 1.722545
-12.410335 -2.1577277 1.8451149
-2.0929551 -0.3904632 -0.57048064
-2.1532669 -0.40171504 -0.56745112
-2.2399421 -0.41788521 -0.57012713
-2.3155355 -0.43198797 -0.56860816
-2.3985612 -0.44747731 -0.56757838
-2.4918637 -0.46488389 -0.56749171
-2.5990725 -0.48488483 -0.56887442
-2.7032111 -0.50431305 -0.56779778
-2.8208396 -0.52625793 -0.56768161
-2.9497461 -0.5503068 -0.56775087
-3.1025028 -0.57880521 -0.57002556
-3.2792344 -0.61177635 -0.57391024
-3.4251893 -0.63900578 -0.56968087
-3.6211624 -0.67556673 -0.57088381
-3.8324871 -0.71499157 -0.57106161
-4.0810409 -0.7613619 -0.57289612
-4.3471642 -0.81101006 -0.57284367
-4.6652417 -0.87035084 -0.57469624
-5.0221281 -0.93693185 -0.57562017
-5.4297466 -1.0129775 -0.57589406
-5.9190049 -1.1042539 -0.57724273
-6.4873581 -1.2102863 -0.57736206
-7.20081 -1.3433883 -0.57955599
-8.07693 -1.506838 -0.58140028
-9.1802979 -1.7126831 -0.58286464
-10.666444 -1.9899396 -0.58673561
-12.699242 -2.3691797 -0.59092146
-15.692547 -2.927613 -0.59730369
-12.624512 -2.3552382 -0.37367308
-12.463309 -2.3251641 -0.26346478
-12.563101 -2.3437812 -0.15932989
-12.721783 -2.373385 -0.053778309
-13.86766 -2.5871606 0.05862223
-14.233938 -2.655494 0.18052007
-14.480672 -2.7015247 0.30611026
-14.680883 -2.7388763 0.43453965
-14.808651 -2.7627127 0.56366003
-14.895596 -2.778933 0.69312227
-14.915631 -2.782671 0.82047325
-14.883513 -2.776679 0.94496644
-14.792805 -2.7597563 1.0648279
-14.665638 -2.736032 1.1803614
-14.531215 -2.710954 1.2932494
-14.322014 -2.6719253 1.3967345
-14.066136 -2.6241887 1.4918936
-13.706273 -2.5570521 1.5709689
-13.183125 -2.4594536 1.6239872
-12.627784 -2.3558486 1.6640149
-12.373979 -2.3084984 1.737058
-12.373065 -2.3083279 1.8436546
-2.0797725 -0.41452867 -0.56823385
-2.1572254 -0.42996615 -0.56984448
-2.2203488 -0.44254756 -0.56648231
-2.3103712 -0.46049029 -0.56868744
-2.4040973 -0.47917131 -0.5702396
-2.500541 -0.49839389 -0.57082045
-2.5839705 -0.51502264 -0.56691229
-2.6988399 -0.53791773 -0.56822598
-2.8122096 -0.56051397 -0.56728905
-2.9477167 -0.58752251 -0.56870776
-3.1053174 -0.61893457 -0.57189775
-3.2478974 -0.64735281 -0.56977588
-3.4207463 -0.68180412 -0.57029319
-3.615819 -0.72068495 -0.57139534
-3.8174131 -0.76086557 -0.57016653
-4.0688658 -0.81098372 -0.57254368
-4.334877 -0.86400354 -0.57258123
-4.6485887 -0.92653078 -0.57400489
-5.0060391 -0.99777585 -0.57513887
-5.4030995 -1.0769157 -0.57442892
-5.894011 -1.1747614 -0.57617044
-6.4805112 -1.2916594 -0.5781225
-7.1753659 -1.430154 -0.57887971
-8.0607195 -1.6066177 -0.58161145
-9.1715918 -1.8280305 -0.58369488
-10.649537 -2.1226065 -0.58719695
-12.668414 -2.5249977 -0.59088707
-15.660637 -3.1213908 -0.59750485
-12.626825 -2.5167086 -0.37462926
-12.502977 -2.4920239 -0.26493105
-12.671084 -2.5255301 -0.16108106
-12.785153 -2.5482657 -0.054174557
-13.318524 -2.6545742 0.056434613
-13.901215 -2.7707126 0.17671908
-14.126615 -2.8156381 0.29933503
-14.286728 -2.8475511 0.42387739
-14.393415 -2.8688154 0.54915619
-14.461312 -2.8823483 0.67451245
-14.485059 -2.8870811 0.7986809
-14.474397 -2.8849561 0.92117393
-14.432114 -2.8765287 1.0413318
-14.351096 -2.8603804 1.1577889
-14.22645 -2.8355367 1.2691331
-14.065056 -2.8033688 1.3749329
-13.938223 -2.778089 1.481838
-13.538789 -2.6984761 1.5554579
-12.91737 -2.5746181 1.5950289
-12.681227 -2.5275517 1.6750263
-12.487182 -2.4888756 1.757113
-12.380452 -2.4676027 1.8491367
-2.0782487 -0.4408606 -0.56925565
-2.1472809 -0.45550448 -0.56865424
-2.2257538 -0.47215095 -0.56929952
-2.3120396 -0.49045482 -0.57053947
-2.3890362 -0.50678819 -0.5681023
-2.4649346 -0.52288854 -0.56411737
-2.5978146 -0.55107653 -0.57139307
-2.6975133 -0.57222569 -0.56938511
-2.8095922 -0.59600109 -0.56819648
-2.9525647 -0.6263299 -0.57108581
-3.0814612 -0.65367287 -0.56894153
-3.2512839 -0.68969744 -0.57181454
-3.4072185 -0.722776 -0.56947654
-3.6098022 -0.76575023 -0.57188922
-3.8264065 -0.81169873 -0.57295722
-4.0489793 -0.85891324 -0.57118833
-4.3350644 -0.91960073 -0.57405627
-4.6467619 -0.98572141 -0.57523257
-4.9973226 -1.060086 -0.5755915
-5.4040465 -1.1463647 -0.57598466
-5.8928256 -1.2500498 -0.57751352
-6.449914 -1.3682255 -0.57685024
-7.1683383 -1.5206255 -0.57977748
-8.0296316 -1.7033323 -0.58083576
-9.1363707 -1.9381056 -0.58292598
-10.608295 -2.2503462 -0.58640438
-12.636302 -2.6805489 -0.59088206
-15.623355 -3.3141949 -0.59759206
-12.7064 -2.6954188 -0.37794495
-12.570464 -2.6665828 -0.26703569
-12.704485 -2.6950126 -0.16191469
-12.807407 -2.7168455 -0.0544063
-13.012453 -2.7603421 0.05527734
-13.451034 -2.8533785 0.17142923
-13.759484 -2.9188106 0.29229414
-13.94014 -2.9571331 0.41464186
-14.059003 -2.9823477 0.53775573
-14.115569 -2.9943471 0.66005355
-14.147607 -3.0011432 0.78205007
-14.146213 -3.0008476 0.90256792
-14.081811 -2.987186 1.0186294
-14.037711 -2.9778309 1.1353745
-13.866827 -2.9415812 1.2401844
-13.823244 -2.9323361 1.3547169
-13.539895 -2.8722289 1.4431356
-13.21379 -2.8030519 1.5219641
-12.843102 -2.7244174 1.5898747
-12.739185 -2.7023735 1.6869435
-12.535054 -2.6590712 1.7683165
-12.447789 -2.6405594 1.8639029
-2.0697885 -0.46573183 -0.56846398
-2.1365206 -0.48074749 -0.5673272
-2.2198992 -0.49950889 -0.56933004
-2.3046129 -0.51857066 -0.57023722
-2.3828201 -0.53616846 -0.56814903
-2.4858918 -0.55936104 -0.57044458
-2.5800855 -0.58055592 -0.56902069
-2.6884143 -0.60493141 -0.5689916
-2.7979305 -0.62957418 -0.56736076
-2.9496248 -0.66370755 -0.57205248
-3.0937972 -0.69614834 -0.57275635
-3.2304301 -0.72689271 -0.56967586
-3.4229321 -0.77020842 -0.57364249
-3.5990114 -0.80982876 -0.5717141
-3.8209043 -0.85975778 -0.57367295
-4.0578508 -0.91307414 -0.57398033
-4.319798 -0.97201592 -0.57357401
-4.6153407 -1.0385172 -0.57288033
-4.992826 -1.1234568 -0.57662117
-5.3724961 -1.2088879 -0.57416284
-5.8712449 -1.3211136 -0.57694697
-6.4371347 -1.4484469 -0.57725662
-7.1383734 -1.6062355 -0.57890761
-8.0161047 -1.8037375 -0.58141768
-9.1216669 -2.0525048 -0.58355403
-10.599165 -2.3849628 -0.58747637
-12.595957 -2.8342695 -0.59058052
-15.575318 -3.504668 -0.59735793
-20.355515 -4.5802803 -0.60709304
-12.614915 -2.8385351 -0.26870111
-12.697324 -2.8570783 -0.16225892
-12.851495 -2.8917692 -0.054740503
-12.905211 -2.903856 0.054969303
-13.08177 -2.9435842 0.16717175
-13.331433 -2.9997621 0.28396314
-13.528408 -3.0440841 0.403478
-13.677952 -3.0777335 0.52458847
-13.740535 -3.0918157 0.64424574
-13.737659 -3.0911686 0.76143259
-13.739714 -3.0916309 0.87899119
-13.725697 -3.0884769 0.99554121
-13.708268 -3.0845554 1.1117127
-13.555588 -3.0502 1.2156112
-13.398242 -3.0147951 1.3165991
-13.176709 -2.9649467 1.4082052
-12.926867 -2.9087288 1.492923
-12.786281 -2.877095 1.5871004
-12.71231 -2.8604505 1.6879148
-12.527348 -2.8188314 1.7719851
-12.531075 -2.81967 1.8814234
-2.0710328 -0.49284184 -0.570427
-2.1199441 -0.50448126 -0.56453007
-2.2154424 -0.5272069 -0.56980658
-2.2805374 -0.54269749 -0.56588858
-2.3920784 -0.56924081 -0.5719822
-2.460433 -0.58550709 -0.56621176
-2.5779784 -0.61347926 -0.5701766
-2.6914039 -0.64047104 -0.57124794
-2.7878883 -0.66343135 -0.56693584
-2.9391475 -0.69942629 -0.57164526
-3.0852797 -0.73420131 -0.57280761
-3.2230871 -0.76699525 -0.57000107
-3.4081638 -0.81103778 -0.57279551
-3.5829985 -0.85264301 -0.57079273
-3.7890599 -0.90167922 -0.57051337
-4.03898 -0.96115255 -0.57293952
-4.3014541 -1.0236132 -0.5727663
-4.6174655 -1.0988142 -0.57477778
-4.9503822 -1.1780381 -0.57334894
-5.3627791 -1.2761757 -0.57475799
-5.8522015 -1.3926433 -0.57671487
-6.4169092 -1.5270263 -0.57708311
-7.1169357 -1.693611 -0.57881421
-7.9954081 -1.9026603 -0.58156949
-9.0955572 -2.1644616 -0.58354223
-10.551554 -2.5109439 -0.5865044
-12.561441 -2.9892352 -0.59064096
-15.520239 -3.6933377 -0.59694213
-20.2894 -4.8282509 -0.60684603
-12.72165 -3.02736 -0.27174696
-12.680417 -3.0175476 -0.16250475
-12.785684 -3.042598 -0.054615412
-12.896662 -3.0690072 0.055089466
-12.959759 -3.0840225 0.16608463
-13.018048 -3.0978935 0.27807832
-13.15667 -3.1308811 0.39350954
-13.251812 -3.1535223 0.5096935
-13.355657 -3.1782339 0.62798506
-13.391443 -3.1867499 0.74435872
-13.391914 -3.1868622 0.85918295
-13.371424 -3.1819859 0.97260976
-13.299907 -3.1649671 1.0816698
-13.188587 -3.1384764 1.186071
-13.048252 -3.1050811 1.2858615
-12.937036 -3.078615 1.3865321
-12.853315 -3.058692 1.4886597
-12.774784 -3.040004 1.5901932
-12.63131 -3.0058618 1.6819402
-12.548853 -2.9862394 1.7800864
-2.0568309 -0.51626468 -0.56822091
-2.1236784 -0.53304338 -0.56722701
-2.2138209 -0.55566925 -0.57110375
-2.284163 -0.5733251 -0.56849462
-2.3688164 -0.59457308 -0.56812519
-2.4736466 -0.62088549 -0.57096636
-2.560601 -0.64271098 -0.56803823
-2.6773901 -0.67202508 -0.56998438
-2.809422 -0.70516509 -0.57303482
-2.9335911 -0.73633158 -0.57228231
-3.0713894 -0.77091891 -0.57194549
-3.2134633 -0.80657953 -0.57001001
-3.3755364 -0.84725988 -0.56901991
-3.5761163 -0.89760548 -0.57141149
-3.7693369 -0.94610381 -0.56925237
-4.036869 -1.0132543 -0.57436401
-4.2948766 -1.0780144 -0.57361221
-4.6026716 -1.1552709 -0.57466114
-4.9289384 -1.2371638 -0.57258397
-5.3511186 -1.3431311 -0.57523489
-5.8300209 -1.4633356 -0.57625866
-6.3899083 -1.6038673 -0.5763849
-7.0995512 -1.7819878 -0.57913864
-7.9540586 -1.9964691 -0.58030361
-9.0518961 -2.2720263 -0.58248943
-10.515538 -2.639401 -0.58626223
-12.515465 -3.1413825 -0.59025079
-15.470245 -3.8830326 -0.59681064
-20.236973 -5.0794816 -0.60710019
-29.243008 -7.3399968 -0.62654001
-12.757059 -3.2020226 -0.16397913
-12.724624 -3.1938813 -0.054518227
-12.802958 -3.2135434 0.054853849
-12.907486 -3.2397799 0.16591273
-12.959682 -3.2528811 0.27766499
-12.980371 -3.2580738 0.38940537
-13.00174 -3.2634373 0.50158066
-13.044367 -3.274137 0.61519474
-13.072701 -3.2812488 0.72882915
-13.075541 -3.2819617 0.84141105
-13.054561 -3.2766955 0.95242059
-13.013782 -3.2664602 1.061586
-12.969862 -3.2554362 1.1699123
-12.904963 -3.2391462 1.2755694
-12.881914 -3.2333612 1.3847809
-12.819264 -3.2176361 1.4891859
-12.670507 -3.1802983 1.5819613
-12.650144 -3.1751869 1.6895193
-2.0521762 -0.54200369 -0.56873322
-2.1240854 -0.56099582 -0.56913525
-2.2012057 -0.58136421 -0.56965047
-2.2804005 -0.60228044 -0.56935835
-2.3593366 -0.62312841 -0.56764638
-2.4576051 -0.6490823 -0.56906295
-2.5550437 -0.67481691 -0.56860316
-2.660692 -0.70271987 -0.56822616
-2.7850966 -0.73557663 -0.56987506
-2.9186125 -0.77083969 -0.57116622
-3.052649 -0.80624032 -0.57025874
-3.1993265 -0.84497958 -0.56930238
-3.3874388 -0.8946622 -0.57283753
-3.5554397 -0.93903315 -0.56990957
-3.7729387 -0.99647725 -0.5716036
-4.0005512 -1.0565923 -0.57100213
-4.2857766 -1.1319237 -0.57421237
-4.5661058 -1.2059619 -0.57190394
-4.9290457 -1.3018186 -0.57441264
-5.3391604 -1.4101347 -0.57576984
-5.810307 -1.53457 -0.5761317
-6.3783236 -1.6845899 -0.57716483
-7.0664482 -1.8663316 -0.57826662
-7.9178267 -2.0911906 -0.57949251
-9.0341311 -2.3860197 -0.5831902
-10.472892 -2.7660131 -0.58573657
-12.486433 -3.2978129 -0.59074944
-15.420452 -4.0727215 -0.59677655
-20.163244 -5.3253484 -0.60680699
-29.131361 -7.693933 -0.62612766
-52.415302 -13.843494 -0.67588288
-12.773743 -3.3736949 0.054902263
-12.780979 -3.3756061 0.16480769
-12.859965 -3.3964672 0.27640244
-12.919731 -3.4122519 0.38881555
-12.936728 -3.4167411 0.50065565
-12.966792 -3.4246814 0.6134758
-13.030754 -3.4415746 0.72879481
-12.993812 -3.4318175 0.83880377
-12.983966 -3.4292173 0.95027477
-12.970062 -3.4255452 1.0613754
-12.905612 -3.4085231 1.1678092
-12.86452 -3.3976703 1.2756052
-12.756202 -3.3690619 1.3756164
-12.69033 -3.3516645 1.4788837
-12.687975 -3.3510425 1.5891666
-19.598042 -5.1760721 2.6257639
-2.0568821 -0.57039148 -0.57193798
-2.1082349 -0.58463204 -0.56677157
-2.187252 -0.6065442 -0.56792665
-2.269479 -0.62934637 -0.56852072
-2.359345 -0.65426707 -0.56954098
-2.4500983 -0.6794337 -0.56921619
-2.5531168 -0.70800167 -0.57006866
-2.6480162 -0.73431808 -0.56740457
-2.7741554 -0.7692976 -0.56952882
-2.9037988 -0.80524886 -0.57016182
-3.0391216 -0.84277511 -0.56962454
-3.1993399 -0.887205 -0.57120287
-3.3571627 -0.93097061 -0.56961042
-3.5530198 -0.98528349 -0.57142049
-3.763365 -1.0436141 -0.57205409
-3.9907255 -1.1066632 -0.57149881
-4.2608566 -1.1815729 -0.57277691
-4.5619826 -1.2650777 -0.57329261
-4.9150119 -1.3629758 -0.57468683
-5.3137331 -1.4735448 -0.57493836
-5.7951612 -1.6070491 -0.57654577
-6.3479552 -1.7603436 -0.57633197
-7.0463786 -1.9540225 -0.57854676
-7.904912 -2.1921012 -0.58047616
-8.9985933 -2.4953887 -0.58283287
-10.435359 -2.8938167 -0.58558333
-12.438117 -3.4491987 -0.59042549
-15.372763 -4.2630019 -0.59691447
-20.101358 -5.5742826 -0.60696143
-29.029057 -8.0500116 -0.62600899
-52.218182 -14.48056 -0.67558604
-12.798141 -3.5490365 0.27599075
-12.814315 -3.5535219 0.38692886
-12.811216 -3.5526624 0.49745131
-12.837439 -3.5599344 0.6093809
-12.846311 -3.5623946 0.72087455
-12.846046 -3.5623212 0.83202982
-12.841209 -3.5609798 0.94296008
-12.806249 -3.551285 1.0514641
-12.764797 -3.5397902 1.1589181
-12.734123 -3.5312839 1.2668853
-12.788193 -3.5462778 1.3836641
-21.826977 -6.0528121 2.5521154
-21.090057 -5.8484578 2.6503332
-19.935701 -5.5283446 2.6799092
-2.0252337 -0.58852518 -0.56510735
-2.101975 -0.61082584 -0.56706506
-2.1814299 -0.63391507 -0.56839585
-2.255425 -0.6554178 -0.56697619
-2.3380587 -0.67943084 -0.56637645
-2.434063 -0.70732927 -0.56746858
-2.5258589 -0.73400486 -0.56595498
-2.6447694 -0.76855981 -0.5686909
-2.7547882 -0.80053079 -0.56753075
-2.892514 -0.8405534 -0.5699324
-3.0462399 -0.88522553 -0.57295561
-3.1815529 -0.92454702 -0.57001388
-3.3551667 -0.97499847 -0.57126272
-3.5479922 -1.0310329 -0.57260764
-3.7505207 -1.0898868 -0.57209557
-3.9795234 -1.1564342 -0.57188779
-4.2471247 -1.234198 -0.57292771
-4.541306 -1.3196861 -0.57269019
-4.8930879 -1.4219124 -0.57412434
-5.2832747 -1.5352993 -0.57364208
-5.7577496 -1.6731797 -0.57482713
-6.3375177 -1.8416582 -0.57739669
-7.0099397 -2.0370615 -0.57756793
-7.8713579 -2.2873864 -0.58003384
-8.9720087 -2.6072311 -0.58314335
-10.419808 -3.0279562 -0.58675563
-12.390133 -3.6005249 -0.59020478
-15.306586 -4.4480348 -0.59642363
-20.015646 -5.8164692 -0.6064871
-28.897388 -8.3974695 -0.6253491
-51.991947 -15.10866 -0.67501163
-21.388649 -6.2154589 2.697257
-20.246256 -5.8834844 2.7311754
-2.0487804 -0.62278587 -0.57377106
-2.1035118 -0.63942301 -0.56955773
-2.1763949 -0.66157794 -0.56916058
-2.2568493 -0.68603444 -0.56941181
-2.351264 -0.71473444 -0.57166111
-2.4254551 -0.73728698 -0.56753248
-2.5208879 -0.76629651 -0.56690955
-2.6322908 -0.80016071 -0.56808043
-2.7474666 -0.83517164 -0.56809515
-2.8927789 -0.87934357 -0.57207191
-3.0243304 -0.91933239 -0.57091779
-3.1824265 -0.96739024 -0.57225829
-3.3455689 -1.0169821 -0.57171458
-3.5225 -1.0707654 -0.5705753
-3.731317 -1.1342413 -0.57125056
-3.9620829 -1.2043893 -0.57146651
-4.2240891 -1.2840337 -0.57190698
-4.5381823 -1.3795112 -0.57439196
-4.8696375 -1.4802667 -0.57346517
-5.2730947 -1.6029091 -0.57463336
-5.7549014 -1.7493682 -0.5766468
-6.3094778 -1.9179476 -0.57694715
-6.987977 -2.124197 -0.57786679
-7.8648767 -2.3907561 -0.58167857
-8.9209595 -2.7117827 -0.5819487
-10.369856 -3.1522167 -0.58608115
-12.341619 -3.7515907 -0.59004664
-15.255285 -4.6372838 -0.59660143
-19.931374 -6.0587153 -0.6061452
-28.799976 -8.7545834 -0.62552339
-51.752892 -15.731783 -0.6743685
-21.713717 -6.6005101 2.7482777
-22.326323 -6.7867289 3.0228007
-2.022928 -0.64220268 -0.5686996
-2.0990515 -0.66636896 -0.57052559
-2.1573682 -0.68488228 -0.56634438
-2.2433691 -0.71218431 -0.56817722
-2.3275607 -0.73891193 -0.56806427
-2.4221814 -0.76895034 -0.56893593
-2.528187 -0.80260313 -0.57072729
-2.6339002 -0.83616298 -0.57060349
-2.749562 -0.87288123 -0.57070464
-2.8609757 -0.90825081 -0.56794822
-3.01998 -0.95872861 -0.57227874
-3.160671 -1.0033927 -0.57052183
-3.3302567 -1.0572298 -0.57127631
-3.5108762 -1.1145695 -0.57086927
-3.7405112 -1.1874698 -0.57485014
-3.961797 -1.2577198 -0.57361251
-4.2153349 -1.3382083 -0.57290632
-4.49365 -1.4265628 -0.57093269
-4.8663406 -1.5448779 -0.57527059
-5.2535486 -1.6678016 -0.57469475
-5.7262883 -1.8178786 -0.57597607
-6.2829952 -1.9946117 -0.57672465
-6.9664273 -2.2115755 -0.57828987
-7.8178954 -2.4818842 -0.5804171
-8.9092607 -2.828351 -0.5834102
-10.321406 -3.2766538 -0.58557582
-12.294815 -3.9031358 -0.59005898
-15.181612 -4.8195839 -0.59599286
-19.855829 -6.3034697 -0.60615921
-28.673594 -9.1027746 -0.62516224
-51.524906 -16.357195 -0.67396766
-22.025663 -6.9923096 2.7984314
-21.048798 -6.6821918 2.8607428
-2.0026243 -0.66297019 -0.56524068
-2.0861125 -0.69060904 -0.56927383
-2.1604381 -0.71521455 -0.56941593
-2.2326567 -0.73912257 -0.56772304
-2.3115606 -0.76524377 -0.56641304
-2.4147708 -0.79941159 -0.56946117
-2.5060551 -0.82963127 -0.56799114
-2.6144276 -0.86550808 -0.56864762
-2.7332771 -0.90485328 -0.56959087
-2.8552752 -0.9452408 -0.56908089
-3.0043204 -0.99458241 -0.57158566
-3.1461313 -1.0415289 -0.57016593
-3.320513 -1.0992582 -0.57188034
-3.5061538 -1.1607147 -0.57237893
-3.7014158 -1.2253563 -0.57111436
-3.9415498 -1.3048528 -0.57296079
-4.1726193 -1.3813485 -0.56936628
-4.505619 -1.4915884 -0.57474023
-4.8457379 -1.604185 -0.57512343
-5.2436657 -1.7359191 -0.57590514
-5.6950383 -1.8853465 -0.57512116
-6.2651758 -2.074091 -0.57738644
-6.9435382 -2.2986634 -0.57869244
-7.7897787 -2.5788119 -0.58064002
-8.8682308 -2.9358339 -0.58304328
-10.295658 -3.4083848 -0.58644843
-12.245173 -4.0537734 -0.59002423
-15.138156 -5.011497 -0.59666097
-19.775927 -6.5468349 -0.60613173
-28.545471 -9.4499979 -0.6248551
-51.278893 -16.975914 -0.67342925
-22.35643 -7.4011121 2.8518035
-21.524166 -7.1255908 2.9370365
-2.0091865 -0.6926682 -0.5694539
-2.072983 -0.71466213 -0.56804615
-2.1440363 -0.73915774 -0.5674457
-2.2158694 -0.76392227 -0.56580019
-2.3196173 -0.79968935 -0.57075357
-2.4093239 -0.83061582 -0.57054216
-2.5051324 -0.86364585 -0.57014591
-2.6081624 -0.89916545 -0.56964672
-2.7266212 -0.94000417 -0.5705694
-2.8531108 -0.98361158 -0.57101703
-2.9849427 -1.0290607 -0.57026327
-3.1395836 -1.0823733 -0.57134813
-3.3054249 -1.1395471 -0.57165188
-3.4775488 -1.198887 -0.57007271
-3.6973395 -1.27466 -0.57286048
-3.9208987 -1.3517321 -0.57233179
-4.1757326 -1.4395863 -0.5721634
-4.4670606 -1.5400218 -0.57219404
-4.8123569 -1.6590627 -0.57353944
-5.2145872 -1.7977319 -0.57509583
-5.6713324 -1.9551951 -0.57511163
-6.2308125 -2.1480763 -0.57661021
-6.9082208 -2.381613 -0.57814598
-7.7570715 -2.6742549 -0.58060926
-8.8372154 -3.0466349 -0.58342308
-10.24124 -3.530673 -0.58577734
-12.196095 -4.2046103 -0.59010601
-15.046651 -5.1873417 -0.59552342
-19.688389 -6.7875834 -0.60596097
-28.409159 -9.7940741 -0.62446028
-51.022583 -17.590065 -0.67285293
-22.689209 -7.8221183 2.9063027
-1.9990407 -0.7167902 -0.56903338
-2.0622623 -0.73945934 -0.5675571
-2.1469176 -0.76981395 -0.57067037
-2.2235792 -0.79730237 -0.57022905
-2.3091581 -0.82798803 -0.57064199
-2.4023893 -0.86141771 -0.57136512
-2.4801908 -0.88931477 -0.56691533
-2.5853832 -0.92703331 -0.56711835
-2.7041724 -0.96962726 -0.56832385
-2.8344121 -1.0163269 -0.56973279
-2.9825859 -1.0694572 -0.57228214
-3.1160107 -1.1172988 -0.56951547
-3.2808864 -1.1764178 -0.56986678
-3.4677212 -1.2434107 -0.57092494
-3.671356 -1.3164275 -0.57129949
-3.8994098 -1.3982 -0.57166147
-4.1693969 -1.4950085 -0.57377076
-4.454946 -1.5973971 -0.57311499
-4.7929878 -1.7186077 -0.57370633
-5.1835237 -1.8586409 -0.57414711
-5.6614757 -2.0300188 -0.57659978
-6.2183256 -2.2296867 -0.57794815
-6.8767862 -2.4657893 -0.57800907
-7.7249742 -2.7699215 -0.58071226
-8.7851753 -3.1500747 -0.5825007
-10.189942 -3.6537778 -0.58536881
-12.145139 -4.354847 -0.59018689
-14.992012 -5.3756423 -0.59593207
-19.59005 -7.0243468 -0.60554695
-28.270088 -10.136724 -0.62409604
-50.760986 -18.20122 -0.6723038
-23.043812 -8.2627525 2.9645147
-1.9950557 -0.7431702 -0.57045716
-2.0538228 -0.76506126 -0.56778055
-2.1204772 -0.78989047 -0.5661813
-2.2099423 -0.8232168 -0.5692848
-2.2944951 -0.85471314 -0.56957269
-2.3942387 -0.89186823 -0.57199168
-2.4777474 -0.92297578 -0.56890804
-2.5869491 -0.96365398 -0.57001799
-2.6854725 -1.0003545 -0.56693614
-2.8084273 -1.0461559 -0.5670526
-2.9594853 -1.1024259 -0.57040763
-3.1087713 -1.1580359 -0.57075179
-3.2633195 -1.2156061 -0.56936878
-3.4466929 -1.2839137 -0.57001901
-3.6552162 -1.3615899 -0.5713501
-3.8797066 -1.4452139 -0.57133508
-4.1344271 -1.5400988 -0.57152128
-4.4426203 -1.6549027 -0.57410383
-4.7707829 -1.7771453 -0.5736208
-5.1559191 -1.9206105 -0.57366204
-5.6253433 -2.095474 -0.57550061
-6.172471 -2.2992823 -0.57627058
-6.8402314 -2.548027 -0.57752639
-7.6871338 -2.8635035 -0.58047074
-8.7422104 -3.2565258 -0.58226299
-10.148965 -3.78055 -0.58564109
-12.062958 -4.4935236 -0.58883387
-14.899879 -5.5502939 -0.59493768
-19.498714 -7.2633877 -0.60543877
-28.137171 -10.481264 -0.62395978
-50.478695 -18.803616 -0.67157656
-23.372721 -8.7064781 3.0203724
-1.9957644 -0.77150893 -0.57332909
-2.050406 -0.79263192 -0.56948745
-2.1276524 -0.82249331 -0.57075441
-2.2071609 -0.85322917 -0.57122779
-2.2829669 -0.88253367 -0.56936175
-2.3662434 -0.91472614 -0.56794769
-2.4605668 -0.95118898 -0.56760585
-2.5677481 -0.99262249 -0.5684337
-2.6839156 -1.0375297 -0.5692578
-2.8171153 -1.0890212 -0.5714674
-2.9406614 -1.1367807 -0.56943065
-3.0977237 -1.1974968 -0.57138371
-3.2434413 -1.2538273 -0.56854755
-3.4325731 -1.3269405 -0.5703392
-3.6497846 -1.4109087 -0.57316965
-3.8746855 -1.4978495 -0.5732646
-4.137661 -1.5995086 -0.57464373
-4.3994479 -1.7007084 -0.57118404
-4.7493305 -1.8359636 -0.57371247
-5.1428442 -1.9880855 -0.57488388
-5.6148753 -2.1705601 -0.57711661
-6.1452832 -2.3756015 -0.5764159
-6.8242974 -2.6380901 -0.5788762
-7.6368618 -2.9522057 -0.57937199
-8.7085381 -3.366487 -0.58273333
-10.096028 -3.9028535 -0.58531147
-12.027718 -4.6495929 -0.58985996
-14.835463 -5.7349916 -0.5951364
-19.408831 -7.502933 -0.60546678
-27.985907 -10.818601 -0.62350833
-50.197308 -19.404932 -0.67095679
-23.698906 -9.1613607 3.076849
-27.167355 -10.502171 4.5139918
-27.220827 -10.52284 4.7715783
-27.299381 -10.553207 5.0354466
-27.375099 -10.582479 5.3009233
-1.9761226 -0.79197997 -0.57044107
-2.0489399 -0.8211633 -0.57184148
-2.0946805 -0.839495 -0.56463599
-2.1791034 -0.87332952 -0.56670278
-2.2714312 -0.91033214 -0.56923354
-2.356926 -0.94459635 -0.56845629
-2.4647126 -0.98779452 -0.57132101
-2.5683432 -1.0293269 -0.57132417
-2.6682506 -1.0693673 -0.56868124
-2.8018057 -1.1228929 -0.57111955
-2.9252033 -1.1723475 -0.56918579
-3.0829093 -1.2355521 -0.57141036
-3.2493696 -1.3022652 -0.57235044
-3.417891 -1.3698041 -0.57065523
-3.6328413 -1.4559509 -0.57327706
-3.8429406 -1.5401534 -0.57132667
-4.0928693 -1.6403184 -0.57118106
-4.3928752 -1.7605532 -0.57309806
-4.7243309 -1.8933924 -0.57346165
-5.1203203 -2.0520947 -0.57514322
-5.5678687 -2.231461 -0.57506192
-6.1244712 -2.4545331 -0.5772512
-6.7890754 -2.7208896 -0.57868272
-7.6051869 -3.0479665 -0.57976854
-8.6528502 -3.4678435 -0.58181643
-10.035851 -4.0221148 -0.58464581
-11.956133 -4.7917156 -0.58919436
-14.766339 -5.9179754 -0.59523773
-19.30751 -7.7379622 -0.60522854
-27.839979 -11.157559 -0.6232667
-49.920231 -20.006765 -0.67049086
-24.086687 -9.6533346 3.1423688
-26.355839 -10.562753 3.6780937
-26.437908 -10.595645 3.9305012
-26.56897 -10.648171 4.1926908
-26.607372 -10.663562 4.442399
-1.9566438 -0.81223595 -0.56765831
-2.0096257 -0.83422959 -0.56368953
-2.1052527 -0.87392604 -0.57033944
-2.1778536 -0.90406388 -0.56922579
-2.2595694 -0.93798542 -0.56910831
-2.3436561 -0.97289133 -0.56809819
-2.4444945 -1.014751 -0.5694837
-2.5493484 -1.0582776 -0.56995046
-2.6510761 -1.1005065 -0.56786209
-2.7780046 -1.1531968 -0.5691154
-2.9121799 -1.2088952 -0.5695011
-3.0566742 -1.2688771 -0.56939662
-3.2206173 -1.3369328 -0.57013857
-3.4063795 -1.4140457 -0.57159311
-3.5992053 -1.494091 -0.57082516
-3.8183279 -1.5850525 -0.57052201
-4.0776463 -1.6927 -0.57191813
-4.3811874 -1.8187051 -0.57444745
-4.7145681 -1.9570969 -0.5751543
-5.083941 -2.11043 -0.57392848
-5.549983 -2.3038919 -0.57609701
-6.0902681 -2.5281732 -0.57691389
-6.7487226 -2.8015089 -0.57813579
-7.5625982 -3.1393626 -0.57942092
-8.6277313 -3.581517 -0.58304453
-9.9983349 -4.1504779 -0.5853892
-11.88645 -4.9342666 -0.5887059
-14.697063 -6.1009998 -0.59542429
-19.194885 -7.9681211 -0.60472369
-27.685448 -11.492698 -0.62292385
-49.619095 -20.597727 -0.66979748
-24.674747 -10.242905 3.2352748
-25.906429 -10.754197 3.6335564
-26.004976 -10.795106 3.8855784
-1.9506078 -0.83799338 -0.56885368
-2.0128584 -0.86473668 -0.56753594
-2.0795887 -0.89340436 -0.56632
-2.1517506 -0.92440557 -0.56533146
-2.2472153 -0.9654178 -0.56894368
-2.3321126 -1.0018902 -0.56824332
-2.4253311 -1.0419375 -0.56796116
-2.5239053 -1.0842856 -0.56720012
-2.655905 -1.1409936 -0.57185847
-2.7724648 -1.1910683 -0.57093775
-2.8896 -1.2413903 -0.56802762
-3.0519915 -1.3111547 -0.57148445
-3.2084358 -1.3783642 -0.57093936
-3.3804336 -1.4522555 -0.57019275
-3.5852733 -1.540256 -0.57157618
-3.8162997 -1.6395065 -0.57318795
-4.0628381 -1.7454209 -0.57280821
-4.3435631 -1.866022 -0.57247949
-4.6703782 -2.006424 -0.57272989
-5.060257 -2.1739182 -0.57422912
-5.5175295 -2.3703654 -0.5757103
-6.0604477 -2.6036067 -0.57707822
-6.7107906 -2.882998 -0.57787955
-7.5295033 -3.2347221 -0.57988894
-8.5809574 -3.6864336 -0.58290297
-9.9370375 -4.2690139 -0.58482951
-11.823356 -5.0793881 -0.5886299
-14.614832 -6.2786236 -0.59517562
-19.100971 -8.2058973 -0.60489815
-27.522108 -11.823671 -0.62247294
-49.313385 -21.185341 -0.66913664
-1.9345336 -0.85941571 -0.56720495
-2.0100574 -0.89296716 -0.56979907
-2.09197 -0.92935681 -0.57276052
-2.1595662 -0.95938629 -0.57044119
-2.2296844 -0.99053633 -0.56754607
-2.319901 -1.030615 -0.56831276
-2.4175069 -1.0739764 -0.56917846
-2.525897 -1.1221287 -0.57070547
-2.6309087 -1.1687801 -0.5695278
-2.7527387 -1.222903 -0.56992912
-2.875582 -1.2774761 -0.56831694
-3.0381336 -1.3496896 -0.57195401
-3.1920128 -1.4180503 -0.57107663
-3.3851345 -1.5038446 -0.57406145
-3.5787997 -1.5898802 -0.57361746
-3.7837706 -1.6809385 -0.57136351
-4.035162 -1.7926191 -0.5719707
-4.3233366 -1.9206405 -0.57288307
-4.6651874 -2.0725074 -0.57517499
-5.0334473 -2.2361069 -0.57426363
-5.477108 -2.433203 -0.57457113
-6.0231905 -2.6757998 -0.57661998
-6.6709867 -2.963583 -0.5775463
-7.4831333 -3.3243787 -0.57942218
-8.5150518 -3.7828083 -0.58154184
-9.8908768 -4.3940177 -0.58524847
-11.78342 -5.2347794 -0.58980173
-14.525041 -6.4527431 -0.59470528
-18.985323 -8.4342222 -0.60447443
-27.37023 -12.159213 -0.62237245
-48.996281 -21.766577 -0.66841513
-1.9206949 -0.88170218 -0.56628346
-1.9967802 -0.91662937 -0.5691874
-2.0737948 -0.95198327 -0.57094616
-2.1539824 -0.98879367 -0.57213467
-2.2155087 -1.0170375 -0.56707823
-2.3064985 -1.0588067 -0.56817603
-2.4150701 -1.1086469 -0.57177114
-2.5105724 -1.1524876 -0.57040185
-2.615905 -1.200841 -0.56943333
-2.7380171 -1.256897 -0.57003796
-2.860822 -1.313271 -0.56854844
-2.9990609 -1.3767301 -0.56774229
-3.1855755 -1.4623504 -0.57309872
-3.3496747 -1.5376807 -0.57121134
-3.542361 -1.626134 -0.57093883
-3.7538602 -1.7232236 -0.57000351
-4.0161643 -1.8436352 -0.57244796
-4.2955413 -1.9718844 -0.57236964
-4.618885 -2.1203165 -0.57263756
-5.0071292 -2.2985413 -0.57444221
-5.4582567 -2.5056331 -0.57578212
-5.9847684 -2.7473302 -0.57613224
-6.639154 -3.0477283 -0.57799125
-7.4320173 -3.4116952 -0.57866883
-8.4671564 -3.8868799 -0.58149099
-9.830966 -4.5129414 -0.58494288
-11.711072 -5.3760109 -0.58944476
-14.442413 -6.6298432 -0.59461516
-18.869921 -8.6623068 -0.60414582
-27.2001 -12.486307 -0.62194806
-48.676025 -22.344912 -0.66774404
-1.9031736 -0.90215367 -0.5643456
-1.9838337 -0.94038862 -0.5687502
-2.0512991 -0.97236896 -0.56800163
-2.1286747 -1.0090472 -0.56866527
-2.1940522 -1.0400376 -0.56481695
-2.2750399 -1.078428 -0.56365067
-2.3905632 -1.133189 -0.56922501
-2.4989376 -1.1845613 -0.5710246
-2.6014433 -1.2331517 -0.569543
-2.7223742 -1.290476 -0.57004178
-2.8532755 -1.3525267 -0.57031077
-2.9836924 -1.4143476 -0.56808233
-3.1667693 -1.5011308 -0.57299286
-3.3306303 -1.5788052 -0.57123119
-3.5235243 -1.670242 -0.57116985
-3.7528872 -1.778966 -0.57313406
-3.9905183 -1.8916093 -0.5720647
-4.27248 -2.0252664 -0.57257181
-4.5997872 -2.1804185 -0.57355052
-4.981781 -2.3614933 -0.57482201
-5.4255881 -2.5718696 -0.57562852
-5.9600568 -2.8252215 -0.57705402
-6.5984883 -3.1278546 -0.57775569
-7.4016528 -3.5085754 -0.57961994
-8.4223423 -3.9924088 -0.5817408
-9.7614403 -4.6271758 -0.58414733
-11.620759 -5.5085411 -0.58826393
-14.360767 -6.8073764 -0.59465504
-18.753117 -8.8894634 -0.6038602
-27.024097 -12.810123 -0.6214785
-48.329899 -22.909626 -0.66680992
-1.9091932 -0.93392718 -0.56949288
-1.9762123 -0.96671116 -0.56993008
-2.0467043 -1.001194 -0.57009524
-2.1082611 -1.031306 -0.56655681
-2.1845305 -1.068615 -0.56570566
-2.270833 -1.1108319 -0.56594974
-2.3864331 -1.1673805 -0.57161647
-2.4781337 -1.2122378 -0.5696339
-2.5830581 -1.2635642 -0.56887656
-2.7023253 -1.3219066 -0.56920433
-2.8222547 -1.3805728 -0.5674606
-2.9867539 -1.4610416 -0.57204258
-3.1266811 -1.5294904 -0.56909931
-3.3066428 -1.6175228 -0.57048523
-3.5059063 -1.7149973 -0.57168919
-3.7205992 -1.8200194 -0.57157767
-3.9722183 -1.9431049 -0.57282317
-4.2465219 -2.0772872 -0.57247299
-4.5732713 -2.2371242 -0.57363093
-4.9539409 -2.4233377 -0.57500452
-5.4015102 -2.642277 -0.57647753
-5.9111605 -2.8915844 -0.57571894
-6.5732241 -3.2154486 -0.57896173
-7.3565531 -3.5986326 -0.57950968
-8.3682976 -4.0935512 -0.58144069
-9.7086878 -4.7492352 -0.58444107
-11.566327 -5.6579432 -0.58898586
-14.263982 -6.9775653 -0.59415525
-18.633453 -9.1149969 -0.60357052
-26.830256 -13.124657 -0.62068522
-48.009708 -23.485088 -0.66632622
-1.8867984 -0.95189893 -0.56626141
-1.958846 -0.98824733 -0.56838328
-2.0264535 -1.0223556 -0.56791317
-2.0874126 -1.0531099 -0.56439143
-2.1779151 -1.0987687 -0.56744844
-2.2606399 -1.1405038 -0.56686163
-2.3572075 -1.1892227 -0.56807584
-2.4523928 -1.2372441 -0.56717122
-2.5720294 -1.2976013 -0.56991857
-2.6771643 -1.3506423 -0.56735986
-2.8100443 -1.417681 -0.56846768
-2.9521129 -1.4893553 -0.56887245
-3.1262751 -1.5772209 -0.57251215
-3.2843428 -1.6569668 -0.57010996
-3.486443 -1.7589275 -0.57199901
-3.6982596 -1.86579 -0.57162714
-3.949815 -1.9927009 -0.57308269
-4.2272177 -2.1326518 -0.57336247
-4.5376806 -2.2892821 -0.57265443
-4.9131374 -2.4787018 -0.57376283
-5.3579569 -2.7031152 -0.57533318
-5.8851972 -2.9691107 -0.57670254
-6.5260615 -3.2924299 -0.57832992
-7.3072686 -3.6865525 -0.57915449
-8.3203554 -4.19766 -0.58165205
-9.6453028 -4.8661022 -0.58418322
-11.477043 -5.7902241 -0.5880205
-14.171978 -7.1498318 -0.59394014
-18.520582 -9.3437233 -0.60359037
-26.669434 -13.454859 -0.62074524
-47.664982 -24.047216 -0.66559541
-1.889503 -0.98259336 -0.57065612
-1.9429002 -1.0103613 -0.5673185
-2.0037229 -1.0419908 -0.56509107
-2.1012881 -1.0927274 -0.57173282
-2.1700284 -1.1284742 -0.56896597
-2.2450535 -1.1674893 -0.56651032
-2.3383126 -1.2159866 -0.56708276
-2.4388626 -1.2682754 -0.56760591
-2.5523338 -1.3272835 -0.56912774
-2.6765835 -1.3918967 -0.57082081
-2.7988112 -1.4554585 -0.56977266
-2.9381452 -1.5279161 -0.5697583
-3.0869141 -1.6052799 -0.56887585
-3.2623622 -1.6965177 -0.56987262
-3.4515152 -1.7948825 -0.56984657
-3.6673424 -1.9071184 -0.57042992
-3.9119701 -2.0343316 -0.57117802
-4.2046356 -2.1865256 -0.5739029
-4.5140266 -2.3474174 -0.57326865
-4.88797 -2.5418782 -0.57443041
-5.3302755 -2.7718892 -0.57597721
-5.8351436 -3.0344346 -0.57541054
-6.4806037 -3.3700914 -0.57793015
-7.2471795 -3.7687318 -0.57802123
-8.2610226 -4.295958 -0.58115309
-9.5805416 -4.9821444 -0.58392727
-11.399927 -5.9282742 -0.58775985
-14.071035 -7.3173237 -0.5934357
-18.398827 -9.567894 -0.60341102
-26.48251 -13.771631 -0.62028921
-47.298817 -24.596682 -0.66465545
-1.8788592 -1.0065982 -0.57113659
-1.9286929 -1.0332967 -0.56683725
-2.0015419 -1.0723255 -0.56815165
-2.0733352 -1.1107887 -0.56780064
-2.1556039 -1.1548641 -0.56886429
-2.2446225 -1.2025559 -0.57008982
-2.3303182 -1.2484673 -0.56882411
-2.4257021 -1.2995692 -0.56821918
-2.53968 -1.3606328 -0.56999379
-2.6458073 -1.4174905 -0.56793165
-2.7832308 -1.4911151 -0.57029045
-2.9213445 -1.5651095 -0.57018924
-3.0754166 -1.6476536 -0.57044756
-3.2333651 -1.7322744 -0.5684852
-3.4340718 -1.839803 -0.57065862
-3.6572735 -1.9593832 -0.57256812
-3.9001353 -2.0894964 -0.57315814
-4.1641312 -2.230932 -0.57207549
-4.4819775 -2.4012182 -0.572905
-4.8518214 -2.5993619 -0.57389516
-5.2845292 -2.8311851 -0.57475239
-5.8052182 -3.1101439 -0.57618725
-6.4315758 -3.445715 -0.5772928
-7.215148 -3.8655136 -0.57921374
-8.2178154 -4.4026923 -0.58187807
-9.5339708 -5.1078219 -0.58487266
-11.340256 -6.0755386 -0.58849061
-14.000112 -7.5005555 -0.59428936
-18.269602 -9.7879343 -0.60307461
-26.294556 -14.087301 -0.61989731
-46.941605 -25.148951 -0.66393119
-1.863952 -1.0283061 -0.57040566
-1.9259728 -1.0625218 -0.56983459
-1.9856884 -1.0954657 -0.56743234
-2.0527418 -1.1324577 -0.56593174
-2.1461589 -1.1839941 -0.57017076
-2.2347813 -1.2328854 -0.57139754
-2.3265953 -1.2835374 -0.57172471
-2.4180083 -1.3339682 -0.57021618
-2.5232437 -1.3920245 -0.57010347
-2.6467726 -1.460173 -0.57194972
-2.7503533 -1.5173165 -0.56733388
-2.9153121 -1.608321 -0.57282853
-3.0475645 -1.6812822 -0.56907308
-3.2352192 -1.7848076 -0.57262659
-3.4108799 -1.881716 -0.57060653
-3.6329942 -2.0042524 -0.57258213
-3.8683481 -2.1340923 -0.57229996
-4.1553278 -2.2924135 -0.57469523
-4.446866 -2.4532497 -0.57222962
-4.8294067 -2.6642897 -0.57507551
-5.2427621 -2.8923299 -0.57403451
-5.7632399 -3.1794672 -0.57585764
-6.384645 -3.5222845 -0.57692438
-7.1604676 -3.9502909 -0.57867986
-8.1611195 -4.5023308 -0.58173972
-9.4471836 -5.2118273 -0.58343595
-11.243405 -6.2027683 -0.58737832
-13.87892 -7.6567302 -0.59309661
-18.127184 -10.000415 -0.60238707
-26.0975 -14.397483 -0.61937851
-46.58427 -25.699636 -0.66329664
-1.8513416 -1.0512456 -0.57045931
-1.8956507 -1.0764055 -0.56473666
-1.975212 -1.1215827 -0.56833667
-2.0441103 -1.1607051 -0.56744403
-2.1222305 -1.2050641 -0.56770754
-2.2063937 -1.2528543 -0.5680353
-2.2975774 -1.3046311 -0.56849319
-2.3880563 -1.3560077 -0.56704211
-2.4878378 -1.4126666 -0.56598586
-2.6093943 -1.4816898 -0.56776673
-2.7438545 -1.5580403 -0.56990212
-2.877507 -1.633932 -0.56930494
-3.0240798 -1.7171603 -0.5685876
-3.2115951 -1.8236369 -0.57237095
-3.3869414 -1.9232037 -0.57051498
-3.6006281 -2.0445411 -0.57140011
-3.8415616 -2.1813502 -0.57226205
-4.1065521 -2.3318195 -0.57187176
-4.4231648 -2.5116014 -0.57311058
-4.7895904 -2.7196684 -0.57427311
-5.2148056 -2.961118 -0.57491672
-5.7321301 -3.2548697 -0.57670468
-6.3432913 -3.6019051 -0.57714611
-7.1216846 -4.0438995 -0.5795204
-8.1061258 -4.6028934 -0.58181018
-9.3962259 -5.3354497 -0.58429652
-11.169175 -6.3421822 -0.5875302
-13.782052 -7.8258495 -0.59302461
-17.994001 -10.217516 -0.6020909
-25.910067 -14.712488 -0.61917698
-46.201862 -26.23476 -0.66239494
-1.8209546 -1.06381 -0.56508404
-1.8970966 -1.1082926 -0.56918436
-1.9592496 -1.1446027 -0.56775057
-2.0399172 -1.1917291 -0.57030493
-2.0939116 -1.2232728 -0.56411326
-2.1826301 -1.2751025 -0.56591123
-2.2852058 -1.3350277 -0.56945086
-2.3907564 -1.3966908 -0.5717181
-2.4804442 -1.4490869 -0.56831461
-2.5992887 -1.5185163 -0.56958765
-2.7336881 -1.5970331 -0.57182616
-2.8504891 -1.6652688 -0.56796795
-3.0208051 -1.7647681 -0.57200873
-3.1627951 -1.8477193 -0.56768012
-3.3690209 -1.9681976 -0.57152981
-3.581475 -2.0923142 -0.57240027
-3.8225448 -2.2331483 -0.57347643
-4.0837822 -2.3857644 -0.57274288
-4.3917727 -2.5656939 -0.57308757
-4.748765 -2.7742503 -0.57342499
-5.1717806 -3.021378 -0.5742259
-5.6860409 -3.3218112 -0.57613367
-6.3045201 -3.6831295 -0.57769549
-7.07616 -4.1339254 -0.57990849
-8.038847 -4.6963315 -0.58108222
-9.3162079 -5.4425716 -0.58343828
-11.092832 -6.4804835 -0.58766162
-13.674701 -7.9888229 -0.59258747
-17.85873 -10.433152 -0.60181189
-25.700039 -15.014081 -0.61852306
-45.815342 -26.765533 -0.66152197
-1.8099521 -1.0874503 -0.56577653
-1.873706 -1.1257546 -0.56627691
-1.9506099 -1.1719599 -0.56937993
-2.0227475 -1.2153014 -0.56963956
-2.0841963 -1.2522209 -0.56560141
-2.1824915 -1.3112782 -0.57001287
-2.2705092 -1.3641608 -0.56992555
-2.3552389 -1.4150679 -0.56734276
-2.4514115 -1.47285 -0.56576943
-2.5788329 -1.549407 -0.56923705
-2.7109785 -1.6288023 -0.57122213
-2.8317504 -1.7013642 -0.56835973
-2.9847493 -1.7932885 -0.56931388
-3.1578979 -1.8973192 -0.5709455
-3.3518715 -2.0138617 -0.57277817
-3.5495446 -2.132627 -0.57144499
-3.7816236 -2.2720642 -0.57148546
-4.0438867 -2.4296362 -0.57129443
-4.367568 -2.6241097 -0.57409626
-4.7072682 -2.8282075 -0.57257032
-5.1386619 -3.0873961 -0.57472044
-5.6451826 -3.3917224 -0.57617605
-6.254034 -3.7575307 -0.57725948
-7.0175605 -4.2162704 -0.57931113
-7.969768 -4.788373 -0.58030117
-9.2457218 -5.5549879 -0.58325768
-11.006393 -6.6128292 -0.58734578
-13.579746 -8.1589441 -0.59277546
-17.728981 -10.651875 -0.60180783
-25.496796 -15.318912 -0.61811829
-45.420441 -27.289379 -0.66061527
-1.8023829 -1.1132904 -0.5676468
-1.8569036 -1.1469666 -0.56541854
-1.9293607 -1.1917217 -0.5674119
-1.9956841 -1.2326881 -0.56624395
-2.0807326 -1.2852205 -0.56890714
-2.1510842 -1.3286752 -0.56603432
-2.253927 -1.3921987 -0.57001722
-2.3486857 -1.450729 -0.57001817
-2.4454658 -1.5105079 -0.56864095
-2.5543532 -1.5777651 -0.56807309
-2.6927695 -1.6632617 -0.57165158
-2.8144474 -1.7384193 -0.56913429
-2.9567885 -1.8263402 -0.56822121
-3.1239631 -1.9296 -0.56905699
-3.3032076 -2.0403152 -0.56870657
-3.5156193 -2.1715169 -0.57023901
-3.7624471 -2.3239768 -0.5728628
-4.0143228 -2.4795547 -0.57138211
-4.334218 -2.6771467 -0.57399631
-4.6840987 -2.8932598 -0.57403606
-5.1048141 -3.1531258 -0.57522768
-5.5920911 -3.4541056 -0.5750488
-6.2036996 -3.8318822 -0.57691908
-6.9634852 -4.3011842 -0.57916945
-7.9204874 -4.8923025 -0.5810492
-9.1723242 -5.6655331 -0.58297819
-10.908954 -6.7382092 -0.58652318
-13.471501 -8.3210363 -0.59247202
-17.578205 -10.857653 -0.60117632
-25.291975 -15.622271 -0.61776322
-45.028881 -27.813301 -0.65984464
-1.7911825 -1.1370333 -0.56847966
-1.8604759 -1.1810205 -0.57088512
-1.9106575 -1.2128756 -0.56625473
-1.9859387 -1.2606636 -0.56783426
-2.0613248 -1.3085184 -0.5679571
-2.1382258 -1.3573346 -0.56699979
-2.2272007 -1.4138156 -0.56761193
-2.324353 -1.4754874 -0.56847304
-2.4183261 -1.535141 -0.56667674
-2.5413563 -1.6132399 -0.56955123
-2.6749537 -1.6980469 -0.57225889
-2.806854 -1.7817764 -0.57198602
-2.947942 -1.8713385 -0.57090008
-3.1006801 -1.9682957 -0.5691815
-3.286016 -2.0859461 -0.57011968
-3.4991455 -2.2212396 -0.57195395
-3.7327793 -2.369549 -0.57273865
-3.991647 -2.5338769 -0.57254606
-4.3002729 -2.7297909 -0.57390279
-4.6422071 -2.9468491 -0.57329965
-5.0553522 -3.2091117 -0.5740574
-5.5569868 -3.5275466 -0.57585591
-6.1551833 -3.9072788 -0.57683176
-6.9057031 -4.3837047 -0.57880318
-7.8398671 -4.976707 -0.57958043
-9.1185493 -5.7884078 -0.58404005
-10.831471 -6.8757625 -0.58685869
-13.364619 -8.4837914 -0.5923146
-17.428267 -11.063374 -0.60065562
-25.073505 -15.916532 -0.6171608
-44.617538 -28.322985 -0.65887064
-1.77065 -1.1547862 -0.56642699
-1.8288708 -1.1927568 -0.5656448
-1.9103335 -1.2458853 -0.57065588
-1.9646714 -1.2813234 -0.56621557
-2.0565448 -1.3412416 -0.57114112
-2.1343553 -1.3919883 -0.5704692
-2.2151456 -1.4446782 -0.56902391
-2.3026757 -1.5017638 -0.56764483
-2.4070861 -1.5698583 -0.56852329
