# .PCD v0.7 - Point Cloud Data file format
VERSION 0.7
FIELDS x y z
SIZE 4 4 4
TYPE F F F
COUNT 1 1 1
WIDTH 1463
HEIGHT 1
VIEWPOINT 0 0 0 1 0 0 0
POINTS 1463
DATA ascii
1.2399107 -2.6792712 -0.55859798
1.3046144 -2.8190866 -0.56104809
1.3749951 -2.9711692 -0.56325936
1.4379168 -3.1071341 -0.55977899
1.5186476 -3.2815816 -0.56039274
1.6091762 -3.4772012 -0.56123096
1.7054881 -3.6853175 -0.5603888
1.8177694 -3.9279416 -0.56066656
1.9361066 -4.1836514 -0.55825067
2.0915833 -4.5196142 -0.56112438
2.2491617 -4.8601193 -0.55836666
2.4452283 -5.2837915 -0.55816805
2.6785326 -5.7879286 -0.55797285
2.9638121 -6.404377 -0.55834222
3.2995796 -7.1299229 -0.55593407
3.7419891 -8.085907 -0.5560953
4.3098145 -9.3128967 -0.55490309
5.0870266 -10.992342 -0.5540536
6.1832075 -13.361033 -0.5508728
7.9045835 -17.080683 -0.54763597
10.942465 -23.645113 -0.54142725
17.77293 -38.404781 -0.52758837
0.90862685 -1.9017105 -0.56473696
0.93304682 -1.9528203 -0.56067818
0.97263032 -2.0356667 -0.56449795
1.0009731 -2.0949867 -0.56048459
1.0397215 -2.176085 -0.56101137
1.0747712 -2.2494423 -0.55812424
1.1263597 -2.3574145 -0.56215328
1.1734517 -2.4559758 -0.56202877
1.2210927 -2.5556858 -0.56034398
1.2759277 -2.6704526 -0.55998814
1.3407098 -2.8060384 -0.56168979
1.405811 -2.942292 -0.56101966
1.4760622 -3.0893242 -0.559798
1.5600933 -3.2651973 -0.56082833
1.6492829 -3.4518666 -0.56037283
1.7495681 -3.6617587 -0.56003541
1.8639909 -3.9012396 -0.56008446
1.9943031 -4.1739764 -0.56018955
2.1380126 -4.4747534 -0.5587765
2.3086853 -4.8319626 -0.55835116
2.5123737 -5.2582726 -0.55869353
2.7488024 -5.7531056 -0.55783212
3.0369627 -6.3562112 -0.5573566
3.3895292 -7.0941153 -0.55634981
3.8390031 -8.0348415 -0.5557878
4.4231591 -9.2574501 -0.55479813
5.2150707 -10.914883 -0.55333972
6.3474417 -13.284878 -0.55090928
8.1064939 -16.966486 -0.54712927
11.224848 -23.493044 -0.5410648
18.216814 -38.126881 -0.52680814
0.92995328 -1.8863633 -0.56353265
0.96011382 -1.9475424 -0.56250995
0.99221158 -2.0126512 -0.5614565
1.0250349 -2.0792315 -0.55959934
1.0656121 -2.1615405 -0.56059742
1.1150318 -2.2617857 -0.56454611
1.1552718 -2.3434105 -0.56215894
1.2052615 -2.4448121 -0.56282312
1.2520132 -2.5396457 -0.56016022
1.3140785 -2.6655416 -0.5623042
1.3792121 -2.7976623 -0.56336534
1.4422452 -2.9255216 -0.56116104
1.5166379 -3.0764236 -0.56079727
1.5998105 -3.2451346 -0.56071883
1.6924005 -3.4329488 -0.56063771
1.7985029 -3.6481724 -0.56129742
1.9099094 -3.8741548 -0.55952537
2.0370235 -4.131999 -0.55787534
2.1894169 -4.4411216 -0.55789644
2.3747048 -4.8169689 -0.55995047
2.5762312 -5.2257547 -0.55856216
2.8190463 -5.7182932 -0.55777562
3.1160195 -6.3206878 -0.55755937
3.47984 -7.0586796 -0.55688447
3.936208 -7.9843993 -0.55560464
4.5290446 -9.1869383 -0.55386806
5.340168 -10.832261 -0.55243838
6.5057178 -13.19652 -0.55052096
8.3078289 -16.852013 -0.5466907
11.497118 -23.321323 -0.54032505
18.652769 -37.836201 -0.52592117
0.95143133 -1.8715496 -0.56255966
0.98882812 -1.9451123 -0.56527728
1.0177796 -2.0020623 -0.5619514
1.0542213 -2.0737464 -0.56156957
1.0892957 -2.142741 -0.55915338
1.1358671 -2.2343509 -0.56114215
1.179028 -2.3192525 -0.55979925
1.236447 -2.4322004 -0.56337726
1.2827994 -2.5233798 -0.56000936
1.3454745 -2.6466672 -0.56177026
1.401535 -2.7569432 -0.55859393
1.4800415 -2.9113727 -0.56189549
1.5548437 -3.0585151 -0.56097555
1.6361886 -3.2185278 -0.55955559
1.7329006 -3.4087687 -0.56012642
1.8363699 -3.6123018 -0.55921042
1.9570224 -3.8496361 -0.55941749
2.091079 -4.113337 -0.55878508
2.2495208 -4.4250059 -0.55930454
2.4340627 -4.7880163 -0.56002182
2.638288 -5.1897459 -0.55813867
2.8932867 -5.6913509 -0.55857563
3.1950853 -6.2850151 -0.55783612
3.5676656 -7.0179138 -0.55708718
4.0309801 -7.9292941 -0.55517727
4.6455164 -9.1381416 -0.55432814
5.4746485 -10.769118 -0.5526095
6.6658311 -13.112279 -0.55038446
8.5144577 -16.748692 -0.5466941
11.765958 -23.14468 -0.53954369
19.079311 -37.530693 -0.52489603
0.9659583 -1.8436527 -0.55770248
1.0062686 -1.92059 -0.56170416
1.0381492 -1.9814383 -0.55970329
1.0788854 -2.0591884 -0.56117737
1.1199882 -2.1376381 -0.56137311
1.1658185 -2.225111 -0.56237936
1.2080107 -2.3056402 -0.56005669
1.2619658 -2.4086201 -0.56146723
1.3134502 -2.5068848 -0.55989063
1.3728172 -2.620194 -0.55969185
1.4418646 -2.7519798 -0.56113815
1.5210009 -2.9030211 -0.5638507
1.5852313 -3.0256131 -0.55847389
1.6779186 -3.2025182 -0.56031692
1.7680042 -3.3744581 -0.55801868
1.8847699 -3.5973201 -0.56043661
2.000262 -3.8177516 -0.55831611
2.1432054 -4.0905766 -0.55923092
2.3052728 -4.3999028 -0.55967218
2.4890316 -4.7506294 -0.5591864
2.70083 -5.1548734 -0.55791777
2.9582598 -5.6462107 -0.55767334
3.2741868 -6.249197 -0.5581882
3.6528828 -6.9719858 -0.55696487
4.1254034 -7.8738503 -0.55480516
4.758182 -9.0815878 -0.55440485
5.6014738 -10.691116 -0.55209965
6.8206415 -13.018051 -0.54990816
8.7108011 -16.625658 -0.5461331
12.042066 -22.983795 -0.5392043
19.506411 -37.230434 -0.52401167
0.99132305 -1.8367671 -0.55926466
1.0234737 -1.8963374 -0.55824965
1.0659367 -1.9750146 -0.56154877
1.1033291 -2.0442967 -0.56077397
1.1483794 -2.127768 -0.56244695
1.1918715 -2.2083521 -0.56180537
1.2335099 -2.2855015 -0.55880702
1.2877332 -2.3859689 -0.55983591
1.3477343 -2.4971416 -0.56137347
1.4084196 -2.6095819 -0.56108207
1.4709039 -2.7253556 -0.55935508
1.5514053 -2.8745122 -0.56197625
1.6282536 -3.0169001 -0.56051886
1.7139918 -3.1757596 -0.55928046
1.8238642 -3.3793361 -0.56249148
1.9192892 -3.5561438 -0.55765623
2.0535638 -3.8049335 -0.56009209
2.1914322 -4.0603824 -0.55874467
2.3576543 -4.3683658 -0.55930603
2.5422518 -4.7103963 -0.55808812
2.7649069 -5.1229415 -0.55809927
3.0256793 -5.606112 -0.55734539
3.3461795 -6.1999488 -0.5574224
3.7312198 -6.9133687 -0.5559054
4.2269602 -7.8318987 -0.55546957
4.8606706 -9.0060644 -0.55340123
5.7362499 -10.628376 -0.55246043
6.9806356 -12.93403 -0.54994321
8.9081078 -16.505335 -0.54573756
12.316413 -22.820393 -0.53888315
19.926405 -36.920521 -0.52305883
1.0226175 -1.8402489 -0.56411093
1.0542186 -1.8971168 -0.56225276
1.0862347 -1.9547312 -0.55953711
1.127714 -2.0293753 -0.56044233
1.1710266 -2.1073182 -0.56080526
1.2182447 -2.1922894 -0.5614875
1.2629595 -2.2727559 -0.55944544
1.318818 -2.373276 -0.56062037
1.3726075 -2.4700725 -0.55904025
1.4370782 -2.5860908 -0.55978835
1.5077436 -2.7132566 -0.56063467
1.5823292 -2.8474767 -0.56045228
1.6624596 -2.9916754 -0.55958807
1.7601556 -3.167484 -0.56159222
1.8540108 -3.336381 -0.55909401
1.9726543 -3.5498857 -0.56043631
2.0959492 -3.7717607 -0.55896056
2.2523227 -4.0531621 -0.56151986
2.4084988 -4.3342085 -0.55868232
2.6024523 -4.6832371 -0.5586195
2.8310375 -5.0945873 -0.55876052
3.0952978 -5.5701361 -0.55751055
3.4223976 -6.1587677 -0.55746138
3.8142037 -6.8638415 -0.55565226
4.3228173 -7.7791162 -0.55545402
4.9773364 -8.956954 -0.55410248
5.8631692 -10.551053 -0.55214703
7.1295962 -12.830049 -0.54920816
9.1029835 -16.381254 -0.5452947
12.58005 -22.638399 -0.5381977
20.357061 -36.633503 -0.52249944
1.0485947 -1.8335298 -0.565961
1.0795964 -1.887738 -0.56336492
1.1141187 -1.9481024 -0.56151867
1.1509575 -2.0125172 -0.55965286
1.2017461 -2.1013241 -0.56310004
1.2409022 -2.1697905 -0.55959088
1.2990085 -2.2713931 -0.56299925
1.3536731 -2.3669772 -0.5630219
1.4058875 -2.4582772 -0.56024092
1.4737226 -2.5768907 -0.56167704
1.5391669 -2.6913242 -0.55997115
1.6207378 -2.8339558 -0.56167108
1.7045423 -2.9804926 -0.56137443
1.7953761 -3.1393209 -0.56047076
1.8920245 -3.3083165 -0.55824757
2.0133796 -3.5205131 -0.55966538
2.1419375 -3.7453041 -0.55890077
2.291158 -4.0062251 -0.55887806
2.4652309 -4.3106017 -0.55950457
2.6605322 -4.6520972 -0.55876523
2.8884985 -5.0507102 -0.55780154
3.1610038 -5.5272017 -0.55706161
3.494637 -6.110579 -0.55694705
3.8946671 -6.8100553 -0.55513299
4.4176512 -7.7245235 -0.55539262
5.0807214 -8.8839407 -0.55340868
5.9831457 -10.461884 -0.55128908
7.2885499 -12.744459 -0.54933929
9.2930775 -16.249495 -0.54467142
12.843991 -22.458477 -0.53763431
20.769943 -36.317471 -0.52159512
1.0634555 -1.8075732 -0.56194282
1.094538 -1.8604044 -0.55918199
1.1403092 -1.9382027 -0.56266427
1.1784219 -2.0029833 -0.56098884
1.2233378 -2.0793276 -0.56119424
1.2703004 -2.1591508 -0.56083292
1.319351 -2.242523 -0.55982226
1.3792549 -2.3443427 -0.56162965
1.4350524 -2.4391825 -0.55986845
1.5033636 -2.5552924 -0.56095624
1.5753208 -2.6775992 -0.56110346
1.6513416 -2.8068128 -0.56027365
1.729921 -2.9403758 -0.55778283
1.8352509 -3.1194065 -0.56090194
1.9311193 -3.2823558 -0.5578317
2.0619111 -3.5046649 -0.56113422
2.1866729 -3.7167244 -0.55860615
2.3448102 -3.9855134 -0.55996871
2.5160191 -4.2765198 -0.55905426
2.72228 -4.6271048 -0.55974168
2.9595585 -5.0304112 -0.55953658
3.224797 -5.4812412 -0.55638391
3.5612051 -6.05304 -0.55565196
3.9868979 -6.776597 -0.55635989
4.5110893 -7.6675739 -0.55524433
5.1923895 -8.8255911 -0.55370933
6.1155286 -10.394667 -0.55166799
7.4282846 -12.625979 -0.54812813
9.4903336 -16.130878 -0.54456598
13.10623 -22.276878 -0.53710443
21.172808 -35.987774 -0.52055985
1.0852768 -1.7938262 -0.56177545
1.1210405 -1.852939 -0.56103903
1.1634587 -1.923051 -0.56237638
1.2094277 -1.9990319 -0.56400472
1.2487556 -2.0640361 -0.56116903
1.2951406 -2.1407046 -0.5601359
1.3507355 -2.2325959 -0.56144804
1.4060383 -2.3240047 -0.56085688
1.4735005 -2.4355111 -0.563142
1.5285883 -2.5265644 -0.55873376
1.606093 -2.65467 -0.56039476
1.6894624 -2.792469 -0.56151485
1.7730173 -2.9305747 -0.56001705
1.8692687 -3.0896664 -0.55964506
1.9903952 -3.2898731 -0.5632261
2.1038251 -3.4773586 -0.56086177
2.2343462 -3.6930935 -0.55914158
2.3829007 -3.9386353 -0.55745697
2.5606322 -4.2324033 -0.55736107
2.7662272 -4.572226 -0.55717564
3.0104926 -4.975966 -0.55755603
3.2891612 -5.4365702 -0.55591285
3.6450541 -6.0248165 -0.55713344
4.0628371 -6.7153592 -0.55539185
4.5972295 -7.5986423 -0.55430436
5.291204 -8.7456951 -0.55273694
6.2436099 -10.319902 -0.55173302
7.5867105 -12.539879 -0.54839873
9.6714773 -15.985736 -0.54363978
13.367084 -22.094109 -0.5366202
21.586037 -35.679008 -0.51989371
1.103429 -1.7742013 -0.55983633
1.1413049 -1.8351018 -0.55984515
1.1867507 -1.9081742 -0.56225079
1.2278413 -1.9742436 -0.56122833
1.2708278 -2.0433617 -0.55975431
1.3189635 -2.120759 -0.55911839
1.3834765 -2.2244892 -0.56364483
1.4370996 -2.3107097 -0.56187052
1.4943699 -2.4027946 -0.5597837
1.5681459 -2.5214188 -0.56181759
1.6291308 -2.6194763 -0.55715215
1.7192684 -2.7644083 -0.56008106
1.8116454 -2.9129412 -0.56086195
1.9032961 -3.0603063 -0.55852395
2.0118237 -3.2348077 -0.55799192
2.1428027 -3.4454083 -0.55991602
2.2789528 -3.6643238 -0.55898625
2.4382133 -3.9203987 -0.55907702
2.6138361 -4.2027817 -0.55765069
2.8219202 -4.5373602 -0.55711323
3.0703571 -4.936821 -0.55735815
3.3620765 -5.4058762 -0.55695957
3.7106979 -5.966424 -0.55591112
4.1461382 -6.6665678 -0.55553108
4.6978421 -7.5536513 -0.55519438
5.4063239 -8.6928177 -0.55355471
6.3623018 -10.229933 -0.5510639
7.7362337 -12.439075 -0.54810911
9.8715658 -15.872472 -0.54387486
13.623693 -21.905508 -0.53606778
21.98525 -35.350044 -0.51900023
1.1266773 -1.7628735 -0.56059116
1.1605942 -1.8159422 -0.55831158
1.2092468 -1.8920672 -0.56184369
1.2485714 -1.9535971 -0.55968118
1.2977415 -2.0305319 -0.56056881
1.362312 -2.1315632 -0.56634039
1.4018596 -2.1934419 -0.56010342
1.4618204 -2.2872603 -0.56049711
1.5275246 -2.3900657 -0.5611518
1.5992764 -2.5023332 -0.56190431
1.6695086 -2.6122231 -0.55993354
1.7534553 -2.7435718 -0.56018555
1.8422093 -2.882442 -0.55930889
1.9428474 -3.039907 -0.55911881
2.0511928 -3.2094314 -0.55792326
2.18905 -3.4251316 -0.56095278
2.3238018 -3.6359735 -0.5589782
2.4803612 -3.8809366 -0.55775678
2.6733117 -4.1828399 -0.55932409
2.8790591 -4.5047655 -0.55741584
3.1323097 -4.9010181 -0.55762231
3.4226415 -5.3552904 -0.55604184
3.783057 -5.91922 -0.55580521
4.2269754 -6.6138043 -0.55542356
4.7891841 -7.4934731 -0.5550577
5.5044265 -8.6125879 -0.55271411
6.478745 -10.137072 -0.55031151
7.8803906 -12.330178 -0.54753917
10.041919 -15.712247 -0.54257476
13.882727 -21.72183 -0.53570986
22.383797 -35.023163 -0.51820296
1.1560812 -1.7607877 -0.5644058
1.1860596 -1.8064468 -0.55983388
1.2336348 -1.8789071 -0.56239784
1.2794316 -1.9486586 -0.56273097
1.3224223 -2.0141363 -0.56048924
1.3766419 -2.0967162 -0.56153697
1.4307828 -2.1791763 -0.56091088
1.4888519 -2.2676196 -0.56012803
1.5492458 -2.3596034 -0.55843019
1.6248832 -2.4748039 -0.56016684
1.6994729 -2.5884092 -0.55926609
1.785495 -2.7194266 -0.55969608
1.8819788 -2.8663776 -0.56063974
1.9835007 -3.0210023 -0.56008536
2.1004684 -3.1991518 -0.56058377
2.2216909 -3.3837814 -0.55861259
2.3707273 -3.6107738 -0.55954343
2.5338082 -3.8591566 -0.55906212
2.7092645 -4.1263881 -0.55618817
2.9322045 -4.4659405 -0.55703104
3.192982 -4.863122 -0.55773556
3.4910197 -5.3170528 -0.55648667
3.8566289 -5.8738999 -0.5559606
4.299201 -6.5479665 -0.5542922
4.8725557 -7.4212232 -0.55410218
5.6045842 -8.5361509 -0.55218971
6.6031899 -10.057093 -0.55033594
8.0286903 -12.228224 -0.54735434
10.238586 -15.594041 -0.54279935
14.129915 -21.520792 -0.53499639
22.774664 -34.687313 -0.51733816
1.1754999 -1.7432607 -0.56337833
1.2179662 -1.8062382 -0.56436795
1.2504376 -1.8543931 -0.55962032
1.2985858 -1.9257966 -0.56069779
1.3446207 -1.9940662 -0.55946302
1.4038949 -2.0819697 -0.56216842
1.4563197 -2.1597154 -0.56046867
1.5110685 -2.2409074 -0.55807734
1.5910559 -2.3595283 -0.56300002
1.6598029 -2.4614801 -0.56172824
1.7417481 -2.5830042 -0.56268328
1.8240838 -2.7051077 -0.56132305
1.9125351 -2.8362806 -0.55931056
2.0147614 -2.9878817 -0.55849576
2.1454234 -3.1816528 -0.56209773
2.2677305 -3.3630338 -0.55974853
2.41818 -3.5861497 -0.56029314
2.5660117 -3.8053834 -0.55580109
2.7635543 -4.0983381 -0.55694562
2.9873466 -4.4302211 -0.5571155
3.2523396 -4.8232045 -0.557702
3.5564919 -5.274261 -0.55654305
3.9253969 -5.8213453 -0.55551291
4.3746271 -6.4875517 -0.55368978
4.9531994 -7.3455715 -0.55295944
5.7040801 -8.4591246 -0.5517025
6.727747 -9.9772177 -0.55045038
8.1802912 -12.131334 -0.5474785
10.431559 -15.469952 -0.5429039
14.376759 -21.320665 -0.53437573
23.172487 -34.364689 -0.5167371
1.190457 -1.7194484 -0.56037122
1.2267227 -1.7718292 -0.55828774
1.2752593 -1.8419336 -0.56055021
1.3211337 -1.9081929 -0.56025994
1.3687719 -1.9769994 -0.5593546
1.4233729 -2.0558629 -0.55980277
1.4889352 -2.1505585 -0.56280112
1.5415567 -2.226563 -0.55918348
1.6143326 -2.3316774 -0.56104869
1.6892538 -2.4398909 -0.56149924
1.7669442 -2.5521035 -0.5606426
1.8501693 -2.6723106 -0.55919605
1.9513792 -2.8184941 -0.56049252
2.0605693 -2.9762042 -0.56100672
2.1684675 -3.1320479 -0.55800271
2.3128295 -3.3405583 -0.56069887
2.4528275 -3.5427659 -0.55818504
2.6198895 -3.7840636 -0.55735034
2.8190622 -4.0717411 -0.55799973
3.0438898 -4.3964725 -0.55753618
3.3060856 -4.775178 -0.55680734
3.6169431 -5.2241683 -0.55590832
3.9982796 -5.7749553 -0.55573571
4.4638472 -6.4474025 -0.55490589
5.0582132 -7.305881 -0.55461186
5.8110991 -8.3933191 -0.55202937
6.8408875 -9.8807049 -0.54972506
8.3157349 -12.010915 -0.54661739
10.6073 -15.320761 -0.54220456
14.626912 -21.126528 -0.53397751
23.553604 -34.019886 -0.51586837
1.2075504 -1.6991118 -0.5585404
1.2478008 -1.7557472 -0.55801284
1.2922448 -1.8182831 -0.5581463
1.3445624 -1.8918978 -0.56028754
1.3960201 -1.9643025 -0.56057668
1.4509764 -2.04163 -0.56074309
1.4995426 -2.1099663 -0.55696148
1.5780668 -2.2204556 -0.56248045
1.6355371 -2.3013206 -0.55854112
1.7135442 -2.4110823 -0.55967611
1.8001879 -2.5329962 -0.56126547
1.8835865 -2.6503441 -0.55940378
1.9818329 -2.788584 -0.5593484
2.0942471 -2.946759 -0.56026816
2.2109976 -3.1110353 -0.55906057
2.3474844 -3.3030822 -0.55921137
2.5024579 -3.5211413 -0.55958384
2.6695182 -3.7562075 -0.55804014
2.8640449 -4.0299211 -0.55705279
3.0961196 -4.3564672 -0.55724877
3.3582654 -4.7253256 -0.55576748
3.6824739 -5.1815104 -0.55614543
4.0768189 -5.736383 -0.55680591
4.5328932 -6.3781128 -0.55369771
5.1317067 -7.2206869 -0.55289298
5.9100723 -8.3159046 -0.5516758
6.9607501 -9.7942848 -0.5496375
8.464982 -11.91085 -0.54675925
10.782166 -15.171297 -0.54156625
14.861819 -20.911669 -0.53312558
23.9356 -33.679142 -0.51512557
1.238535 -1.6980993 -0.56317139
1.2728946 -1.7452081 -0.55959558
1.3224882 -1.8132037 -0.56153643
1.3720145 -1.8811071 -0.56204569
1.431425 -1.962562 -0.56506038
1.4723382 -2.0186563 -0.55936342
1.5289806 -2.0963161 -0.55827898
1.5958235 -2.1879613 -0.55917764
1.668564 -2.2876925 -0.56017089
1.7462339 -2.3941822 -0.56069517
1.8246199 -2.5016537 -0.55924976
1.9167246 -2.6279342 -0.55960613
2.0188031 -2.7678895 -0.56013441
2.1255095 -2.9141898 -0.55900288
2.2459598 -3.0793338 -0.5582844
2.3850138 -3.2699845 -0.55853081
2.5360682 -3.4770882 -0.55749667
2.7176223 -3.7260089 -0.55847609
2.911001 -3.9911416 -0.55659819
3.1490262 -4.3174872 -0.55717361
3.4244773 -4.6951461 -0.55712843
3.7447152 -5.1342096 -0.55596882
4.1336727 -5.6674914 -0.55501074
4.6243186 -6.3401937 -0.55530024
5.2239757 -7.1623564 -0.55330336
6.008626 -8.2381554 -0.55137771
7.0741529 -9.6990509 -0.54913318
8.6027918 -11.794898 -0.54625118
10.963511 -15.031573 -0.54135001
15.103962 -20.708359 -0.532637
24.299805 -33.316364 -0.51410812
1.2521576 -1.6731713 -0.55996811
1.2950454 -1.7304792 -0.55993658
1.3502921 -1.8043015 -0.56387895
1.3951318 -1.8642178 -0.56208265
1.4464682 -1.9328151 -0.56157428
1.500991 -2.0056701 -0.56083697
1.5637381 -2.0895147 -0.56154603
1.6288594 -2.1765318 -0.56133306
1.6967182 -2.2672067 -0.56022108
1.779304 -2.3775604 -0.56188393
1.8528732 -2.4758658 -0.55853593
1.9527941 -2.6093831 -0.5607267
2.0456145 -2.7334125 -0.55820554
2.1550672 -2.8796668 -0.55742168
2.2867417 -3.055614 -0.55903971
2.4266057 -3.2425046 -0.55889148
2.5812628 -3.449162 -0.55806601
2.7669311 -3.697258 -0.55922407
2.9701664 -3.968827 -0.55853742
3.2112398 -4.2909565 -0.55880344
3.4726589 -4.6402726 -0.55564213
3.8152568 -5.098063 -0.55709267
4.2101741 -5.6257634 -0.55595213
4.6869636 -6.2628636 -0.55353332
5.3073616 -7.0918589 -0.5528571
6.116981 -8.1736975 -0.55205607
7.1926723 -9.6110687 -0.54911786
8.7405262 -11.679358 -0.54583657
11.151024 -14.900339 -0.54152095
15.356798 -20.520224 -0.53261471
24.677521 -32.974857 -0.51348203
1.27683 -1.6631123 -0.56181371
1.326113 -1.7273049 -0.56414318
1.3724078 -1.7876054 -0.56389248
1.4031886 -1.8276983 -0.55623198
1.4678676 -1.911945 -0.5607124
1.5261934 -1.9879161 -0.56107777
1.5852135 -2.0647917 -0.56009805
1.645139 -2.1428466 -0.55782056
1.7288896 -2.2519345 -0.56165802
1.8044713 -2.3503821 -0.56066233
1.8853239 -2.4556952 -0.55917323
1.9828364 -2.5827084 -0.56019163
2.0803764 -2.7097576 -0.55855668
2.2000115 -2.865586 -0.55989027
2.3247695 -3.0280874 -0.55919129
2.4616437 -3.2063704 -0.55783844
2.6308835 -3.4268105 -0.55964154
2.8046308 -3.6531219 -0.55772245
3.0125375 -3.9239271 -0.55738968
3.2582932 -4.2440319 -0.557868
3.537158 -4.6072626 -0.55685544
3.867255 -5.0372248 -0.55559897
4.2719822 -5.5643945 -0.55503672
4.7718554 -6.2154956 -0.55449086
5.3861289 -7.0156069 -0.55203408
6.2052898 -8.0825911 -0.5510146
7.3023262 -9.5115156 -0.54851872
8.8775358 -11.563277 -0.54547197
11.329216 -14.756669 -0.54132158
15.593857 -20.311502 -0.532134
25.053568 -32.63308 -0.51291835
1.29022 -1.6384459 -0.55879831
1.3432288 -1.7057614 -0.56245899
1.3827606 -1.7559628 -0.55923223
1.4332232 -1.8200451 -0.55922401
1.486622 -1.8878559 -0.55896658
1.5435798 -1.9601865 -0.55856621
1.6127013 -2.0479636 -0.56087011
1.6758217 -2.1281199 -0.55930901
1.7552096 -2.2289345 -0.56126207
1.8208631 -2.3123076 -0.55687886
1.9160107 -2.4331353 -0.55935866
2.0103617 -2.5529511 -0.55905688
2.1216013 -2.6942141 -0.56068784
2.2358959 -2.8393562 -0.56009489
2.3593957 -2.9961884 -0.55861598
2.5071056 -3.1837647 -0.55922675
2.6588008 -3.3764019 -0.55670637
2.8420012 -3.6090472 -0.55628681
3.0659385 -3.8934245 -0.55836982
3.2961664 -4.1857901 -0.555498
3.5846772 -4.5521688 -0.55548215
3.92696 -4.9868326 -0.55532491
4.3435144 -5.5158134 -0.55547637
4.8445425 -6.1520672 -0.55410486
5.4799681 -6.958992 -0.55283976
6.3027134 -8.0037928 -0.5508846
7.4135489 -9.4144392 -0.54813617
9.0205126 -11.455117 -0.5455609
11.49048 -14.591721 -0.5404129
15.824999 -20.096109 -0.5315488
25.408798 -32.266541 -0.51202935
1.3175317 -1.6314523 -0.56189609
1.3586719 -1.6823949 -0.56022066
1.4117017 -1.7480597 -0.5622012
1.4616961 -1.809966 -0.56160718
1.5163504 -1.8776424 -0.5614208
1.5752455 -1.9505701 -0.56130308
1.6323807 -2.0213187 -0.55902779
1.7094152 -2.1167076 -0.56179154
1.7758313 -2.1989484 -0.55916768
1.858943 -2.3018625 -0.55982608
1.9471517 -2.4110882 -0.55975223
2.0331478 -2.5175743 -0.55674255
2.1404872 -2.6504886 -0.55702364
2.268414 -2.8088958 -0.55954623
2.3969858 -2.9681017 -0.55883247
2.5427372 -3.1485806 -0.55849642
2.7084467 -3.3537724 -0.55842429
2.8936834 -3.5831444 -0.55773664
3.1096883 -3.8506155 -0.5576722
3.3610055 -4.1618128 -0.55775851
3.6528931 -4.5232468 -0.55739188
3.9920411 -4.9432015 -0.55589056
4.4020805 -5.4509387 -0.5543524
4.9123559 -6.0827947 -0.55326432
5.5619264 -6.8871346 -0.55252266
6.3986573 -7.9232283 -0.5507133
7.5369139 -9.3326902 -0.54873097
9.1468191 -11.326179 -0.54473561
11.665339 -14.444771 -0.5402422
16.055948 -19.881506 -0.53105444
25.767378 -31.90682 -0.51131034
1.3374504 -1.6150793 -0.56187874
1.3791449 -1.6654289 -0.56017584
1.4347422 -1.7325671 -0.56285
1.4865372 -1.7951137 -0.56262797
1.5366644 -1.8556463 -0.56045139
1.5960525 -1.9273622 -0.56022996
1.6585078 -2.0027821 -0.5594992
1.7424051 -2.1040947 -0.56408781
1.809484 -2.1850979 -0.5612613
1.879105 -2.269171 -0.55745274
1.9746208 -2.3845141 -0.55917758
2.0810328 -2.513015 -0.56135076
2.1865575 -2.6404448 -0.56052095
2.2954726 -2.7719686 -0.55777079
2.443526 -2.9507549 -0.56118119
2.577266 -3.1122568 -0.55763257
2.7497737 -3.3205738 -0.55848426
2.9302084 -3.5384634 -0.55634815
3.1485178 -3.8020895 -0.55620933
3.4072456 -4.1145244 -0.55699384
3.7000437 -4.4681015 -0.55616099
4.0515847 -4.8926158 -0.55576247
4.4758258 -5.4049211 -0.5552277
4.9807892 -6.0147052 -0.55260009
5.6429396 -6.8143053 -0.55220485
6.4927649 -7.8405375 -0.55047345
7.6436143 -9.2302818 -0.54819447
9.2877426 -11.215699 -0.54487365
11.832706 -14.288949 -0.53981537
16.284941 -19.66538 -0.53059024
26.122572 -31.545115 -0.51062286
1.3547418 -1.5956085 -0.56085795
1.4080755 -1.6584246 -0.56360108
1.4499422 -1.7077351 -0.56053263
1.5004761 -1.7672536 -0.55963653
1.56181 -1.8394924 -0.56133038
1.6217598 -1.9101009 -0.56096673
1.6853019 -1.9849405 -0.56026185
1.7590808 -2.0718369 -0.56119627
1.8314598 -2.1570847 -0.55980802
1.9110762 -2.2508564 -0.55868429
1.9996758 -2.3552084 -0.55802935
2.1191072 -2.4958744 -0.56330001
2.2144516 -2.6081703 -0.55940783
2.3315046 -2.7460349 -0.55827904
2.4650283 -2.9032986 -0.55787832
2.615788 -3.0808625 -0.55772847
2.7916069 -3.2879415 -0.55872703
2.9813082 -3.5113704 -0.55781013
3.2017527 -3.771009 -0.5573799
3.4543984 -4.068574 -0.55648154
3.758198 -4.4263878 -0.55667889
4.1141486 -4.8456244 -0.55612916
4.535202 -5.3415394 -0.55440354
5.0673451 -5.9682951 -0.55401903
5.7252707 -6.7431965 -0.55210572
6.5851312 -7.7559361 -0.5501771
7.7542744 -9.132947 -0.5480352
9.4147778 -11.08868 -0.54428595
12.000852 -14.134546 -0.53951639
16.505503 -19.440104 -0.529948
26.474226 -31.181217 -0.50996339
1.3824236 -1.5882114 -0.56419039
1.4223715 -1.6341059 -0.56123805
1.4790384 -1.6992083 -0.5636608
1.5257968 -1.7529271 -0.56099868
1.5860426 -1.8221411 -0.56194443
1.6483713 -1.893748 -0.56207436
1.700819 -1.9540031 -0.55739057
1.7784787 -2.0432234 -0.55932713
1.8545706 -2.1306422 -0.55882174
1.9400253 -2.2288177 -0.55909294
2.0360954 -2.3391888 -0.56012344
2.136869 -2.4549637 -0.5599547
2.2393992 -2.5727563 -0.55767614
2.3630342 -2.7147958 -0.5577932
2.5051434 -2.8780594 -0.55890548
2.6561677 -3.0515652 -0.55829525
2.8268998 -3.2477124 -0.55775565
3.0144327 -3.4631615 -0.55599809
3.2510035 -3.7349484 -0.5579164
3.5010328 -4.0221972 -0.55598456
3.8008208 -4.3666115 -0.55499703
4.16751 -4.7878861 -0.55534202
4.6095977 -5.295783 -0.5554955
5.1393633 -5.9044094 -0.55391318
5.8001895 -6.6636062 -0.55138707
6.6787367 -7.6729345 -0.55007333
7.8688145 -9.0401669 -0.5482325
9.5505447 -10.972239 -0.54429376
12.168457 -13.979855 -0.53928238
16.729403 -19.219742 -0.52950865
26.825531 -30.818783 -0.50939214
1.3893647 -1.5571042 -0.55916667
1.4397579 -1.6135815 -0.56022698
1.484708 -1.6639584 -0.55798167
1.5435101 -1.7298598 -0.55964822
1.6048517 -1.7986073 -0.56073022
1.6642793 -1.8652098 -0.55963582
1.7184241 -1.9258914 -0.55535716
1.7985642 -2.015707 -0.55780661
1.8849081 -2.1124752 -0.56009364
1.9698108 -2.2076283 -0.55981129
2.0606248 -2.3094065 -0.55901712
2.1620574 -2.4230852 -0.55870521
2.279062 -2.5542157 -0.55968952
2.3961978 -2.6854937 -0.55778444
2.5342197 -2.8401792 -0.55755866
2.6902926 -3.0150948 -0.55763304
2.885725 -3.234122 -0.56147319
3.0783095 -3.4499574 -0.55991292
3.2895055 -3.6866515 -0.55670208
3.5572982 -3.9867749 -0.55709249
3.8667543 -4.3335919 -0.55680144
4.2172775 -4.7264342 -0.5541873
4.6614347 -5.2242155 -0.55395907
5.2167711 -5.8465981 -0.55446571
5.8922606 -6.6036401 -0.55237859
6.7572241 -7.5730319 -0.54882658
7.9760985 -8.9390621 -0.54800749
9.6718521 -10.839546 -0.54356992
12.316 -13.802925 -0.53825849
16.957411 -19.0047 -0.52928883
27.156216 -30.434816 -0.50852662
1.4240432 -1.5570017 -0.56537533
1.4760686 -1.6138847 -0.56659114
1.506165 -1.6467911 -0.55839318
1.5689765 -1.7154671 -0.56119108
1.6242616 -1.7759141 -0.55983967
1.6898638 -1.8476412 -0.56055683
1.7537986 -1.9175454 -0.55912697
1.8343855 -2.0056565 -0.56122494
1.9153339 -2.0941627 -0.56144029
1.994161 -2.1803498 -0.55906981
2.0906363 -2.2858324 -0.55949122
2.1882505 -2.392561 -0.5578292
2.302562 -2.5175452 -0.55781615
2.4322753 -2.6593695 -0.55852824
2.5770273 -2.8176367 -0.55931181
2.7230072 -2.977246 -0.55678362
2.9045458 -3.1757345 -0.557495
3.1117179 -3.4022496 -0.55833787
3.333771 -3.645035 -0.55656594
3.6051781 -3.9417827 -0.55695802
3.9087863 -4.2737379 -0.55524462
4.2795029 -4.6790667 -0.55476153
4.7186785 -5.1592474 -0.55318081
5.265862 -5.7575192 -0.55211687
5.9686246 -6.525897 -0.55197304
6.8517423 -7.4914684 -0.54897994
8.0693951 -8.8228102 -0.54692233
9.8219299 -10.738974 -0.54454184
12.488112 -13.65409 -0.53840202
17.172438 -18.775776 -0.52875417
27.488728 -30.055265 -0.5077942
1.4272448 -1.5224831 -0.55917144
1.4809839 -1.5798082 -0.56097877
1.5304856 -1.6326131 -0.55992472
1.5909703 -1.6971338 -0.56155103
1.6485462 -1.7585517 -0.56071436
1.7103171 -1.8244445 -0.55985737
1.7827263 -1.9016855 -0.56085193
1.8650106 -1.9894605 -0.56306756
1.9325176 -2.0614722 -0.5590046
2.0159628 -2.1504858 -0.55772638
2.1167452 -2.2579932 -0.55900574
2.2270861 -2.3756969 -0.56023985
2.3373985 -2.4933703 -0.55878574
2.4677587 -2.6324291 -0.55920094
2.5941117 -2.7672136 -0.5555926
2.7655249 -2.9500649 -0.55801779
2.934809 -3.1306453 -0.5558728
3.1466403 -3.3566117 -0.55715603
3.3722668 -3.5972941 -0.55556595
3.6532333 -3.8970091 -0.55693686
3.9603989 -4.2246714 -0.55515492
4.3351364 -4.6244149 -0.55456012
4.7935104 -5.1133757 -0.5545404
5.3375249 -5.6936913 -0.55224818
6.0362048 -6.4389935 -0.55085891
6.9525566 -7.416492 -0.54970896
8.1798286 -8.7256584 -0.54709363
9.9255905 -10.587914 -0.54302973
12.653063 -13.497386 -0.53831738
17.381002 -18.540815 -0.52811623
27.824173 -29.680845 -0.50721043
1.4445556 -1.5034653 -0.55866832
1.5023721 -1.5636395 -0.56175482
1.5496768 -1.6128733 -0.55964774
1.6114199 -1.6771344 -0.56144744
1.6654102 -1.7333262 -0.55915856
1.7269109 -1.7973351 -0.55801255
1.8017162 -1.875191 -0.55952972
1.8815447 -1.9582748 -0.56074703
1.9521049 -2.0317125 -0.55740178
2.050673 -2.1343002 -0.56002611
2.1417744 -2.2291169 -0.55833471
2.2519958 -2.343833 -0.5592137
2.3657079 -2.4621825 -0.55827338
2.5014782 -2.6034896 -0.55954522
2.6406531 -2.7483401 -0.55828041
2.80392 -2.9182649 -0.55848217
2.9817984 -3.1033974 -0.55750287
3.1954801 -3.325793 -0.55852044
3.4379094 -3.5781088 -0.55908954
3.6969609 -3.8477244 -0.55634815
4.0132236 -4.1768842 -0.55531812
4.3874488 -4.566371 -0.55402732
4.8516974 -5.0495515 -0.55404681
5.4151111 -5.6359415 -0.55306351
6.1241817 -6.3739285 -0.55169332
7.0464697 -7.333828 -0.54996258
8.2817736 -8.6195078 -0.54678184
10.057892 -10.468057 -0.54318458
12.799439 -13.321405 -0.53753519
17.595425 -18.312973 -0.5277493
28.145248 -29.293022 -0.50645894
1.469533 -1.4922928 -0.56118894
1.5223807 -1.5459591 -0.56208581
1.5713941 -1.5957316 -0.56036216
1.6305966 -1.655851 -0.56099236
1.6849637 -1.71106 -0.55861723
1.7660844 -1.7934372 -0.56350207
1.8292365 -1.8575673 -0.56094033
1.8994111 -1.9288287 -0.55896086
1.9854026 -2.0161521 -0.55978823
2.0703635 -2.1024289 -0.55830109
2.1777625 -2.2114913 -0.5605849
2.2813315 -2.3166645 -0.55938226
2.3930953 -2.4301591 -0.55764246
2.5329823 -2.5722127 -0.55947495
2.6663573 -2.7076533 -0.55663353
2.839433 -2.8834095 -0.55845135
3.0277894 -3.0746832 -0.5589906
3.2273617 -3.2773464 -0.55700696
3.4627638 -3.5163946 -0.55605769
3.7433701 -3.8013465 -0.55625582
4.0595598 -4.1224337 -0.55467355
4.4541454 -4.5231304 -0.55538422
4.9184241 -4.9945993 -0.55461138
5.4729843 -5.5577493 -0.55195272
6.202343 -6.2984037 -0.55171585
7.1200027 -7.2302761 -0.54872119
8.3971252 -8.5271788 -0.54743356
10.179578 -10.337236 -0.54285049
12.954615 -13.155252 -0.53721792
17.816135 -18.092068 -0.52765667
28.469837 -28.910772 -0.50586444
1.4821213 -1.4685141 -0.55905813
1.5347699 -1.5206794 -0.55971384
1.5886157 -1.5740306 -0.55955905
1.6509879 -1.6358303 -0.56104505
1.7156823 -1.6999307 -0.56182891
1.7837914 -1.7674146 -0.56217498
1.8475935 -1.8306309 -0.55962443
1.9278656 -1.910166 -0.56037998
2.0111723 -1.9927077 -0.56010294
2.0988765 -2.0796068 -0.55905199
2.2029202 -2.1826952 -0.56010967
2.3052464 -2.2840819 -0.55831724
2.4238596 -2.4016061 -0.55788755
2.570075 -2.5464795 -0.56070924
2.6998532 -2.675066 -0.5567171
2.8750248 -2.8486295 -0.55852002
3.0559096 -3.0278535 -0.55726629
3.2723582 -3.2423151 -0.55784976
3.5100307 -3.4778054 -0.55673856
3.7859449 -3.7511866 -0.55568612
4.1222076 -4.084362 -0.55632913
4.509059 -4.4676619 -0.5553394
4.9677267 -4.9221182 -0.55330408
5.5557246 -5.5047178 -0.55342883
6.2762671 -6.2186451 -0.55144793
7.2082248 -7.1420465 -0.54871053
8.4858475 -8.4079399 -0.54643613
10.294072 -10.199563 -0.54222697
13.108846 -12.988494 -0.53694999
18.024317 -17.858837 -0.52727866
28.785122 -28.520847 -0.50519687
1.5037858 -1.4537762 -0.56044465
1.5597781 -1.5079063 -0.56202948
1.6088091 -1.5553068 -0.55989313
1.6621562 -1.6068799 -0.55808353
1.7258382 -1.668444 -0.55839413
1.8018997 -1.741976 -0.5610888
1.8654784 -1.8034403 -0.55828243
1.9457141 -1.8810078 -0.5588026
2.0396597 -1.9718293 -0.56124163
2.1284814 -2.0576968 -0.56015563
2.2270417 -2.1529796 -0.55946922
2.3306129 -2.2531066 -0.55770862
2.4578028 -2.3760667 -0.55893308
2.5918233 -2.5056303 -0.55868995
2.7367949 -2.6457806 -0.55758393
2.913661 -2.8167648 -0.55925477
3.098052 -2.9950237 -0.55819315
3.3074467 -3.1974549 -0.55708671
3.5516157 -3.4335039 -0.5565958
3.8367872 -3.7091918 -0.55641198
4.1682281 -4.0296102 -0.55581075
4.5695457 -4.417582 -0.5560568
5.0273447 -4.8601565 -0.5532462
5.6116066 -5.4249878 -0.55230862
6.3354349 -6.1247449 -0.54998779
7.2971067 -7.0544357 -0.5488317
8.5817089 -8.2963171 -0.54599851
10.416475 -10.070066 -0.54211104
13.264885 -12.82375 -0.53684193
18.225451 -17.619349 -0.52678472
29.099297 -28.131577 -0.5046016
1.5203685 -1.4340647 -0.56001049
1.5773413 -1.4878035 -0.56172341
1.6381744 -1.5451834 -0.56345773
1.6794745 -1.5841391 -0.55731583
1.7447566 -1.6457155 -0.55792546
1.8211383 -1.7177613 -0.56045985
1.8927815 -1.7853377 -0.55984116
1.9716108 -1.8596922 -0.55963027
2.0568531 -1.9400958 -0.55936593
2.1417143 -2.0201397 -0.55705869
2.2597251 -2.1314518 -0.56105322
2.361727 -2.2276635 -0.55855703
2.4798496 -2.3390808 -0.55736369
2.6246448 -2.4756567 -0.55916059
2.7706723 -2.613395 -0.55789661
2.9401031 -2.7732079 -0.5577426
3.1423604 -2.9639843 -0.55956739
3.3375261 -3.1480713 -0.55559099
3.6033449 -3.3988008 -0.55811071
3.8733091 -3.6534407 -0.55515152
4.2080684 -3.9691973 -0.55457318
4.609766 -4.3480926 -0.55440301
5.0977087 -4.8083372 -0.55444103
5.6768789 -5.3546305 -0.55221069
6.4194908 -6.055088 -0.55077952
7.3892527 -6.9698014 -0.54927468
8.6935577 -8.2000675 -0.54665816
10.539221 -9.9409618 -0.54209644
13.408193 -12.647076 -0.53630739
18.425823 -17.379881 -0.52635938
29.395721 -27.727072 -0.50379151
1.5348364 -1.412456 -0.55889994
1.5855414 -1.4591179 -0.55821192
1.6443678 -1.5132538 -0.55914551
1.7067101 -1.5706253 -0.55990249
1.7707775 -1.6295842 -0.55979621
1.8330206 -1.6868644 -0.55769092
1.9085194 -1.7563432 -0.55806601
1.9872259 -1.8287741 -0.55763739
2.0867579 -1.92037 -0.56103438
2.1715014 -1.9983563 -0.5583728
2.2863882 -2.1040828 -0.561207
2.3967266 -2.2056234 -0.5603779
2.5149019 -2.3143759 -0.55880344
2.6566005 -2.4447761 -0.55952168
2.8106995 -2.5865879 -0.55950975
2.9787571 -2.7412455 -0.55863875
3.1736798 -2.9206259 -0.55870706
3.391959 -3.1215005 -0.55822051
3.6399827 -3.3497481 -0.55736351
3.9185393 -3.6060939 -0.55523676
4.2697682 -3.9293177 -0.55629486
4.6640134 -4.2921276 -0.55453777
5.1474633 -4.7370296 -0.55347532
5.7391071 -5.2814984 -0.55190486
6.4951653 -5.9772725 -0.55092454
7.4579654 -6.8633032 -0.54806757
8.7745533 -8.074913 -0.54546636
10.655778 -9.806138 -0.54184848
13.557849 -12.476811 -0.5361163
18.618652 -17.134092 -0.52580947
29.715393 -27.346031 -0.50346917
1.5475292 -1.3893852 -0.55725861
1.6070768 -1.4428476 -0.55950516
1.6617479 -1.4919319 -0.55877501
1.7226187 -1.5465821 -0.55884027
1.792401 -1.6092333 -0.56033421
1.8551873 -1.6656034 -0.55816156
1.9380646 -1.7400113 -0.56040657
2.0202823 -1.8138272 -0.56061238
2.106349 -1.8910985 -0.56000727
2.1937103 -1.9695324 -0.55781388
2.3025799 -2.0672762 -0.55889952
2.4085908 -2.1624539 -0.55689263
2.5429885 -2.2831175 -0.55876398
2.6780841 -2.4044073 -0.55777729
2.8381355 -2.5481029 -0.5586918
3.0034368 -2.6965117 -0.55700666
3.2006319 -2.8735554 -0.55718923
3.4144232 -3.0654991 -0.55567199
3.6724942 -3.2971973 -0.55609149
3.9611094 -3.5563188 -0.55503041
4.3142071 -3.8733327 -0.55583727
4.7224193 -4.2398291 -0.55524141
5.2054877 -4.6735325 -0.55349332
5.7949076 -5.2027187 -0.55107707
6.556797 -5.8867497 -0.54997075
7.5608854 -6.7882295 -0.54945529
8.8729286 -7.9661932 -0.54545116
10.768951 -9.6684589 -0.54151696
13.698311 -12.298464 -0.53565007
18.818253 -16.895193 -0.52553952
30.003077 -26.937025 -0.50269336
1.5712397 -1.3761594 -0.55966085
1.6339401 -1.4310752 -0.56268871
1.6859697 -1.4766449 -0.56077176
1.7411127 -1.5249416 -0.55871457
1.8130068 -1.5879095 -0.56062943
1.883996 -1.6500849 -0.56068212
1.9505022 -1.7083338 -0.5578866
2.0346723 -1.7820536 -0.55848253
2.1309378 -1.8663672 -0.56040072
2.225379 -1.9490827 -0.55972999
2.3265812 -2.0377202 -0.55860114
2.4326644 -2.1306322 -0.55635905
2.5703397 -2.2512143 -0.558649
2.7098141 -2.3733718 -0.55826533
2.8622777 -2.5069063 -0.55733395
3.0300281 -2.6538291 -0.55584419
3.2329121 -2.8315237 -0.55670542
3.453891 -3.0250664 -0.55599934
3.7112193 -3.2504458 -0.55586112
3.9944093 -3.4984758 -0.55362678
4.3479109 -3.8080876 -0.55410475
4.7693343 -4.1771884 -0.55467629
5.2604866 -4.6073608 -0.55327547
5.8643985 -5.1362929 -0.55163759
6.6339073 -5.8102617 -0.55040425
7.6317735 -6.684236 -0.54859233
8.9706211 -7.8568568 -0.54547644
10.885395 -9.5338984 -0.54143637
13.845244 -12.126262 -0.53552449
18.99752 -16.638847 -0.52479243
30.300024 -26.538065 -0.50216317
1.5854639 -1.354534 -0.55875242
1.6423024 -1.4030937 -0.55958456
1.6942027 -1.4474344 -0.55754805
1.7542068 -1.4986987 -0.55696064
1.8278085 -1.5615799 -0.55922651
1.9026927 -1.6255569 -0.56025529
1.9827695 -1.6939702 -0.56111556
2.0558004 -1.7563637 -0.55831164
2.1530972 -1.8394889 -0.56023741
2.2505484 -1.9227458 -0.56007159
2.3578308 -2.0144022 -0.5601145
2.4663219 -2.1070912 -0.55808884
2.5924637 -2.2148597 -0.55749601
2.7339768 -2.3357608 -0.55728406
2.891129 -2.4700232 -0.55699563
3.0728455 -2.6252718 -0.55773485
3.2638085 -2.7884202 -0.55607939
3.4874125 -2.9794552 -0.55545592
3.7484627 -3.2024822 -0.5554992
4.0493765 -3.4595666 -0.55530715
4.4013762 -3.7602961 -0.55498385
4.8112469 -4.110467 -0.55363059
5.3192511 -4.5444779 -0.55353689
5.9334307 -5.0692 -0.55222595
6.7064924 -5.7296619 -0.55053937
7.7053833 -6.5830598 -0.5480234
9.0743303 -7.7526131 -0.54594463
10.995344 -9.3938227 -0.5411188
13.982673 -11.946033 -0.53511786
19.196728 -16.400639 -0.52468473
30.586113 -26.131107 -0.50154138
1.6200209 -1.3499552 -0.56503826
1.6502056 -1.3751079 -0.55647397
1.725759 -1.4380662 -0.56207114
1.7815111 -1.484524 -0.55979162
1.8554515 -1.5461383 -0.56182474
1.9109728 -1.592404 -0.5568856
2.0015762 -1.6679033 -0.56059134
2.0747142 -1.7288487 -0.55763263
2.1719871 -1.8099058 -0.55931944
2.2681327 -1.8900234 -0.5586217
2.3767655 -1.9805467 -0.55878496
2.4903579 -2.0752025 -0.55771136
2.6265554 -2.1886954 -0.55899751
2.7833192 -2.3193257 -0.56148601
2.934473 -2.4452815 -0.55951101
3.1037462 -2.5863359 -0.55752891
3.3047924 -2.7538667 -0.5572505
3.5264938 -2.9386094 -0.55588323
3.7907007 -3.1587715 -0.55596048
4.0678072 -3.389683 -0.552077
4.4466491 -3.7053702 -0.5549053
4.864965 -4.0539503 -0.55403382
5.3513503 -4.4592528 -0.55112946
5.9942603 -4.9949865 -0.55212921
6.7803993 -5.6500721 -0.55086148
7.7897449 -6.4911547 -0.54830503
9.1539431 -7.627934 -0.54505008
11.112527 -9.2600117 -0.54124111
14.128659 -11.773339 -0.53512394
19.389877 -16.157486 -0.52449393
30.873302 -25.726566 -0.50102538
1.6198983 -1.3164449 -0.55930722
1.6792345 -1.3646657 -0.5605619
1.7436562 -1.4170194 -0.56218261
1.7996405 -1.4625163 -0.55979508
1.8680403 -1.5181028 -0.55994183
1.9384943 -1.5753587 -0.55921841
2.0100992 -1.63355 -0.55731046
2.1074791 -1.7126878 -0.56073624
2.1999979 -1.7878752 -0.56082886
2.2938681 -1.8641608 -0.55927223
2.4037905 -1.9534916 -0.5594489
2.5246544 -2.0517142 -0.55969977
2.6534083 -2.1563489 -0.55902702
2.7901173 -2.2674482 -0.55719066
2.9403515 -2.3895392 -0.55498743
3.1392772 -2.5512006 -0.55823404
3.3252685 -2.7023504 -0.55505812
3.5642998 -2.8966043 -0.55618608
3.8212492 -3.1054199 -0.55479848
4.1338167 -3.3594344 -0.55538726
4.4921036 -3.650604 -0.55493385
4.9245996 -4.0020809 -0.55517888
5.4230237 -4.407136 -0.55288804
6.0550733 -4.9207845 -0.5521155
6.8419318 -5.5602422 -0.5502643
7.8613858 -6.3887229 -0.5477767
9.234952 -7.5049806 -0.54433751
11.2155 -9.1145153 -0.54075682
14.25909 -11.587955 -0.53462678
19.564449 -15.899467 -0.52388805
31.148674 -25.313635 -0.50040501
1.6425472 -1.3016461 -0.56155849
1.6959264 -1.3439468 -0.56057501
1.7555597 -1.3912035 -0.56046259
1.828407 -1.4489318 -0.56315851
1.8930255 -1.5001391 -0.56185937
1.9501324 -1.5453938 -0.55705166
2.0493779 -1.6240416 -0.56262136
2.1295969 -1.6876116 -0.56105733
2.22996 -1.7671449 -0.56288499
2.327734 -1.8446264 -0.56195641
2.422049 -1.919367 -0.55816323
2.5373085 -2.010705 -0.55698168
2.68385 -2.1268325 -0.55988836
2.8216021 -2.2359951 -0.55794531
2.9815507 -2.3627474 -0.55723786
3.1627882 -2.5063698 -0.55689228
3.3629982 -2.6650276 -0.55584389
3.606771 -2.8582067 -0.55728698
3.8643558 -3.0623314 -0.55554783
4.1735325 -3.3073401 -0.55521727
4.5370121 -3.595382 -0.55497813
4.9566655 -3.9279385 -0.55330694
5.4654336 -4.3311148 -0.55174041
6.1102614 -4.8421125 -0.55167693
6.9076047 -5.4739718 -0.55009097
7.9233055 -6.2788701 -0.54667014
9.3251753 -7.3897896 -0.54425836
11.313707 -8.9656134 -0.54013562
14.39997 -11.411341 -0.53460735
19.742043 -15.644696 -0.52345264
31.420507 -24.899364 -0.49981552
1.664278 -1.285872 -0.56353951
1.7150074 -1.3250672 -0.56145388
1.7694467 -1.3671286 -0.55948687
1.8388349 -1.42074 -0.56094706
1.9105453 -1.4761456 -0.56162947
1.9770472 -1.5275271 -0.55933219
2.0611978 -1.5925444 -0.56044787
2.1387458 -1.6524603 -0.55807215
2.2441368 -1.7338886 -0.56103927
2.3431265 -1.8103712 -0.56025583
2.4564974 -1.8979648 -0.5606811
2.5628235 -1.9801158 -0.55719566
2.6994863 -2.0857055 -0.55775785
2.8567572 -2.2072179 -0.5594877
3.0137591 -2.3285224 -0.55786395
3.1965485 -2.4697509 -0.55744725
3.4054482 -2.6311533 -0.5574705
3.6318903 -2.8061094 -0.55579478
3.8950682 -3.0094488 -0.55460119
4.2066865 -3.2502143 -0.55426913
4.5711651 -3.5318217 -0.55380154
5.0043259 -3.8664951 -0.55327809
5.5336127 -4.2754383 -0.55327404
6.1538434 -4.7546477 -0.55029154
6.9717264 -5.3865685 -0.54988104
8.0138178 -6.1917205 -0.54762059
9.4223061 -7.2799621 -0.54466158
11.426964 -8.8288212 -0.54031885
14.535997 -11.230956 -0.53448999
19.919495 -15.390409 -0.52310032
31.688889 -24.483803 -0.49925789
1.6661655 -1.2549199 -0.55891126
1.7183876 -1.2942524 -0.5573082
1.7848063 -1.3442775 -0.55907452
1.8644476 -1.4042617 -0.56345028
1.9241333 -1.4492157 -0.56034297
2.0044031 -1.5096731 -0.56177711
2.0838692 -1.5695254 -0.56132227
2.151582 -1.6205251 -0.55617994
2.2625086 -1.7040727 -0.56035137
2.3663507 -1.7822843 -0.56052631
2.4552338 -1.8492291 -0.5551607
2.5878978 -1.9491488 -0.55739409
2.7234347 -2.0512323 -0.55745238
2.8744438 -2.164969 -0.55769569
3.0375555 -2.2878213 -0.55701929
3.2189956 -2.4244781 -0.55612075
3.4418662 -2.5923393 -0.55817169
3.6687632 -2.7632332 -0.55619568
3.9460928 -2.9721119 -0.5566206
4.2521076 -3.2025957 -0.55502307
4.620008 -3.4796903 -0.55449325
5.0549121 -3.8072507 -0.55365306
5.5808411 -4.2033691 -0.55278653
6.2251711 -4.6886644 -0.5514726
7.0300527 -5.2948837 -0.5493046
8.0847178 -6.0892353 -0.54730749
9.5108471 -7.1633649 -0.5446468
11.527309 -8.6821203 -0.53997475
14.662306 -11.043332 -0.53410083
20.094868 -15.135021 -0.52277893
31.947981 -24.062529 -0.49864054
1.685686 -1.2374339 -0.56031287
1.7522632 -1.2863071 -0.56312239
1.8119675 -1.3301351 -0.56241667
1.8584577 -1.3642627 -0.55652827
1.9441905 -1.4271977 -0.56103086
2.0078189 -1.4739063 -0.55761278
2.1080978 -1.5475193 -0.56268024
2.1889954 -1.6069049 -0.56070113
2.2904365 -1.6813711 -0.56210518
2.3886571 -1.7534733 -0.56066036
2.4977884 -1.8335848 -0.55964249
2.6211634 -1.9241523 -0.55942065
2.7564421 -2.023458 -0.55907339
2.8936954 -2.1242135 -0.55632097
3.0757091 -2.2578266 -0.55888242
3.2526901 -2.3877454 -0.55682737
3.4673226 -2.5453036 -0.55718219
3.7105396 -2.723845 -0.55740929
3.9695165 -2.9139557 -0.55482846
4.2871532 -3.1471276 -0.55450433
4.67206 -3.4296811 -0.55563688
5.1002793 -3.7440298 -0.55353773
5.6161427 -4.1227164 -0.55122012
6.2795577 -4.6097183 -0.55122745
7.0961642 -5.2091756 -0.54942381
8.1629763 -5.9923043 -0.54757577
9.580718 -7.0330448 -0.54365444
11.630635 -8.5378542 -0.53985614
14.778903 -10.848946 -0.53344828
20.276012 -14.884282 -0.52269053
32.219707 -23.651949 -0.49830464
1.7064301 -1.2206602 -0.56217641
1.7454698 -1.2485865 -0.55596316
1.830978 -1.3097532 -0.56327587
1.882519 -1.3466219 -0.55873275
1.9613246 -1.4029939 -0.56095445
2.037776 -1.4576819 -0.56091207
2.1053467 -1.5060173 -0.556961
2.20315 -1.5759788 -0.55932063
2.2958438 -1.6422855 -0.55843401
2.4051113 -1.7204478 -0.55951458
2.5122707 -1.7971021 -0.55789399
2.6436772 -1.8911011 -0.55922043
2.7770302 -1.9864924 -0.55825257
2.92397 -2.0916028 -0.5571546
3.0994983 -2.2171633 -0.55820888
3.2850535 -2.3498964 -0.55737889
3.4896019 -2.4962161 -0.55578786
3.7299662 -2.6681559 -0.55535698
4.0036125 -2.8639033 -0.55462998
4.3280463 -3.0959804 -0.55482757
4.6933599 -3.3573 -0.55321854
5.1307449 -3.6701746 -0.55190444
5.6682258 -4.0546508 -0.55139685
6.3363051 -4.532548 -0.55127472
7.1560249 -5.1189175 -0.54914349
8.2289543 -5.886416 -0.54710478
9.6772604 -6.9224329 -0.5442614
11.737151 -8.3959341 -0.53996736
14.89931 -10.657921 -0.53302366
20.43545 -14.618085 -0.52212739
32.46917 -23.226164 -0.49770808
1.7210033 -1.1993729 -0.56207633
1.7793405 -1.2400283 -0.56185234
1.8313433 -1.2762692 -0.55851805
1.8973628 -1.3222785 -0.55827039
1.9772973 -1.3779851 -0.56063414
2.0629916 -1.4377056 -0.56294411
2.1292083 -1.4838524 -0.55840433
2.2203465 -1.5473669 -0.55881363
2.311373 -1.6108036 -0.55735135
2.4160872 -1.6837792 -0.55720925
2.5266271 -1.7608148 -0.55623186
2.6699624 -1.8607057 -0.55989838
2.7999341 -1.9512833 -0.55799133
2.9585187 -2.0618017 -0.55886459
3.120605 -2.1747599 -0.55715191
3.3086112 -2.3057821 -0.5565232
3.5339065 -2.4627912 -0.55797881
3.7723453 -2.6289601 -0.55681151
4.0424705 -2.8172109 -0.55517209
4.3589888 -3.0377939 -0.55396378
4.7373719 -3.3014903 -0.55357927
5.1894202 -3.6165242 -0.55339056
5.7426057 -4.0020413 -0.55380338
6.3766675 -4.4439206 -0.54999053
7.2096405 -5.0244226 -0.54847533
8.294117 -5.7801976 -0.54667032
9.7400331 -6.7878618 -0.54305649
11.826563 -8.241971 -0.53937751
15.046124 -10.485693 -0.5336228
20.604626 -14.359431 -0.52189898
32.708454 -22.794632 -0.49704194
1.7262774 -1.1717798 -0.55905068
1.7833735 -1.2105361 -0.55838335
1.8497277 -1.2555767 -0.55937403
1.9231625 -1.3054235 -0.56109607
1.9944413 -1.3538069 -0.56073266
2.0641894 -1.4011511 -0.55852723
2.151516 -1.4604275 -0.55950266
2.248734 -1.5264181 -0.56119186
2.3292768 -1.5810897 -0.55693829
2.4510851 -1.6637721 -0.56051999
2.5450139 -1.72753 -0.55556118
2.6768837 -1.8170419 -0.55662227
2.8113775 -1.9083349 -0.55555338
2.9807811 -2.0233243 -0.55832797
3.1496942 -2.1379809 -0.55760956
3.33126 -2.2612259 -0.55561388
3.5627227 -2.4183404 -0.55779123
3.8023827 -2.5810194 -0.5565185
4.0725932 -2.7644358 -0.55459869
4.4076347 -2.9918582 -0.55542856
4.7838507 -3.2472301 -0.55430263
5.2241788 -3.5461204 -0.55240554
5.778604 -3.9224589 -0.55258179
6.4361548 -4.3687973 -0.55044633
7.2835207 -4.9439812 -0.54942936
8.3625851 -5.6764393 -0.54654121
9.8413057 -6.6801796 -0.54408193
11.919049 -8.0905313 -0.53901756
15.154537 -10.286748 -0.53294146
20.756374 -14.089219 -0.52131504
32.965393 -22.376579 -0.49672756
1.7477344 -1.1552114 -0.56135678
1.8033139 -1.1919482 -0.55999535
1.8671386 -1.2341348 -0.56000769
1.9437737 -1.2847888 -0.56245768
2.0152035 -1.3320022 -0.56192255
2.0887849 -1.3806379 -0.56054634
2.1624916 -1.4293561 -0.55774409
2.261308 -1.4946715 -0.55970079
2.343749 -1.5491631 -0.55580193
2.4651704 -1.6294197 -0.55911684
2.5730288 -1.7007117 -0.55706942
2.7055581 -1.7883103 -0.55797005
2.8450918 -1.8805391 -0.55760401
2.9968727 -1.9808625 -0.55673754
3.1688578 -2.0945406 -0.55640054
3.377521 -2.2324622 -0.55870885
3.5894716 -2.3725564 -0.55736941
3.826057 -2.528934 -0.55539018
4.1231689 -2.7253177 -0.5568803
4.4362025 -2.9322257 -0.554443
4.8041234 -3.1754127 -0.55208558
5.2690701 -3.4827318 -0.5525822
5.8179688 -3.8455408 -0.55178255
6.4973698 -4.2946091 -0.55112362
7.3233461 -4.84056 -0.54790217
8.4313097 -5.5728979 -0.54651284
9.9160032 -6.5542455 -0.54371482
12.022529 -7.9466095 -0.5392375
15.276419 -10.097355 -0.532821
20.904915 -13.817657 -0.52073896
33.206131 -21.948473 -0.49625078
1.7602316 -1.1326215 -0.56085509
1.8292989 -1.1770629 -0.56352741
1.8785844 -1.2087758 -0.55894029
1.9349779 -1.2450621 -0.55544043
2.0332899 -1.308321 -0.56243736
2.1112006 -1.3584527 -0.56203657
2.1908708 -1.4097165 -0.56055033
2.2748766 -1.4637702 -0.55856198
2.3751078 -1.5282639 -0.55873978
2.4862964 -1.5998082 -0.55940437
2.5987566 -1.6721708 -0.5581457
2.7255349 -1.7537463 -0.55760038
2.8745909 -1.8496563 -0.55888557
3.0228434 -1.9450495 -0.55707693
3.2048976 -2.0621924 -0.55823392
3.3995104 -2.1874161 -0.55785477
3.6052582 -2.3198047 -0.55534941
3.8711243 -2.490876 -0.55744386
4.1452727 -2.6672771 -0.55539393
4.4761305 -2.8801677 -0.55496502
4.8511562 -3.1214778 -0.55303782
5.330925 -3.4301856 -0.5546037
5.8578949 -3.7692642 -0.55113173
6.5324445 -4.2033033 -0.54967308
7.4010787 -4.7622261 -0.54929513
8.5046158 -5.4722977 -0.54686147
9.9954967 -6.4316053 -0.54369605
12.120856 -7.7991691 -0.53930551
15.385766 -9.8999758 -0.53234863
21.088087 -13.569137 -0.52110612
33.438633 -21.516098 -0.49573404
1.7570065 -1.1002362 -0.55547482
1.8328068 -1.1477023 -0.56021821
1.8902783 -1.1836909 -0.55804676
1.9662727 -1.2312784 -0.56003523
2.0421834 -1.2788136 -0.56050527
2.1169157 -1.325611 -0.55917633
2.2011485 -1.3783575 -0.55880117
2.2905064 -1.4343134 -0.55802697
2.3920946 -1.4979279 -0.55836058
2.5006447 -1.5659018 -0.55825812
2.6241784 -1.6432586 -0.55922353
2.7455676 -1.7192723 -0.5573315
2.8823128 -1.8049022 -0.55602992
3.0426741 -1.9053203 -0.55637181
3.2304823 -2.0229256 -0.5583154
