# .PCD v0.7 - Point Cloud Data file format
VERSION 0.7
FIELDS x y z
SIZE 4 4 4
TYPE F F F
COUNT 1 1 1
WIDTH 1407
HEIGHT 1
VIEWPOINT 0 0 0 1 0 0 0
POINTS 1407
DATA ascii
-1.4470433 -4.8135362 -0.56633133
-1.564266 -5.2034726 -0.56651896
-1.7039179 -5.6680198 -0.56741297
-1.8678916 -6.2134724 -0.56763983
-2.0677652 -6.878345 -0.56827182
-2.309788 -7.6834245 -0.56773001
-2.6207445 -8.7178097 -0.56816757
-3.0332446 -10.089976 -0.56973261
-3.593775 -11.95456 -0.57100999
-4.408452 -14.664553 -0.5729658
-5.6959376 -18.947325 -0.57568282
-8.0447817 -26.76067 -0.58068997
-13.680897 -45.508999 -0.59245563
-0.58130938 -2.0236261 -0.56415683
-0.60047489 -2.0903442 -0.56342602
-0.62228042 -2.1662524 -0.56393945
-0.64675051 -2.2514367 -0.56547046
-0.66887569 -2.3284578 -0.56354928
-0.69757217 -2.4283547 -0.56563455
-0.7277438 -2.5333867 -0.56713706
-0.75572121 -2.6307802 -0.56518
-0.79095447 -2.7534325 -0.56674725
-0.82516289 -2.8725173 -0.56548923
-0.86530799 -3.0122683 -0.56606245
-0.9093526 -3.1655943 -0.56665057
-0.95353228 -3.3193905 -0.56466901
-1.00783 -3.5084093 -0.56571609
-1.0666454 -3.7131541 -0.56589228
-1.1324415 -3.9422004 -0.56602061
-1.2093806 -4.2100372 -0.56741989
-1.2914083 -4.4955878 -0.56642085
-1.3913987 -4.8436699 -0.56782079
-1.5031072 -5.2325444 -0.56762892
-1.6331221 -5.6851459 -0.56707424
-1.7894815 -6.2294569 -0.56704706
-1.9810981 -6.896503 -0.56771648
-2.2214804 -7.7333097 -0.56935459
-2.5168664 -8.7615938 -0.56896108
-2.911412 -10.135067 -0.57021409
-3.4512815 -12.014434 -0.57179958
-4.2260695 -14.71159 -0.57272989
-5.4569306 -18.996405 -0.57509178
-7.7059951 -26.825737 -0.58000183
-13.094447 -45.583755 -0.59128803
-0.55846071 -2.0382006 -0.56626272
-0.57686275 -2.1053619 -0.56551921
-0.59574509 -2.1742764 -0.56407863
-0.62196273 -2.2699623 -0.56815952
-0.63936806 -2.3334861 -0.56282097
-0.66622049 -2.4314888 -0.56441367
-0.69496912 -2.536412 -0.56585848
-0.72318202 -2.63938 -0.56507438
-0.75454658 -2.7538502 -0.56488073
-0.79058599 -2.8853827 -0.56606531
-0.8277536 -3.0210323 -0.56575388
-0.87200063 -3.1825197 -0.56771791
-0.9134655 -3.333853 -0.56517571
-0.96472931 -3.5209491 -0.56578249
-1.0221014 -3.7303388 -0.566553
-1.0822228 -3.9497623 -0.56515288
-1.1546507 -4.2141004 -0.56601113
-1.234388 -4.505116 -0.56566614
-1.3298852 -4.8536501 -0.56703085
-1.4376137 -5.2468243 -0.56721741
-1.5657123 -5.7143421 -0.56802315
-1.7131351 -6.2523875 -0.56717396
-1.8972236 -6.9242511 -0.56803727
-2.1184206 -7.7315478 -0.5672642
-2.4094505 -8.7937136 -0.56907988
-2.7826107 -10.155626 -0.56940269
-3.2991831 -12.040949 -0.57108754
-4.0389314 -14.74079 -0.57189
-5.220458 -19.05298 -0.57481772
-7.3696642 -26.896885 -0.57953697
-12.506811 -45.645805 -0.59005338
-0.53095043 -2.0356834 -0.56370687
-0.54722208 -2.0980694 -0.56171048
-0.57094842 -2.1890371 -0.56604385
-0.58789086 -2.2539952 -0.56231111
-0.61249954 -2.3483455 -0.56454569
-0.63966787 -2.4525101 -0.56742454
-0.66429418 -2.5469282 -0.56633943
-0.68965691 -2.6441698 -0.56424165
-0.72255158 -2.7702894 -0.56638747
-0.75105566 -2.879575 -0.56307155
-0.79159313 -3.034997 -0.56650335
-0.83071071 -3.1849751 -0.56629097
-0.87536013 -3.3561628 -0.56709021
-0.91599643 -3.5119641 -0.56248617
-0.97167563 -3.72544 -0.56395167
-1.0360886 -3.9724016 -0.56652647
-1.101496 -4.223176 -0.56536818
-1.1773375 -4.5139551 -0.56491554
-1.2660593 -4.8541179 -0.56522399
-1.3665165 -5.239274 -0.564542
-1.4892237 -5.7097383 -0.56570244
-1.6347103 -6.267539 -0.5666821
-1.8096199 -6.938149 -0.56730908
-2.0229275 -7.7559781 -0.56718868
-2.2967088 -8.805665 -0.56798279
-2.6572812 -10.188113 -0.56934905
-3.1438172 -12.053511 -0.56980675
-3.85537 -14.78163 -0.57159197
-4.9792256 -19.090534 -0.57406014
-7.0257421 -26.936953 -0.57849514
-11.917846 -45.693459 -0.58873045
-0.50720626 -2.0474098 -0.56518424
-0.52431977 -2.1164906 -0.56487352
-0.54425365 -2.1969566 -0.56631839
-0.5601542 -2.2611413 -0.56233305
-0.58238536 -2.3508809 -0.56339097
-0.60745859 -2.4520922 -0.56555694
-0.62799257 -2.5349805 -0.56192315
-0.6575762 -2.6543989 -0.56465632
-0.68748677 -2.7751374 -0.56560755
-0.71868134 -2.9010584 -0.56550169
-0.75463986 -3.0462101 -0.56682146
-0.79226106 -3.1980736 -0.56684488
-0.83254182 -3.3606725 -0.56607962
-0.87637609 -3.5376155 -0.56482595
-0.92894042 -3.749799 -0.56586719
-0.98674285 -3.9831266 -0.56628281
-1.0496799 -4.2371807 -0.5654723
-1.1252309 -4.5421534 -0.56667006
-1.2095731 -4.8826127 -0.56676728
-1.3037256 -5.2626719 -0.56529301
-1.4222023 -5.7409205 -0.5670163
-1.5586991 -6.2919087 -0.5671097
-1.7254597 -6.9650617 -0.56773186
-1.9250419 -7.7707033 -0.5664916
-2.189826 -8.8395414 -0.56838799
-2.5278373 -10.203972 -0.56845528
-2.9953206 -12.091033 -0.56979638
-3.6728809 -14.826102 -0.57152206
-4.7390661 -19.12991 -0.57344848
-6.6875949 -26.99542 -0.57794106
-11.334226 -45.752197 -0.5876472
-0.48165181 -2.0520339 -0.5647831
-0.49848503 -2.12375 -0.56513232
-0.51583761 -2.1976793 -0.56482691
-0.53573024 -2.2824299 -0.56594634
-0.55369079 -2.3589492 -0.56365031
-0.57373112 -2.4443293 -0.56209683
-0.60215902 -2.5654438 -0.56699169
-0.62501478 -2.6628187 -0.5647698
-0.65049607 -2.7713792 -0.56316876
-0.68104202 -2.9015176 -0.56391615
-0.71544242 -3.0480773 -0.56548917
-0.7516433 -3.2023079 -0.56591439
-0.78492379 -3.3440962 -0.56161928
-0.83534086 -3.5588939 -0.56654042
-0.88034898 -3.7506468 -0.5643189
-0.93505317 -3.9837089 -0.56468827
-1.0014893 -4.2667542 -0.56773263
-1.0701144 -4.5591249 -0.56710291
-1.1512094 -4.904623 -0.56763607
-1.2423117 -5.2927561 -0.56684077
-1.3525175 -5.7622776 -0.56744021
-1.4804462 -6.3073063 -0.56681383
-1.6389325 -6.9825225 -0.56746954
-1.8308765 -7.800283 -0.56696391
-2.081924 -8.8698483 -0.56864762
-2.4014933 -10.231343 -0.56829208
-2.8463464 -12.126599 -0.56977999
-3.4888818 -14.864063 -0.57128847
-4.5017672 -19.179369 -0.57322842
-6.346055 -27.036791 -0.5771125
-10.749945 -45.799164 -0.58650827
-0.45574361 -2.0549109 -0.56398994
-0.47482535 -2.140949 -0.56811231
-0.48596591 -2.1911807 -0.56157845
-0.50684261 -2.2853122 -0.56507295
-0.52357763 -2.360769 -0.56250435
-0.54858255 -2.4735141 -0.56721407
-0.57134587 -2.5761521 -0.56776267
-0.59245098 -2.6713133 -0.56498361
-0.61611235 -2.7780004 -0.56293219
-0.64505392 -2.9084957 -0.56368816
-0.67991674 -3.0656893 -0.56716263
-0.70999801 -3.2013233 -0.56415492
-0.7481811 -3.3734877 -0.56496757
-0.78782904 -3.5522571 -0.56389916
-0.83477896 -3.7639506 -0.56473345
-0.886415 -3.9967732 -0.56495237
-0.94693547 -4.2696548 -0.56652647
-1.0139266 -4.5717125 -0.56707495
-1.0858808 -4.8961482 -0.56506717
-1.1761159 -5.3030109 -0.56634736
-1.2799617 -5.7712436 -0.56673038
-1.4032997 -6.3273644 -0.56702286
-1.5488588 -6.9836783 -0.56597286
-1.7340578 -7.8187256 -0.56671172
-1.9697549 -8.881465 -0.56779665
-2.2771759 -10.267601 -0.5687077
-2.6946981 -12.150174 -0.56928772
-3.3032532 -14.894099 -0.57083857
-4.2631297 -19.222105 -0.57289565
-6.0048609 -27.075428 -0.57631755
-10.164766 -45.832108 -0.58528525
-0.43089929 -2.0625436 -0.56458789
-0.44323367 -2.1215835 -0.56148487
-0.4606016 -2.2047167 -0.56355339
-0.47864401 -2.2910788 -0.56500077
-0.49781919 -2.3828626 -0.56626719
-0.51536691 -2.4668565 -0.56419146
-0.53390533 -2.5555925 -0.56174219
-0.55874878 -2.6745083 -0.56416357
-0.58486396 -2.7995114 -0.56579101
-0.60946155 -2.9172502 -0.56388974
-0.64304799 -3.0780151 -0.56793714
-0.67411005 -3.226697 -0.56712276
-0.70783806 -3.3881392 -0.56592089
-0.74583966 -3.5700378 -0.56522316
-0.78796583 -3.7716792 -0.56439662
-0.83772802 -4.009871 -0.56530493
-0.89325196 -4.2756424 -0.56582069
-0.95736122 -4.5825076 -0.56691086
-1.0275351 -4.9184022 -0.56613451
-1.114164 -5.3330603 -0.56805044
-1.206447 -5.7747827 -0.56557834
-1.3257322 -6.3457532 -0.56716698
-1.4655349 -7.0149331 -0.56700248
-1.6378639 -7.8398032 -0.56673682
-1.861503 -8.9102755 -0.56813222
-2.149513 -10.288865 -0.56837851
-2.5440326 -12.177273 -0.56904864
-3.1175518 -14.922481 -0.57041395
-4.0245738 -19.264034 -0.57262707
-5.6699352 -27.139727 -0.57615858
-9.578969 -45.850716 -0.58397454
-0.40635061 -2.0719893 -0.56576294
-0.42136115 -2.1485283 -0.56720185
-0.43640301 -2.2252271 -0.56738156
-0.45279664 -2.3088186 -0.56795955
-0.46722376 -2.3823826 -0.56474519
-0.486177 -2.4790256 -0.56556463
-0.50668859 -2.5836146 -0.56648934
-0.52848917 -2.6947763 -0.56702524
-0.54830122 -2.7957983 -0.56363535
-0.57545382 -2.9342496 -0.56576514
-0.60193211 -3.069263 -0.56491381
-0.63395619 -3.2325544 -0.56673932
-0.66395259 -3.3855066 -0.56407481
-0.7013517 -3.5762053 -0.5647915
-0.74151462 -3.7809968 -0.5643838
-0.78894001 -4.02282 -0.56572002
-0.83852071 -4.2756329 -0.5644123
-0.89623272 -4.5699077 -0.56394613
-0.96572989 -4.9242744 -0.56540084
-1.0452421 -5.3297086 -0.56628168
-1.1381651 -5.803525 -0.56697983
-1.2479914 -6.3635321 -0.56734151
-1.3791707 -7.0324173 -0.56700206
-1.542341 -7.8644257 -0.56710291
-1.7509037 -8.9278908 -0.56783974
-2.022521 -10.312873 -0.56828791
-2.3947952 -12.211105 -0.56921053
-2.9366522 -14.974045 -0.57096153
-3.7831566 -19.290386 -0.57198429
-5.3257957 -27.156332 -0.57507735
-8.9972429 -45.87711 -0.58285755
-0.38109532 -2.0782013 -0.56613678
-0.39152053 -2.1350524 -0.56233078
-0.40518641 -2.2095757 -0.56207794
-0.42236498 -2.3032546 -0.56527048
-0.43667561 -2.3812935 -0.56317157
-0.4575606 -2.4951844 -0.56792456
-0.47325063 -2.5807457 -0.56454164
-0.49272355 -2.6869361 -0.56405807
-0.51568311 -2.81214 -0.56560874
-0.54039091 -2.9468772 -0.56687582
-0.56515592 -3.0819266 -0.5659228
-0.59218878 -3.2293432 -0.56485689
-0.62299764 -3.397351 -0.56472921
-0.65548736 -3.5745251 -0.56321061
-0.69551533 -3.7928066 -0.56482732
-0.73671442 -4.0174751 -0.5636518
-0.7860412 -4.2864652 -0.5645237
-0.84460896 -4.6058493 -0.56705695
-0.90628445 -4.9421797 -0.56613433
-0.9783743 -5.3353024 -0.56555498
-1.0666622 -5.8167572 -0.56694829
-1.1685781 -6.3725281 -0.56681967
-1.2893373 -7.0310559 -0.56557131
-1.4431837 -7.8700161 -0.56618357
-1.6386127 -8.9357357 -0.56701428
-1.8957973 -10.338223 -0.56835729
-2.2415724 -12.223815 -0.56847519
-2.744916 -14.968664 -0.5694263
-3.5413113 -19.311594 -0.57127881
-4.9861135 -27.190435 -0.57445776
-8.4180899 -45.9058 -0.58186299
-0.35391662 -2.0733726 -0.56359321
-0.36605743 -2.1444979 -0.56359041
-0.37984702 -2.2252822 -0.56484252
-0.39151123 -2.2936156 -0.56168091
-0.40855491 -2.3934636 -0.56481898
-0.42285985 -2.4772673 -0.56262046
-0.44187072 -2.5886397 -0.56503725
-0.46314707 -2.7132845 -0.56835073
-0.48119009 -2.8189869 -0.56575304
-0.50121307 -2.9362888 -0.56361085
-0.52655405 -3.0847456 -0.56520873
-0.55210644 -3.2344408 -0.56451839
-0.58102894 -3.4038794 -0.56458408
-0.61235219 -3.5873826 -0.5640074
-0.6489886 -3.802012 -0.5649671
-0.69000202 -4.0422835 -0.56589925
-0.73412108 -4.3007493 -0.56517321
-0.7829935 -4.5870614 -0.5635159
-0.84394783 -4.9441543 -0.56512904
-0.91093248 -5.3365746 -0.5644598
-0.99075794 -5.8042212 -0.56449634
-1.090766 -6.3901048 -0.56714714
-1.2052093 -7.0605555 -0.56670922
-1.3470629 -7.8915863 -0.5665009
-1.5285978 -8.9550829 -0.56700635
-1.7692847 -10.365115 -0.56859666
-2.090354 -12.246057 -0.56827116
-2.558428 -14.988204 -0.56892985
-3.3012648 -19.340012 -0.57087547
-4.6464787 -27.220768 -0.57384807
-7.8362017 -45.907326 -0.58061713
-0.32822856 -2.0765042 -0.56330478
-0.34155482 -2.1608114 -0.5667311
-0.35010093 -2.2148776 -0.56106633
-0.36678532 -2.3204296 -0.56709999
-0.3755146 -2.3756545 -0.5594843
-0.39445943 -2.495507 -0.56561857
-0.41089958 -2.5995138 -0.56626511
-0.42548245 -2.691771 -0.56270581
-0.44480178 -2.8139925 -0.56361037
-0.46382868 -2.9343643 -0.56210417
-0.49018678 -3.1011162 -0.56706101
-0.51048285 -3.2295172 -0.56252098
-0.53843892 -3.4063785 -0.56385779
-0.570198 -3.6072991 -0.56599355
-0.60287988 -3.8140576 -0.56561267
-0.63868922 -4.0406017 -0.56452167
-0.68049812 -4.3051014 -0.56460285
-0.72798586 -4.6055279 -0.56464207
-0.78428787 -4.9617162 -0.56599128
-0.84677893 -5.3570595 -0.56548244
-0.92126465 -5.8282857 -0.56569225
-1.0103722 -6.3920155 -0.56617123
-1.1175098 -7.0698109 -0.56630635
-1.2478771 -7.8945665 -0.56557053
-1.4169788 -8.9643707 -0.56644839
-1.6380327 -10.362844 -0.56732434
-1.9398744 -12.272416 -0.56834453
-2.371856 -15.005303 -0.56842887
-3.0610065 -19.365143 -0.57046306
-4.3036599 -27.226664 -0.57281345
-7.2531643 -45.886398 -0.5791806
-0.30199245 -2.0757122 -0.56204009
-0.31281501 -2.1500998 -0.56287026
-0.32326907 -2.2219546 -0.56180966
-0.33812052 -2.3240345 -0.56692207
-0.35080671 -2.4112315 -0.56680423
-0.36481041 -2.5074844 -0.56727368
-0.37703538 -2.5915115 -0.56346935
-0.39547825 -2.7182767 -0.56718731
-0.4111357 -2.8258965 -0.56493932
-0.43084365 -2.9613569 -0.56621712
-0.44978341 -3.0915372 -0.56425542
-0.47264123 -3.2486479 -0.56479818
-0.49770099 -3.4208934 -0.56520468
-0.52503049 -3.6087396 -0.56516391
-0.55620062 -3.8229842 -0.56587946
-0.58892447 -4.0479078 -0.56448805
-0.62901849 -4.3234901 -0.56595731
-0.67230552 -4.6210184 -0.565485
-0.72214651 -4.9635954 -0.56514996
-0.78013456 -5.3621697 -0.56496656
-0.85120082 -5.8506355 -0.56680274
-0.93196642 -6.4057693 -0.56633162
-1.0302038 -7.0809932 -0.56614459
-1.1515534 -7.9150767 -0.5659827
-1.3067591 -8.9818668 -0.56649572
-1.5094208 -10.374839 -0.56692195
-1.7863706 -12.278423 -0.56756252
-2.1873469 -15.034491 -0.56847262
-2.8217332 -19.394875 -0.5702737
-3.9629734 -27.239063 -0.57200587
-6.6767426 -45.891861 -0.57816958
-0.27746972 -2.086956 -0.56411809
-0.28486228 -2.1425583 -0.5599367
-0.2956188 -2.2234621 -0.56122935
-0.30882213 -2.3227696 -0.56564438
-0.3203094 -2.4091697 -0.56535089
-0.33065709 -2.4869988 -0.56167686
-0.3451249 -2.5958164 -0.56344008
-0.35949576 -2.7039053 -0.56322366
-0.37662277 -2.8327241 -0.56533569
-0.3930833 -2.9565301 -0.56432742
-0.41430873 -3.1161745 -0.56777936
-0.43281311 -3.255353 -0.56499594
-0.45625779 -3.4316897 -0.5660187
-0.48053554 -3.6142917 -0.56506526
-0.50972891 -3.8338666 -0.56651962
-0.54061067 -4.0661397 -0.56606066
-0.57292312 -4.3091745 -0.56311858
-0.61477989 -4.6239948 -0.56488138
-0.66125256 -4.9735336 -0.56531298
-0.71477675 -5.3761096 -0.56546646
-0.77718866 -5.8455334 -0.56533986
-0.85383713 -6.4220362 -0.56679869
-0.9423908 -7.0880823 -0.56574208
-1.0548602 -7.9340081 -0.56636608
-1.1935062 -8.9768171 -0.56520891
-1.3827956 -10.400536 -0.56735408
-1.6356578 -12.302408 -0.5676986
-2.0001578 -15.043954 -0.56785756
-2.578119 -19.391022 -0.56918526
-3.6257684 -27.270794 -0.57169271
-6.098526 -45.86935 -0.57689756
-0.25143576 -2.0872817 -0.56332779
-0.26036122 -2.1613762 -0.56397521
-0.26985639 -2.2401998 -0.56457382
-0.28068364 -2.3300815 -0.56654167
-0.28943095 -2.4026971 -0.56295431
-0.3008396 -2.4974053 -0.56314909
-0.31455743 -2.6112833 -0.56591493
-0.32716671 -2.7159584 -0.56485361
-0.34155872 -2.8354332 -0.56499547
-0.35727194 -2.9658756 -0.56522995
-0.37497625 -3.1128471 -0.5662902
-0.39066109 -3.2430542 -0.56198514
-0.41340351 -3.431849 -0.56516379
-0.43566638 -3.6166632 -0.56455582
-0.46117592 -3.8284295 -0.56483555
-0.48921993 -4.0612354 -0.56449777
-0.52212417 -4.3343883 -0.56553179
-0.55580264 -4.6139688 -0.56277913
-0.59899372 -4.972517 -0.56431764
-0.64838034 -5.3824983 -0.56525713
-0.70665175 -5.8662348 -0.56645876
-0.77280653 -6.4154158 -0.56533295
-0.85697532 -7.1141391 -0.56693786
-0.95694512 -7.9440331 -0.56619895
-1.0842782 -9.0010834 -0.56585455
-1.2548407 -10.416999 -0.56736755
-1.4826658 -12.308277 -0.56708527
-1.8133317 -15.053285 -0.56732523
-2.3379219 -19.408144 -0.56880099
-3.2872436 -27.288893 -0.5711816
-5.523797 -45.85553 -0.57582599
-0.22603202 -2.0928035 -0.56402528
-0.23303615 -2.1576538 -0.56221378
-0.24234337 -2.2438283 -0.56469464
-0.2495904 -2.3109279 -0.56109595
-0.25915191 -2.3994567 -0.56140602
-0.27184683 -2.5169976 -0.56677043
-0.28041226 -2.5963037 -0.5618788
-0.29386812 -2.72089 -0.56508505
-0.3057293 -2.8307111 -0.56326282
-0.3192347 -2.9557562 -0.56251079
-0.3364073 -3.1147552 -0.56584197
-0.35314405 -3.2697186 -0.5658105
-0.37042767 -3.4297457 -0.56402469
-0.39010084 -3.6118972 -0.56302053
-0.41418001 -3.8348434 -0.56498772
-0.43948811 -4.0691681 -0.56480658
-0.4699409 -4.3511267 -0.56691891
-0.50120908 -4.640635 -0.56523722
-0.53894794 -4.9900551 -0.56551307
-0.58209449 -5.3895435 -0.56520259
-0.63278246 -5.8588572 -0.56495231
-0.69312316 -6.4175448 -0.56472677
-0.76547837 -7.0874734 -0.5640201
-0.85748637 -7.939364 -0.56507194
-0.97330493 -9.0117149 -0.56572771
-1.1246915 -10.413384 -0.56637466
-1.3295909 -12.310524 -0.56639272
-1.6284554 -15.077675 -0.56744689
-2.0984664 -19.429451 -0.56862622
-2.9464924 -27.281221 -0.57021958
-4.948916 -45.821426 -0.57459009
-0.20052208 -2.097928 -0.56469923
-0.20787501 -2.1748569 -0.56598747
-0.21469791 -2.2462404 -0.56459457
-0.22236478 -2.3264539 -0.56415915
-0.23057722 -2.412375 -0.56372255
-0.23860356 -2.4963493 -0.56141776
-0.24975173 -2.6129851 -0.56478155
-0.25941259 -2.7140601 -0.56296152
-0.27066931 -2.8318317 -0.56278104
-0.28369361 -2.968096 -0.56415266
-0.2973167 -3.1106255 -0.56438494
-0.31267992 -3.2713606 -0.56538653
-0.32871285 -3.4391022 -0.56485593
-0.34559047 -3.6156816 -0.56290543
-0.3669731 -3.8393936 -0.56495059
-0.38786021 -4.0579214 -0.56254101
-0.41357297 -4.3269367 -0.56306201
-0.4443979 -4.6494374 -0.56560105
-0.47649881 -4.9852877 -0.56426615
-0.51518828 -5.39007 -0.56455076
-0.56035793 -5.8626494 -0.5646109
-0.61489135 -6.4331961 -0.56539601
-0.67895985 -7.1035023 -0.56458861
-0.76177037 -7.9698925 -0.56653523
-0.86243314 -9.0230598 -0.56573141
-0.99622965 -10.422883 -0.5661822
-1.178346 -12.328245 -0.56649858
-1.4420414 -15.087113 -0.56709188
-1.8564147 -19.422422 -0.56770951
-2.6071718 -27.277092 -0.5694201
-4.3758936 -45.782043 -0.57337815
-0.17484191 -2.1017997 -0.56511986
-0.17996445 -2.1633785 -0.56238186
-0.18777294 -2.2572455 -0.56673747
-0.19323537 -2.3229101 -0.56268108
-0.20041962 -2.4092729 -0.56237924
-0.20914605 -2.5141747 -0.56480557
-0.21656974 -2.6034157 -0.56209511
-0.22577745 -2.7141032 -0.56235206
-0.2355781 -2.8319182 -0.56218004
-0.24671364 -2.96578 -0.56309325
-0.25849241 -3.1073744 -0.5631758
-0.27271143 -3.2783034 -0.5659641
-0.28623369 -3.4408565 -0.56452328
-0.30201 -3.6305058 -0.56459248
-0.31937185 -3.839215 -0.56430376
-0.33812293 -4.0646243 -0.56285125
-0.36040571 -4.3324885 -0.56316513
-0.38631076 -4.6438971 -0.5643065
-0.41438904 -4.9814301 -0.56321019
-0.44917783 -5.399631 -0.56493098
-0.48867396 -5.8744197 -0.56512302
-0.53486294 -6.4296641 -0.56446487
-0.59237647 -7.1210427 -0.56536102
-0.66193682 -7.9572377 -0.56501436
-0.75048423 -9.0216789 -0.56502354
-0.86662006 -10.417765 -0.56528252
-1.0249609 -12.321202 -0.56555301
-1.2542548 -15.077578 -0.56611097
-1.6166813 -19.434359 -0.56743443
-2.2682595 -27.267073 -0.56858569
-3.8040042 -45.728477 -0.57207823
-0.14861006 -2.0984831 -0.56369418
-0.15377203 -2.1713738 -0.56392616
-0.15940976 -2.2509828 -0.56463027
-0.1641141 -2.3174117 -0.56081796
-0.1710314 -2.4150889 -0.56320333
-0.17791086 -2.5122318 -0.56383502
-0.1847695 -2.6090808 -0.56278515
-0.19287008 -2.7234671 -0.56375825
-0.20040868 -2.8299177 -0.56125122
-0.21106713 -2.9804225 -0.56533784
-0.22066116 -3.1158974 -0.5641861
-0.23170763 -3.2718818 -0.56432098
-0.24366759 -3.4407651 -0.56397408
-0.25853977 -3.6507709 -0.56720674
-0.2728124 -3.8523109 -0.56569284
-0.28948113 -4.0876856 -0.56550902
-0.30714709 -4.337142 -0.56323653
-0.32957059 -4.6537786 -0.5649721
-0.35439566 -5.0043268 -0.56526351
-0.38250825 -5.4012971 -0.56457049
-0.41691732 -5.8871784 -0.5658145
-0.45668599 -6.4487414 -0.56560391
-0.50371528 -7.1128292 -0.56417453
-0.5635187 -7.9572973 -0.56448388
-0.63924313 -9.0265827 -0.56479561
-0.73921621 -10.438275 -0.5658595
-0.87357926 -12.33558 -0.56567717
-1.0688814 -15.09339 -0.56616837
-1.3761029 -19.431583 -0.56681651
-1.9313201 -27.271656 -0.56814313
-3.2356555 -45.689827 -0.5710538
-0.12345282 -2.1113706 -0.56670541
-0.12731156 -2.1773653 -0.5650329
-0.1306614 -2.2346566 -0.56008965
-0.13598101 -2.3256359 -0.56236106
-0.14141174 -2.4185159 -0.56355441
-0.1472102 -2.5176847 -0.56460989
-0.15382612 -2.6308346 -0.56702662
-0.15957241 -2.7291114 -0.56447774
-0.16652651 -2.8480449 -0.56439757
-0.17459111 -2.985971 -0.56594026
-0.18155569 -3.1050837 -0.56178141
-0.1909443 -3.2656541 -0.56279933
-0.20076697 -3.4336476 -0.56236035
-0.21290141 -3.6411786 -0.56526697
-0.22504443 -3.8488564 -0.56473649
-0.23896803 -4.086987 -0.56496316
-0.25501657 -4.3614597 -0.56594449
-0.27270788 -4.6640282 -0.56576651
-0.29229364 -4.9989963 -0.5642128
-0.31632876 -5.4100609 -0.56503725
-0.34339154 -5.8729062 -0.56399429
-0.37680846 -6.4444242 -0.56477618
-0.41721788 -7.1355324 -0.56552565
-0.46606711 -7.9709835 -0.56500554
-0.5290767 -9.0486145 -0.56572437
-0.60980237 -10.429237 -0.56492037
-0.72133142 -12.33668 -0.56527811
-0.88258559 -15.094555 -0.56576216
-1.1360922 -19.430191 -0.56632555
-1.5940481 -27.262451 -0.56750011
-2.6688454 -45.644337 -0.57003194
-0.097019255 -2.1026773 -0.56400925
-0.10040994 -2.176163 -0.56435782
-0.10398304 -2.253602 -0.56447494
-0.10738306 -2.3272901 -0.56239921
-0.11188211 -2.4247968 -0.56465471
-0.11612664 -2.5167878 -0.56404585
-0.12075012 -2.6169913 -0.56368035
-0.12569042 -2.7240615 -0.56307101
-0.13190167 -2.8586762 -0.56614017
-0.13779891 -2.9864862 -0.56567401
-0.14427964 -3.1269414 -0.56537223
-0.15059409 -3.2637932 -0.56211698
-0.15910839 -3.4483218 -0.56440055
-0.16729534 -3.6257558 -0.56251079
-0.177562 -3.8482628 -0.56428635
-0.18900634 -4.0962939 -0.5658856
-0.20052947 -4.3460321 -0.56358004
-0.21413271 -4.640852 -0.56259322
-0.23083547 -5.0028472 -0.56428438
-0.2502352 -5.4232936 -0.56605512
-0.27153173 -5.8848486 -0.56477779
-0.29747221 -6.4470506 -0.56464309
-0.32859278 -7.1215205 -0.56405222
-0.36729383 -7.9602804 -0.56388408
-0.4172745 -9.0434999 -0.56504112
-0.48117927 -10.428494 -0.56451696
-0.56950647 -12.342791 -0.56519449
-0.69648433 -15.094754 -0.56540591
-0.89707935 -19.442207 -0.56631148
-1.2579321 -27.262892 -0.56714439
-2.1021104 -45.558586 -0.56859529
-0.070685856 -2.0897422 -0.56026411
-0.07362745 -2.176707 -0.5642215
-0.076669946 -2.2666545 -0.56746531
-0.079001278 -2.3355777 -0.56412458
-0.081984073 -2.4237604 -0.56413597
-0.085316695 -2.5222855 -0.56500012
-0.088507771 -2.6166255 -0.56332457
-0.092669599 -2.739665 -0.56601799
-0.096425839 -2.850714 -0.56428581
-0.10081669 -2.9805241 -0.56426722
-0.10569136 -3.1246378 -0.56467801
-0.11064189 -3.2709942 -0.56308031
-0.11654596 -3.4455411 -0.56366825
-0.12286729 -3.6324236 -0.56326824
-0.13017526 -3.8484747 -0.56404012
-0.13820407 -4.0858369 -0.56416363
-0.1470838 -4.3483558 -0.56360424
-0.15747215 -4.6554747 -0.56408846
-0.16954027 -5.0122538 -0.56506753
-0.18274844 -5.4027376 -0.56363249
-0.19913986 -5.8873305 -0.56473827
-0.21769696 -6.4359488 -0.56339371
-0.24130212 -7.1338067 -0.56474763
-0.26990604 -7.9794474 -0.564964
-0.30549288 -9.0315285 -0.56401581
-0.35298285 -10.435513 -0.56461918
-0.41716471 -12.332973 -0.56446737
-0.51035649 -15.088076 -0.56487799
-0.65752691 -19.438992 -0.56593949
-0.92103922 -27.229416 -0.56616962
-1.5392475 -45.506001 -0.5676598
-0.045328058 -2.1063485 -0.56452417
-0.046769723 -2.173341 -0.56315738
-0.048349131 -2.2467346 -0.56228691
-0.050112572 -2.3286798 -0.56226718
-0.051959608 -2.4145098 -0.56179166
-0.053949784 -2.5069911 -0.56138319
-0.056495026 -2.6252658 -0.56499243
-0.058740746 -2.7296224 -0.56375134
-0.061236303 -2.8455884 -0.5630796
-0.063956089 -2.9719739 -0.56245714
-0.067179494 -3.1217623 -0.56396645
-0.070439093 -3.2732325 -0.56327397
-0.074397467 -3.4571741 -0.5653789
-0.078254558 -3.6364093 -0.56369448
-0.082706265 -3.8432753 -0.56308645
-0.087921001 -4.0855989 -0.56393886
-0.093781143 -4.357914 -0.56465089
-0.10015333 -4.6540232 -0.56372076
-0.10753089 -4.9968505 -0.56313932
-0.11626799 -5.4028549 -0.5634529
-0.1267136 -5.8882513 -0.5646345
-0.13830298 -6.4267983 -0.56240129
-0.15307498 -7.1132379 -0.56292778
-0.17165132 -7.9764609 -0.56456041
-0.19445264 -9.0360155 -0.56410402
-0.22474863 -10.443839 -0.56487745
-0.26537335 -12.331628 -0.56421381
-0.32454011 -15.081046 -0.56442273
-0.41772196 -19.411112 -0.56493556
-0.58562481 -27.213385 -0.56564385
-0.97762799 -45.429375 -0.56651115
-0.019331571 -2.0965126 -0.56178182
-0.020207968 -2.1915579 -0.56777042
-0.020717258 -2.2467906 -0.56219465
-0.021452736 -2.3265533 -0.56164759
-0.02244686 -2.4343662 -0.56630468
-0.023302032 -2.5271099 -0.5657813
-0.024113918 -2.6151588 -0.56271094
-0.025089554 -2.7209671 -0.56185752
-0.0262425 -2.846004 -0.56305546
-0.027503347 -2.9827433 -0.56438857
-0.028871126 -3.1310792 -0.5655427
-0.030337209 -3.2900763 -0.56606549
-0.031734321 -3.4415934 -0.56272453
-0.033662796 -3.6507366 -0.56580848
-0.035589281 -3.8596644 -0.56538075
-0.037597127 -4.0774155 -0.56270295
-0.040104833 -4.3493767 -0.5634383
-0.042998064 -4.6631479 -0.56471932
-0.046175167 -5.0077057 -0.56425607
-0.049897987 -5.4114461 -0.56424224
-0.054346651 -5.8939042 -0.56506979
-0.059478659 -6.4504719 -0.56436634
-0.06571582 -7.126893 -0.56390184
-0.073563062 -7.9779282 -0.56455761
-0.083260864 -9.0296564 -0.56360048
-0.096411131 -10.455805 -0.56541783
-0.11371415 -12.332321 -0.56413889
-0.13899492 -15.074026 -0.56405342
-0.17885007 -19.396324 -0.56439853
-0.25060603 -27.17827 -0.56480724
-0.41800836 -45.333084 -0.56520361
0.0064585493 -2.1001368 -0.56273174
0.0066759516 -2.1708298 -0.56237912
0.0069061392 -2.2456803 -0.56189561
0.0072010178 -2.3415666 -0.56525052
0.0074853753 -2.4340315 -0.56620544
0.007774685 -2.5281069 -0.56598318
0.0080182115 -2.6072946 -0.56099755
0.0083985329 -2.7309644 -0.56390059
0.0087852357 -2.856709 -0.56515199
0.0091448231 -2.9736369 -0.56264424
0.0096542835 -3.1392987 -0.56700593
0.010085235 -3.2794323 -0.56421286
0.010595041 -3.4452066 -0.56329405
0.011153406 -3.6267707 -0.56207287
0.011830029 -3.8467896 -0.56347352
0.012564573 -4.0856423 -0.56381696
0.01337397 -4.3488355 -0.56334686
0.014331761 -4.6602817 -0.56435084
0.015428312 -5.016849 -0.56526494
0.01661893 -5.4040041 -0.56344497
0.018124862 -5.8936901 -0.56502789
0.01981993 -6.4448786 -0.56385565
0.021920294 -7.1278567 -0.5639568
0.024504542 -7.9681811 -0.56384653
0.027768876 -9.0296497 -0.56357878
0.032060217 -10.425072 -0.56373453
0.037906006 -12.325957 -0.56382644
0.046314582 -15.060186 -0.56351423
0.059608772 -19.38308 -0.56399184
0.083466806 -27.141035 -0.56401205
0.13920484 -45.265461 -0.56433916
0.03215633 -2.0918288 -0.56056923
0.033345371 -2.1691782 -0.562015
0.034748469 -2.2604523 -0.56565589
0.035862308 -2.3329098 -0.56322467
0.037112664 -2.4142478 -0.56166703
0.038684607 -2.5165055 -0.56344974
0.040216066 -2.6161296 -0.56296241
0.042000975 -2.7322414 -0.56422824
0.043805826 -2.8496504 -0.56381947
0.045546245 -2.9628677 -0.5606702
0.047829017 -3.1113665 -0.56202465
0.050170686 -3.2636962 -0.56156921
0.052985027 -3.4467745 -0.56361431
0.055955995 -3.6400414 -0.56419355
0.059004419 -3.838347 -0.56230062
0.06281469 -4.0862122 -0.56395954
0.066780798 -4.3442149 -0.56281209
0.07151489 -4.6521764 -0.56343323
0.077079147 -5.0141416 -0.56502396
0.083094098 -5.4054251 -0.5636571
0.090439565 -5.8832617 -0.5640921
0.099006712 -6.4405704 -0.5635426
0.10941824 -7.1178598 -0.56322968
0.12222689 -7.9510865 -0.56270069
0.13871929 -9.0239477 -0.56328678
0.16008931 -10.414107 -0.56320554
0.18929181 -12.313784 -0.56333351
0.23141457 -15.053947 -0.56334466
0.29789376 -19.378542 -0.56392378
0.41674986 -27.110353 -0.56343836
0.69431049 -45.166187 -0.56316531
0.058482207 -2.1132505 -0.56645966
0.060510259 -2.1865339 -0.5666616
0.062144708 -2.2455947 -0.56208664
0.064426444 -2.3280449 -0.56219894
0.067034528 -2.4222879 -0.56368673
0.069658935 -2.5171208 -0.56373668
0.072192304 -2.6086638 -0.56150436
0.075373285 -2.7236083 -0.56259435
0.079192013 -2.8615978 -0.56633323
0.082381591 -2.9768529 -0.56346577
0.086089745 -3.1108468 -0.56207955
0.090810709 -3.2814386 -0.56477153
0.095375292 -3.4463797 -0.56369889
0.10095623 -3.6480463 -0.56558394
0.10647476 -3.8474584 -0.5637846
0.11263484 -4.0700521 -0.56187791
0.12025739 -4.3454924 -0.56312662
0.12845933 -4.6418691 -0.5623337
0.1382845 -4.9969006 -0.56323022
0.14965986 -5.4079485 -0.56406945
0.16292562 -5.8873057 -0.56462926
0.17790365 -6.4285359 -0.56263852
0.197137 -7.1235313 -0.56382769
0.2203632 -7.9628086 -0.5636794
0.2492421 -9.0063457 -0.5623368
0.2879779 -10.406061 -0.56291932
0.34067366 -12.310219 -0.5633195
0.41638243 -15.045951 -0.56319445
0.53502107 -19.332949 -0.56274593
0.74892694 -27.062424 -0.56259114
1.2472041 -45.067635 -0.56208527
0.08406058 -2.1023486 -0.56377184
0.086735748 -2.1692543 -0.56241733
0.089971736 -2.2501862 -0.56347024
0.093462773 -2.3374965 -0.56471628
0.097088777 -2.4281828 -0.56529355
0.10111828 -2.5289605 -0.56662399
0.10469542 -2.6184242 -0.56383973
0.10829791 -2.7085223 -0.55971086
0.11405449 -2.852494 -0.56476635
0.11902335 -2.9767649 -0.56368351
0.12498122 -3.1257706 -0.56501096
0.1310242 -3.2769048 -0.56422585
0.13783233 -3.4471757 -0.56406367
0.14483023 -3.6221929 -0.5618093
0.15369272 -3.843843 -0.56348914
0.16286117 -4.0731449 -0.5625388
0.17381373 -4.3470678 -0.56356514
0.18588674 -4.6490126 -0.56343341
0.19992925 -5.0002151 -0.5638383
0.21564448 -5.3932519 -0.56277061
0.23483105 -5.873106 -0.56350172
0.25684056 -6.4235625 -0.56243712
0.28413761 -7.1062593 -0.56269461
0.31803054 -7.9539194 -0.5632844
0.36071429 -9.0214367 -0.5635134
0.41684911 -10.425364 -0.56419814
0.49153465 -12.293243 -0.56277668
0.60073018 -15.024215 -0.5626148
0.77246833 -19.319372 -0.5625847
1.0803596 -27.019709 -0.5619368
1.7971003 -44.945339 -0.56079322
0.11041921 -2.111011 -0.56641608
0.11424255 -2.1841061 -0.5665893
0.11758831 -2.2480707 -0.56326002
0.12182277 -2.329026 -0.56298918
0.12657653 -2.419909 -0.56368709
0.13165428 -2.5169859 -0.56426108
0.13671912 -2.6138167 -0.56316704
0.1428377 -2.7307925 -0.56463331
0.14883827 -2.8455119 -0.56370372
0.15566495 -2.9760258 -0.56386334
0.1627904 -3.112251 -0.56288648
0.1714409 -3.2776325 -0.56467146
0.17923476 -3.4266369 -0.56102109
0.19076654 -3.6471033 -0.56599402
0.20103507 -3.8434184 -0.56374669
0.21365826 -4.0847507 -0.56446183
0.22704531 -4.3406863 -0.56305724
0.24225751 -4.631515 -0.56163138
0.26129609 -4.9954977 -0.56362599
0.28216234 -5.3944216 -0.56321216
0.30712363 -5.8716354 -0.56368035
0.33637103 -6.4307914 -0.56338966
0.37148798 -7.1021624 -0.56268936
0.41525075 -7.9388256 -0.56253457
0.47129539 -9.0102959 -0.56313694
0.54400486 -10.400366 -0.56316471
0.64247417 -12.282917 -0.56262314
0.78536624 -15.014749 -0.56257945
1.0092551 -19.295088 -0.56219637
1.4104607 -26.965397 -0.56112558
2.344888 -44.829918 -0.55967051
0.13577561 -2.1003473 -0.56396013
0.14128982 -2.1856475 -0.567397
0.14599368 -2.2584131 -0.56625825
0.15154739 -2.3443246 -0.56709486
0.15652008 -2.4212487 -0.56440485
0.16237956 -2.5118904 -0.56352377
0.16897264 -2.6138802 -0.56358576
0.17643417 -2.7293046 -0.56473154
0.18417983 -2.849124 -0.56482524
0.19266517 -2.980386 -0.56509566
0.20165306 -3.119422 -0.5645892
0.21175683 -3.2757196 -0.56474781
0.22302005 -3.4499533 -0.56524479
0.23450528 -3.6276214 -0.56337553
0.2480808 -3.8376243 -0.56330168
0.26294273 -4.0675273 -0.56248605
0.28093323 -4.3458266 -0.56412947
0.30029517 -4.6453419 -0.56371319
0.32232782 -4.9861703 -0.56297827
0.34845021 -5.390264 -0.56318283
0.37952226 -5.8709254 -0.56401759
0.41460338 -6.4136043 -0.56228805
0.45922053 -7.1037979 -0.56322372
0.51303786 -7.9363122 -0.56276095
0.58167243 -8.9980373 -0.56277525
0.67182082 -10.392565 -0.56314707
0.79326665 -12.271241 -0.56249255
0.96889257 -14.988044 -0.56198275
1.24492 -19.257982 -0.56151879
1.7401087 -26.918179 -0.56054586
2.8901734 -44.70882 -0.55856013
0.1625036 -2.1103802 -0.56714779
0.1668634 -2.1669993 -0.56304598
0.17309974 -2.2479889 -0.56413567
0.17931899 -2.3287561 -0.56381959
0.18600789 -2.4156225 -0.56358391
0.19282635 -2.5041716 -0.56228155
0.20018293 -2.599709 -0.56101865
0.20985582 -2.7253277 -0.5643999
0.21852273 -2.837882 -0.56308669
0.22855085 -2.9681139 -0.56325912
0.23996828 -3.1163883 -0.56453156
0.25144327 -3.2654102 -0.56346083
0.2655386 -3.4484618 -0.56549263
0.2789917 -3.6231723 -0.56317478
0.29461342 -3.8260467 -0.56209153
0.31371334 -4.074091 -0.56388456
0.33407283 -4.3384929 -0.56366813
0.35679361 -4.6335602 -0.56277335
0.38407671 -4.9878764 -0.56366152
0.41457066 -5.3838911 -0.56300706
0.45119756 -5.8595529 -0.56341541
0.49418801 -6.4178553 -0.56315088
0.54685217 -7.1017876 -0.56355488
0.61018682 -7.9242935 -0.5623982
0.69123083 -8.9767857 -0.56193519
0.7979632 -10.362883 -0.56202787
0.94261849 -12.241473 -0.5616169
1.1522068 -14.963326 -0.56154472
1.4807949 -19.230591 -0.56120867
2.0697401 -26.879026 -0.56021821
3.4338236 -44.593925 -0.55761009
0.18720458 -2.0944059 -0.56343079
0.19263971 -2.1552129 -0.56055659
0.19918552 -2.228446 -0.55980366
0.20860654 -2.3338463 -0.56563026
0.21584767 -2.4148586 -0.56398231
0.22389334 -2.5048721 -0.56301445
0.23253602 -2.6015644 -0.56199354
0.24248762 -2.7129009 -0.56240135
0.25383964 -2.8399045 -0.56406468
0.26468647 -2.961257 -0.56253296
0.27840361 -3.1147215 -0.56480706
0.2913622 -3.2596993 -0.5630511
0.30566803 -3.41975 -0.56135827
0.32246128 -3.6076291 -0.5613327
0.34167248 -3.8225603 -0.56215405
0.36260235 -4.0567193 -0.56205481
0.38734597 -4.3335457 -0.56360155
0.41270524 -4.61726 -0.56136751
0.4446997 -4.9752073 -0.56280524
0.48044556 -5.3751245 -0.56266552
0.52124822 -5.8316159 -0.56130308
0.57277006 -6.4080319 -0.56286436
0.63277024 -7.0793014 -0.56234545
0.70685822 -7.9081817 -0.56182915
0.80283749 -8.9819775 -0.56283569
0.92570692 -10.356616 -0.56226283
1.0937334 -12.23646 -0.56196147
1.3362292 -14.949452 -0.5615983
1.7144874 -19.181326 -0.56034386
2.3963108 -26.809423 -0.55933934
3.973191 -44.451229 -0.55639464
0.21283671 -2.0909085 -0.56315142
0.22038248 -2.1650381 -0.56377435
0.22761688 -2.2361088 -0.56238925
0.23766968 -2.3348675 -0.56654322
0.24533793 -2.4102006 -0.56355637
0.25397679 -2.4950688 -0.56147051
0.26322696 -2.5859425 -0.55927581
0.27639449 -2.7153001 -0.56356072
0.28959802 -2.8450117 -0.56574363
0.30286801 -2.9753764 -0.56587982
0.31605285 -3.1049042 -0.56368893
0.3330265 -3.2716532 -0.56578046
0.34756607 -3.4144902 -0.56115401
0.36724624 -3.6078281 -0.56202382
0.38883966 -3.8199618 -0.56243253
0.41288605 -4.0561938 -0.56264287
0.4396989 -4.3196034 -0.56244898
0.47007594 -4.6180272 -0.56212109
0.50572371 -4.9682317 -0.56267703
0.54575247 -5.3614736 -0.56189656
0.5947873 -5.8431921 -0.5630787
0.65266293 -6.4117622 -0.5638544
0.72063911 -7.0795608 -0.56302738
0.80303079 -7.8889766 -0.56112385
0.91336334 -8.9728842 -0.56292707
1.0526558 -10.341293 -0.56209123
1.2434173 -12.215335 -0.56165099
1.5182605 -14.915396 -0.56097782
1.9483348 -19.140446 -0.55980718
2.722127 -26.742184 -0.55859262
4.5100803 -44.307041 -0.555242
0.23854174 -2.0882409 -0.56318039
0.24477389 -2.1427984 -0.55872458
0.25762331 -2.2552848 -0.56796587
0.26303953 -2.3026993 -0.55948031
0.27561626 -2.4127984 -0.56491351
0.28520048 -2.4967005 -0.56258434
0.29754561 -2.6047721 -0.56409687
0.31041151 -2.7174027 -0.56474662
0.32234415 -2.8218634 -0.56188619
0.33755711 -2.9550405 -0.5627591
0.35451069 -3.1034555 -0.56417471
0.3693209 -3.2331071 -0.55985755
0.38924533 -3.4075296 -0.5607543
0.41257051 -3.6117225 -0.56337816
0.43653682 -3.8215284 -0.56341094
0.4632706 -4.0555611 -0.56330276
0.49222654 -4.3090467 -0.56182003
0.52613193 -4.6058612 -0.56138527
0.56576872 -4.9528494 -0.56168038
0.61394489 -5.3745933 -0.5640201
0.66497833 -5.8213496 -0.5617193
0.72943634 -6.3856277 -0.56230235
0.80575663 -7.0537505 -0.56172019
0.9018535 -7.8950009 -0.5622986
1.0203559 -8.932395 -0.56113166
1.1774472 -10.307603 -0.56100452
1.3911031 -12.177988 -0.56067795
1.7001464 -14.883413 -0.5605188
2.1849444 -19.127428 -0.56016988
3.0478039 -26.681068 -0.55805671
5.0454679 -44.169006 -0.5542478
0.26393899 -2.083092 -0.56262451
0.2745434 -2.1667852 -0.56581658
0.28316042 -2.2347934 -0.56363964
0.29456195 -2.3247783 -0.56568205
0.30436137 -2.4021184 -0.56324667
0.31615257 -2.4951782 -0.56307477
0.33018571 -2.6059325 -0.56518471
0.34256434 -2.7036288 -0.5627169
0.35848638 -2.8292904 -0.5642001
0.37467694 -2.9570718 -0.56398064
0.3926324 -3.0987818 -0.56416011
0.41071004 -3.2414565 -0.56213534
0.43212306 -3.4104552 -0.56206769
0.45605904 -3.5993655 -0.56228292
0.48182082 -3.8026857 -0.56146401
0.51370049 -4.0542908 -0.56396097
0.54536247 -4.3041773 -0.56201696
0.58336061 -4.6040707 -0.56199884
0.62843579 -4.9598188 -0.56330448
0.67736125 -5.3459544 -0.56184626
0.73777711 -5.8227758 -0.56268984
0.80982357 -6.3913894 -0.56364399
0.89298201 -7.0477028 -0.56207055
0.99647301 -7.8644872 -0.56095564
1.1315907 -8.9308796 -0.56186807
1.3057996 -10.305793 -0.56173748
1.541309 -12.164509 -0.56088752
1.8812943 -14.847783 -0.56000584
2.4143665 -19.054962 -0.55887479
3.3708272 -26.603659 -0.55726242
5.5767202 -44.013279 -0.55311239
0.28846887 -2.0720544 -0.56055909
0.30022982 -2.1565325 -0.56406063
0.31036034 -2.2292995 -0.56317389
0.32010427 -2.2992895 -0.56039536
0.33429629 -2.4012299 -0.5639596
0.34640184 -2.4881833 -0.56241494
0.35940018 -2.5815496 -0.56081259
0.37580714 -2.6993999 -0.562756
0.39119133 -2.8099036 -0.56125093
0.40881658 -2.9365046 -0.56097442
0.43110058 -3.0965693 -0.56467968
0.45137382 -3.2421908 -0.56318265
0.4742083 -3.4062092 -0.56228644
0.49986431 -3.5904949 -0.5618149
0.52867663 -3.7974522 -0.56160867
0.56154829 -4.0335674 -0.56199634
0.59836692 -4.2980332 -0.56213295
0.64024848 -4.598866 -0.56228197
0.68869853 -4.9468794 -0.56275421
0.74149734 -5.3261304 -0.56067866
0.80635124 -5.7919717 -0.56062883
0.88671392 -6.3692122 -0.56260723
0.98042184 -7.0423107 -0.56255949
1.0933399 -7.853394 -0.56108093
1.2396468 -8.9043074 -0.56111294
1.4331419 -10.294171 -0.56202209
1.6887199 -12.129972 -0.56021017
2.0615671 -14.808111 -0.55942339
2.647774 -19.018799 -0.55872685
3.6935492 -26.530539 -0.55664009
6.105938 -43.858582 -0.55207008
0.31585893 -2.081099 -0.56401402
0.32491457 -2.1407638 -0.56093878
0.33710513 -2.2210836 -0.56210303
0.34946769 -2.3025367 -0.56219167
0.36279017 -2.3903146 -0.56240118
0.37922296 -2.4985852 -0.56577742
0.39131886 -2.5782814 -0.56110549
0.41126353 -2.7096908 -0.5659129
0.42677039 -2.8118608 -0.56264752
0.44736472 -2.9475508 -0.56409281
0.46657988 -3.0741537 -0.5615958
0.49136204 -3.2374356 -0.56336361
0.51598758 -3.3996861 -0.56221449
0.54502088 -3.5909777 -0.56289655
0.57623202 -3.7966185 -0.56249076
0.61172295 -4.030457 -0.56256855
0.6529268 -4.3019371 -0.56365103
0.69875878 -4.60391 -0.56390661
0.74719477 -4.9230404 -0.56104505
0.80953914 -5.3338084 -0.56249231
0.88042504 -5.8008542 -0.56249392
0.96264577 -6.3425817 -0.56125808
1.0646181 -7.0144463 -0.56133687
1.1889791 -7.8338237 -0.56068486
1.3519504 -8.9075918 -0.562325
1.555176 -10.246584 -0.5604257
1.8390641 -12.117037 -0.56061482
2.2426903 -14.776407 -0.5592252
2.8798363 -18.974371 -0.5584197
4.012589 -26.437733 -0.55568612
6.6306381 -43.687267 -0.55089837
0.34109214 -2.0750432 -0.56346691
0.35145792 -2.1381037 -0.56133175
0.36686724 -2.2318468 -0.5659259
0.37862012 -2.3033459 -0.56348336
0.39246789 -2.387589 -0.56285286
0.40647152 -2.4727805 -0.56102359
0.42543226 -2.5881288 -0.56434435
0.44116613 -2.6838462 -0.56160581
0.4611291 -2.8052914 -0.56242508
0.4832468 -2.9398451 -0.56371278
0.50691968 -3.0838597 -0.56446499
0.53076345 -3.2289138 -0.56297386
0.55662614 -3.3862503 -0.56108207
0.58804649 -3.5773969 -0.56185871
0.61950743 -3.7687902 -0.55945414
0.65979892 -4.013905 -0.5613482
0.70501453 -4.2889752 -0.56304598
0.7538619 -4.5861397 -0.56282288
0.80939853 -4.9239984 -0.56224597
0.87629229 -5.3309479 -0.56328446
0.94941217 -5.775775 -0.56115174
1.0401007 -6.3274808 -0.56101108
1.1523314 -7.0102391 -0.56209165
1.2836046 -7.8088436 -0.55998433
1.4572465 -8.8651991 -0.56073761
1.6813926 -10.228798 -0.56054133
1.9855063 -12.078881 -0.55993676
2.425662 -14.756581 -0.55956143
3.109683 -18.917841 -0.55783927
4.3344221 -26.368574 -0.55531079
7.1553664 -43.529865 -0.54998142
0.36891305 -2.0838704 -0.56705284
0.37959257 -2.1441956 -0.56411386
0.39174759 -2.2128553 -0.56228924
0.40574288 -2.2919102 -0.56186384
0.42217344 -2.384721 -0.56335795
0.43817845 -2.4751282 -0.56273609
0.45698032 -2.5813339 -0.56404537
0.47604546 -2.6890268 -0.56387216
0.49532178 -2.7979126 -0.56212431
0.52021623 -2.9385333 -0.56464511
0.5440132 -3.0729547 -0.56365079
0.5680716 -3.2088525 -0.5606516
0.60163468 -3.3984399 -0.56428492
0.6344645 -3.5838847 -0.56406033
0.6697315 -3.7830966 -0.56275779
0.71010375 -4.0111465 -0.56214106
0.75631994 -4.2722063 -0.56202304
0.81063473 -4.5790133 -0.56312907
0.86947119 -4.9113612 -0.56198138
0.94011325 -5.3103957 -0.5622918
1.0220119 -5.7730145 -0.56206203
1.1191064 -6.3214703 -0.56165582
1.2388299 -6.9977489 -0.56226909
1.382996 -7.8120971 -0.56139475
1.563655 -8.8325815 -0.55984831
1.8062481 -10.202911 -0.56029749
2.1338902 -12.053656 -0.55994135
2.604666 -14.712915 -0.55907786
3.3387766 -18.859669 -0.55729234
4.6524653 -26.280272 -0.55461401
7.6736288 -43.345848 -0.54880708
0.38909993 -2.0506775 -0.55928022
0.40549731 -2.1370966 -0.56351542
0.41992939 -2.2131584 -0.56363565
0.43816847 -2.309284 -0.56740093
0.45100316 -2.3769269 -0.56278419
0.46591398 -2.4555113 -0.55953634
0.48683548 -2.5657742 -0.56191105
0.50873357 -2.6811838 -0.56349665
0.52794254 -2.7824214 -0.56027389
0.55640298 -2.9324164 -0.56474167
0.58271015 -3.0710635 -0.56457549
0.60953826 -3.2124557 -0.56254822
0.64160872 -3.3814771 -0.56273586
0.67703581 -3.5681889 -0.56285775
0.71701896 -3.7789125 -0.56340432
0.75797701 -3.9947743 -0.56111038
0.81042308 -4.2711811 -0.5631566
0.86635524 -4.5659609 -0.56279147
0.92912829 -4.8967943 -0.56157941
1.0050341 -5.2968421 -0.5621227
1.0919286 -5.7548027 -0.56155366
1.19407 -6.2931199 -0.56039912
1.3212022 -6.9631457 -0.56075174
1.4782608 -7.7908936 -0.56113487
1.6731231 -8.8178787 -0.5601781
1.929517 -10.169154 -0.55970436
2.278579 -12.008819 -0.55911785
2.7795641 -14.649165 -0.55791199
3.5685487 -18.80736 -0.55700123
4.9706883 -26.197071 -0.55410618
8.1935167 -43.182377 -0.54797161
0.41582653 -2.0533519 -0.56136167
0.43077168 -2.127151 -0.5622471
0.44613338 -2.203007 -0.56240499
0.46316594 -2.2871139 -0.56331044
0.48098522 -2.3751054 -0.56371075
0.49831071 -2.4606588 -0.56206304
0.52066064 -2.5710227 -0.56441993
0.54123598 -2.6726236 -0.56305379
0.56321472 -2.7811546 -0.56137097
0.5884918 -2.905973 -0.56100029
0.62040991 -3.0635846 -0.56456035
0.64538729 -3.186923 -0.55942446
0.68144006 -3.3649516 -0.56133777
0.72235769 -3.567003 -0.56402916
0.76004231 -3.7530897 -0.56090534
0.8083235 -3.9915023 -0.56200439
0.86363983 -4.2646542 -0.56365359
0.92310369 -4.5582871 -0.56320208
0.98979568 -4.8876119 -0.56187963
1.0700979 -5.2841444 -0.56212914
1.1656669 -5.7560644 -0.56303287
1.2721053 -6.2816572 -0.56072891
1.4077196 -6.9513206 -0.56115097
1.5711014 -7.7581 -0.56012201
1.7810904 -8.7950258 -0.56007528
2.0544062 -10.14466 -0.5597043
2.4261992 -11.980575 -0.55914956
2.9569774 -14.601558 -0.55744147
3.7937145 -18.733366 -0.5561493
5.2873864 -26.109118 -0.55357915
8.7031946 -42.976383 -0.54667431
0.44361869 -2.0600483 -0.56464106
0.45960054 -2.134264 -0.56557828
0.47400442 -2.2011518 -0.56337672
0.4917503 -2.2835591 -0.56388158
0.50931382 -2.3651195 -0.56278449
0.52862436 -2.4547925 -0.56216532
0.55144006 -2.5607424 -0.563609
0.57486749 -2.6695333 -0.56384927
0.59821755 -2.7779648 -0.56216937
0.62446535 -2.8998528 -0.56125873
0.65190721 -3.0272856 -0.55930609
0.68812227 -3.1954589 -0.56236559
0.72339362 -3.3592494 -0.56182796
0.76285905 -3.5425167 -0.56159812
0.80896181 -3.7566056 -0.56287491
0.85785908 -3.9836719 -0.56234461
0.91299134 -4.2396917 -0.56179565
0.97837764 -4.5433283 -0.56279773
1.0491725 -4.8720813 -0.56153488
1.1349314 -5.2703228 -0.56210089
1.2307045 -5.7150679 -0.56046075
1.3504997 -6.2713656 -0.56125021
1.4900182 -6.9192524 -0.55999899
1.6701332 -7.7556591 -0.56138605
1.8887943 -8.7710638 -0.55998605
2.1783159 -10.115525 -0.5595324
2.5720396 -11.943874 -0.55887055
3.141634 -14.588922 -0.55839169
4.0227122 -18.680416 -0.55600387
5.6013708 -26.011293 -0.55292362
9.2123356 -42.779659 -0.54557163
0.46471974 -2.0360596 -0.55958986
0.48306826 -2.1164491 -0.56238896
0.50267226 -2.2023396 -0.56522006
0.5205937 -2.280858 -0.56475264
0.54195261 -2.3744371 -0.56654453
0.56012565 -2.4540579 -0.56353182
0.58420908 -2.5595739 -0.56489027
0.60399443 -2.6462586 -0.56045961
0.63388228 -2.777205 -0.56355041
0.66079611 -2.8951216 -0.5618732
0.69281447 -3.0354025 -0.56233716
0.72782713 -3.1888022 -0.56272662
0.76704556 -3.3606286 -0.56359345
0.80752486 -3.5379789 -0.56241041
0.85204411 -3.7330296 -0.56086981
0.90329391 -3.9575684 -0.56018537
0.96579951 -4.2314219 -0.562231
1.0316015 -4.5197182 -0.56140196
1.1088583 -4.8582001 -0.56146407
1.2005382 -5.2598739 -0.56251842
1.3043504 -5.7147021 -0.56195527
1.4258883 -6.2471919 -0.56061357
1.5780599 -6.9138961 -0.56109351
1.7579578 -7.702076 -0.55902994
1.9985313 -8.7560921 -0.56055677
2.3015416 -10.083659 -0.55929291
2.7149773 -11.89503 -0.55810499
3.3135333 -14.517462 -0.55717397
4.2475567 -18.609663 -0.55541056
5.9116302 -25.90041 -0.55207002
9.7199965 -42.585865 -0.5445832
0.48902699 -2.0273225 -0.55879909
0.51064348 -2.1169364 -0.56414431
0.52630043 -2.1818442 -0.56157851
0.54807878 -2.2721291 -0.56421739
0.56490123 -2.3418689 -0.56038874
0.59054041 -2.448159 -0.56380212
0.61481029 -2.5487731 -0.56413233
0.63970804 -2.6519897 -0.56329691
0.6665675 -2.763339 -0.56235737
0.69648826 -2.8873792 -0.5619902
0.73093164 -3.0301685 -0.56299007
0.76517433 -3.1721261 -0.56140172
0.80774301 -3.3485997 -0.56319928
0.85142905 -3.5297055 -0.56271696
0.89861691 -3.7253289 -0.56133056
0.95629025 -3.964421 -0.56277728
1.0167086 -4.2148929 -0.56165344
1.087949 -4.5102291 -0.56184256
1.1694238 -4.8479924 -0.56190377
1.259778 -5.2225676 -0.56014299
1.3741401 -5.6966701 -0.5618012
1.5030651 -6.2311444 -0.5607897
1.6611645 -6.8865652 -0.56049085
1.8558723 -7.6937509 -0.5600397
2.1002474 -8.7068386 -0.55901468
2.4257812 -10.05638 -0.55939204
2.8617373 -11.863689 -0.55824339
3.4885852 -14.462366 -0.55666369
4.4697824 -18.530041 -0.55463266
6.2235112 -25.800344 -0.55152667
10.222119 -42.377075 -0.54347956
0.52090681 -2.048646 -0.56639922
0.53676337 -2.1110075 -0.56428051
0.55312312 -2.175348 -0.56161457
0.5768128 -2.2685156 -0.56503868
0.59572244 -2.3428843 -0.56234211
0.61860549 -2.4328799 -0.5619927
0.64502847 -2.5367975 -0.56319469
0.66796732 -2.6270123 -0.55969387
0.7029556 -2.7646158 -0.56433368
0.73182845 -2.8781683 -0.56190652
0.76863641 -3.0229285 -0.56335837
0.80588937 -3.1694386 -0.56263739
0.84679538 -3.3303156 -0.5618329
0.89596969 -3.5237105 -0.56347501
0.94294119 -3.7084422 -0.56049085
1.0018798 -3.9402387 -0.56105083
1.0706015 -4.2105103 -0.56278116
1.1414464 -4.4891324 -0.5609206
1.229332 -4.8347731 -0.56208116
1.3236212 -5.2055979 -0.56002623
1.4426932 -5.6738896 -0.56126171
1.5804255 -6.2155695 -0.56109452
1.745505 -6.8648019 -0.56042403
1.9519206 -7.6766028 -0.56049621
2.2101872 -8.6923256 -0.55978543
2.5459514 -10.012834 -0.55866891
3.0034335 -11.81204 -0.55750871
3.6618376 -14.401442 -0.55600977
4.6957273 -18.467571 -0.5544492
6.5298076 -25.680725 -0.55064434
10.724872 -42.179268 -0.542593
0.54196709 -2.0267925 -0.56215733
0.56208408 -2.1020241 -0.56368417
0.57892466 -2.1650028 -0.56073922
0.60089868 -2.247179 -0.56152213
0.62363613 -2.3322101 -0.56157821
0.64689386 -2.4191871 -0.56062472
0.67270005 -2.5156944 -0.56030369
0.70554298 -2.6385171 -0.56395072
0.73232746 -2.7386827 -0.56083578
0.76366794 -2.8558867 -0.55934745
0.80516118 -3.011059 -0.56294888
0.84814191 -3.1717939 -0.56486416
0.88982278 -3.3276677 -0.56318951
0.93851912 -3.5097771 -0.56304979
0.99187148 -3.7092986 -0.56242114
1.050774 -3.9295766 -0.56133002
1.117803 -4.1802444 -0.5605306
1.1967578 -4.4755116 -0.56101495
1.286245 -4.8101664 -0.5610168
1.3867267 -5.1859374 -0.55970335
1.5099583 -5.6467867 -0.56037492
1.6579973 -6.200407 -0.56152374
1.8256481 -6.8273706 -0.55915868
2.0467496 -7.654223 -0.56065744
2.3182011 -8.6693697 -0.5601005
2.6706736 -9.9875097 -0.55904603
3.145993 -11.765061 -0.55707508
3.8394701 -14.358456 -0.55613089
4.9160905 -18.384689 -0.55373383
6.8414044 -25.58478 -0.5503493
