# .PCD v0.7 - Point Cloud Data file format
VERSION 0.7
FIELDS x y z
SIZE 4 4 4
TYPE F F F
COUNT 1 1 1
WIDTH 1416
HEIGHT 1
VIEWPOINT 0 0 0 1 0 0 0
POINTS 1416
DATA ascii
-6.770853 -6.3083301 -0.57758868
-7.8414755 -7.3058171 -0.57954204
-9.3194685 -8.682847 -0.58264965
-11.478041 -10.693965 -0.58699429
-14.941433 -13.92077 -0.59420168
-21.386158 -19.925251 -0.60741615
-37.623363 -35.053276 -0.64109504
-1.5310987 -1.4620854 -0.5672645
-1.5839245 -1.5125301 -0.56737012
-1.6300372 -1.5565643 -0.56394118
-1.7089862 -1.6319548 -0.57042903
-1.7655709 -1.6859889 -0.56788659
-1.8392439 -1.7563411 -0.56934565
-1.9072099 -1.8212435 -0.56741124
-1.9827545 -1.8933831 -0.56608814
-2.0737906 -1.9803158 -0.56727386
-2.1653345 -2.0677333 -0.56649953
-2.2866344 -2.1835659 -0.57105809
-2.3891716 -2.2814813 -0.5683558
-2.5140357 -2.4007173 -0.56835532
-2.6421287 -2.5230365 -0.56618077
-2.8096702 -2.6830261 -0.56906122
-2.9894965 -2.8547468 -0.57043272
-3.1808836 -3.0375073 -0.56974339
-3.3996198 -3.2463841 -0.56924075
-3.6659706 -3.5007293 -0.57113475
-3.969044 -3.7901418 -0.57220328
-4.3204746 -4.1257319 -0.57272035
-4.7457209 -4.5318108 -0.57409531
-5.2669792 -5.0295734 -0.57620507
-5.8856349 -5.6203437 -0.5758689
-6.695734 -6.3939281 -0.57784384
-7.7600126 -7.4102349 -0.58021188
-9.2156525 -8.8002625 -0.58288044
-11.347674 -10.836185 -0.58709717
-14.764376 -14.098881 -0.59401
-21.132059 -20.179546 -0.60720092
-37.133385 -35.459621 -0.64012736
-1.5186105 -1.4862859 -0.56936586
-1.5627913 -1.5295265 -0.56649435
-1.6172128 -1.5827894 -0.56619501
-1.6776284 -1.641919 -0.5666585
-1.7500749 -1.7128234 -0.56963366
-1.8226606 -1.7838641 -0.57095915
-1.8875978 -1.8474191 -0.56829196
-1.9545856 -1.912981 -0.56471902
-2.0523291 -2.0086441 -0.56811655
-2.1547766 -2.108911 -0.57047868
-2.2521071 -2.2041695 -0.56916106
-2.3731859 -2.3226712 -0.57130402
-2.4791784 -2.4264076 -0.56717736
-2.6323621 -2.5763309 -0.57083338
-2.7818909 -2.7226768 -0.57017261
-2.9568346 -2.8938966 -0.57094729
-3.1377196 -3.0709314 -0.56873274
-3.3750634 -3.3032231 -0.5718869
-3.6373081 -3.5598857 -0.57344568
-3.9096124 -3.8263938 -0.57037538
-4.2679129 -4.1770673 -0.57251817
-4.6870599 -4.5872931 -0.57377928
-5.185605 -5.0752263 -0.57408673
-5.8174868 -5.6936579 -0.57600772
-6.6046858 -6.4641008 -0.57680243
-7.6685867 -7.5053563 -0.58023262
-9.0998726 -8.9061756 -0.58244014
-11.219854 -10.981033 -0.58742571
-14.583854 -14.273427 -0.59376353
-20.858891 -20.414896 -0.60651892
-36.64447 -35.864471 -0.63925314
-1.4886737 -1.4932628 -0.56498337
-1.5548033 -1.5595962 -0.57050723
-1.6003776 -1.605311 -0.56716901
-1.6575621 -1.6626719 -0.56674361
-1.7253584 -1.7306771 -0.56847256
-1.7885551 -1.7940687 -0.56714326
-1.86325 -1.8689939 -0.56783783
-1.942238 -1.9482254 -0.56803006
-2.020021 -2.0262482 -0.5660274
-2.1153069 -2.1218276 -0.56689376
-2.2201428 -2.2269869 -0.56796062
-2.330585 -2.3377695 -0.56792581
-2.453383 -2.4609458 -0.56815594
-2.5905495 -2.5985353 -0.56865227
-2.7510989 -2.7595797 -0.57077324
-2.9217434 -2.9307501 -0.57108694
-3.104986 -3.1145575 -0.56969821
-3.3279438 -3.338203 -0.57081497
-3.5808678 -3.5919065 -0.57146764
-3.8678288 -3.8797522 -0.57119638
-4.2127995 -4.2257862 -0.57205224
-4.6247101 -4.6389666 -0.57308632
-5.129775 -5.1455889 -0.57486719
-5.7484193 -5.76614 -0.57614595
-6.5345011 -6.5546446 -0.57766825
-7.5681405 -7.5914707 -0.57965171
-8.9800911 -9.0077744 -0.581819
-11.071677 -11.105808 -0.58677328
-14.399563 -14.443953 -0.59344667
-20.588121 -20.651588 -0.60598385
-36.147717 -36.259148 -0.63831705
-1.480386 -1.5219251 -0.56889749
-1.5208411 -1.5635154 -0.56505728
-1.5777873 -1.6220593 -0.56618893
-1.6316289 -1.6774118 -0.56488633
-1.6983372 -1.7459918 -0.56660056
-1.7685561 -1.8181812 -0.56784809
-1.836145 -1.8876666 -0.56660849
-1.9068197 -1.9603243 -0.56467867
-1.9956089 -2.051605 -0.56621313
-2.094317 -2.1530826 -0.56832087
-2.2013383 -2.2631071 -0.57022595
-2.3056161 -2.370311 -0.56890082
-2.4288497 -2.4970024 -0.56954199
-2.553668 -2.6253231 -0.56759977
-2.7055573 -2.7814744 -0.56837773
-2.8848925 -2.9658415 -0.57096916
-3.0765336 -3.1628602 -0.57157052
-3.2861087 -3.3783157 -0.57072145
-3.5394721 -3.6387885 -0.57195884
-3.8230186 -3.9302912 -0.5716728
-4.1546469 -4.2712245 -0.57124436
-4.5685892 -4.6967821 -0.57324535
-5.0748587 -5.2172575 -0.57585883
-5.6654692 -5.82444 -0.57496685
-6.4487839 -6.629734 -0.57725376
-7.4707818 -7.6804094 -0.57938457
-8.8630819 -9.1117764 -0.58145326
-10.929167 -11.235836 -0.58649844
-14.212043 -14.610827 -0.59307796
-20.322632 -20.892878 -0.60568547
-35.626713 -36.626389 -0.63702172
-1.4479941 -1.5257169 -0.56361669
-1.5113155 -1.592437 -0.56875038
-1.5629181 -1.6468096 -0.56807691
-1.6171319 -1.7039334 -0.56707841
-1.6770014 -1.7670164 -0.5666886
-1.7454284 -1.8391163 -0.56764042
-1.8210837 -1.9188325 -0.56919879
-1.8937504 -1.9953996 -0.56803155
-1.9714308 -2.0772495 -0.56655747
-2.0630248 -2.1737599 -0.56703985
-2.1574826 -2.273288 -0.56606388
-2.2767091 -2.3989141 -0.5690037
-2.3884914 -2.5166965 -0.56729215
-2.529608 -2.6653876 -0.56949371
-2.6796181 -2.8234499 -0.57017899
-2.8476043 -3.0004528 -0.57084817
-3.0346196 -3.1975062 -0.57104504
-3.242893 -3.416959 -0.57047004
-3.4979134 -3.6856678 -0.57252342
-3.778017 -3.9808066 -0.57221997
-4.1009049 -4.3210258 -0.57111752
-4.5108438 -4.7529683 -0.57328975
-4.9949155 -5.2630234 -0.57408768
-5.6091151 -5.9101906 -0.57657957
-6.3521848 -6.6931453 -0.57593048
-7.3627286 -7.7579317 -0.57835913
-8.7556534 -9.2256241 -0.58180386
-10.77356 -11.351843 -0.58559448
-14.020907 -14.773496 -0.59263784
-20.0355 -21.110928 -0.60481894
-35.130081 -37.015732 -0.63623214
-1.4367986 -1.5516924 -0.56664288
-1.485254 -1.6040227 -0.56632257
-1.5400407 -1.6631905 -0.56715226
-1.5908176 -1.7180276 -0.56521618
-1.6621553 -1.7950698 -0.56908768
-1.7266921 -1.8647673 -0.56896126
-1.7883667 -1.9313737 -0.5663529
-1.8686012 -2.0180242 -0.56788826
-1.9550714 -2.1114092 -0.56927437
-2.046114 -2.2097321 -0.56981719
-2.1369958 -2.3078811 -0.56809157
-2.2548347 -2.435143 -0.57097721
-2.3659546 -2.5551486 -0.56935877
-2.4989071 -2.6987326 -0.57000989
-2.6333799 -2.8439586 -0.56773847
-2.8170404 -3.0423057 -0.57217729
-2.9989915 -3.2388065 -0.57179171
-3.2034352 -3.4595985 -0.57096922
-3.4518547 -3.7278829 -0.57244438
-3.7196214 -4.0170617 -0.57081366
-4.0560732 -4.3804178 -0.57233208
-4.4462805 -4.8018279 -0.57254517
-4.9220181 -5.315608 -0.57317835
-5.5287895 -5.9709001 -0.57582629
-6.2777004 -6.7796979 -0.57669216
-7.2733388 -7.8549528 -0.57888085
-8.6552525 -9.3473711 -0.58272582
-10.637336 -11.487952 -0.58582401
-13.828949 -14.934784 -0.59224164
-19.762527 -21.342842 -0.60445535
-34.613075 -37.380917 -0.63514543
-1.4244611 -1.5768241 -0.569381
-1.4714645 -1.6288551 -0.56865871
-1.5223598 -1.6851943 -0.5682292
-1.5756023 -1.7441317 -0.56738728
-1.6339275 -1.8086953 -0.56699491
-1.6971383 -1.8786674 -0.56679213
-1.7736813 -1.9633976 -0.56930494
-1.844457 -2.0417435 -0.56813771
-1.9125935 -2.1171679 -0.56444347
-2.0172346 -2.2330017 -0.56937826
-2.1048155 -2.3299503 -0.56711024
-2.2104943 -2.4469328 -0.56732547
-2.3379445 -2.5880153 -0.57023335
-2.4597437 -2.7228425 -0.56867081
-2.6016853 -2.8799663 -0.56849724
-2.7594304 -3.054584 -0.56806201
-2.9452419 -3.2602706 -0.56914437
-3.1529427 -3.4901874 -0.56957597
-3.3970282 -3.7603805 -0.57097709
-3.6740232 -4.0670037 -0.57144743
-4.000803 -4.4287362 -0.57217419
-4.3857346 -4.8548412 -0.5723927
-4.8540826 -5.3732843 -0.57291812
-5.4423103 -6.0244298 -0.57449138
-6.1930871 -6.8555112 -0.57661963
-7.1642604 -7.9305634 -0.57791704
-8.5143147 -9.4250212 -0.58099586
-10.492209 -11.614476 -0.58565259
-13.63751 -15.096204 -0.59194815
-19.473372 -21.55628 -0.60367292
-34.087509 -37.733574 -0.63396758
-1.3887962 -1.5758721 -0.56282818
-1.4444841 -1.6390613 -0.56597811
-1.4882174 -1.6886857 -0.56319338
-1.5504709 -1.7593249 -0.56608486
-1.6111068 -1.8281287 -0.56683367
-1.6751373 -1.9007843 -0.56720746
-1.7556298 -1.9921194 -0.57133025
-1.81674 -2.0614614 -0.56736529
-1.8897096 -2.1442604 -0.56542861
-1.9781928 -2.2446625 -0.56610638
-2.0676122 -2.346127 -0.56481665
-2.1791985 -2.4727445 -0.56705421
-2.2943213 -2.6033745 -0.56735849
-2.4208863 -2.7469883 -0.56745362
-2.5673704 -2.9132044 -0.56878364
-2.7346358 -3.1030011 -0.57076949
-2.9101081 -3.3021102 -0.57015836
-3.1167648 -3.5366042 -0.57085329
-3.342768 -3.7930508 -0.56965345
-3.6225648 -4.1105371 -0.57126218
-3.9346638 -4.4646773 -0.57052368
-4.3274846 -4.9104123 -0.57262743
-4.7977505 -5.4440246 -0.57412702
-5.3731875 -6.0969753 -0.57506531
-6.1018867 -6.9238329 -0.57601172
-7.0716138 -8.0241852 -0.57835913
-8.3882456 -9.5181723 -0.58033586
-10.325883 -11.716816 -0.58436632
-13.437292 -15.247343 -0.59135085
-19.201601 -21.788126 -0.60350782
-33.567104 -38.088715 -0.63295168
-1.3795961 -1.6047883 -0.56705397
-1.4219239 -1.6540252 -0.56506491
-1.4737284 -1.7142859 -0.5656448
-1.5304463 -1.7802616 -0.56672341
-1.5882126 -1.8474573 -0.56672853
-1.6432505 -1.911479 -0.56432652
-1.7179239 -1.9983414 -0.5670135
-1.7948893 -2.0878699 -0.56851614
-1.8694404 -2.1745901 -0.56732184
-1.9601675 -2.2801266 -0.5689286
-2.0597143 -2.3959222 -0.57066405
-2.1579604 -2.5102053 -0.56951666
-2.2617023 -2.6308808 -0.56724924
-2.3880949 -2.7779047 -0.56773114
-2.5275929 -2.9401729 -0.56793785
-2.6923311 -3.1318014 -0.56993437
-2.8679488 -3.3360853 -0.56989247
-3.0664029 -3.5669332 -0.56961948
-3.3072431 -3.847086 -0.57161784
-3.5635283 -4.1452045 -0.5699473
-3.8812497 -4.5147877 -0.57078528
-4.2683702 -4.9650979 -0.57284069
-4.7172661 -5.4872675 -0.57252681
-5.2997813 -6.1648669 -0.5752787
-6.0198507 -7.0024734 -0.5763523
-6.9709864 -8.1088638 -0.57824045
-8.2754269 -9.6262293 -0.58067596
-10.189923 -11.853229 -0.58487636
-13.238548 -15.399483 -0.59089321
-18.91283 -21.999981 -0.6028887
-33.047195 -38.441505 -0.63201368
-1.3653497 -1.6282958 -0.56938493
-1.4072145 -1.6782231 -0.56737733
-1.4508084 -1.7302127 -0.56497085
-1.5094196 -1.8001115 -0.56709099
-1.5671324 -1.8689388 -0.56736404
-1.6277612 -1.941244 -0.56716192
-1.6886989 -2.0139174 -0.56549835
-1.7665008 -2.1067028 -0.56768656
-1.849135 -2.2052512 -0.56934583
-1.9228108 -2.2931159 -0.56622726
-2.0210106 -2.4102273 -0.56810921
-2.1224928 -2.5312536 -0.56832772
-2.2319491 -2.6617894 -0.56795305
-2.3521149 -2.8050976 -0.56733471
-2.4889419 -2.9682753 -0.56741148
-2.6490753 -3.1592479 -0.56895822
-2.8213048 -3.3646464 -0.56880212
-3.0320342 -3.6159589 -0.57145149
-3.2571747 -3.8844583 -0.57117653
-3.5148263 -4.19173 -0.57035863
-3.8401697 -4.5797296 -0.57298243
-4.1994605 -5.0082145 -0.57181424
-4.6524935 -5.5484948 -0.57290274
-5.2186661 -6.2237039 -0.57473743
-5.9267807 -7.0681911 -0.57571942
-6.8610721 -8.1824131 -0.57742536
-8.158227 -9.7293816 -0.58080304
-10.032905 -11.965094 -0.58426452
-13.038837 -15.549925 -0.59046912
-18.618702 -22.20439 -0.60217083
-32.513481 -38.775097 -0.63087744
-1.3337274 -1.6309001 -0.56451815
-1.3861198 -1.6949663 -0.56723261
-1.4335588 -1.7529755 -0.56660479
-1.4862628 -1.8174226 -0.56674421
-1.5402088 -1.8833885 -0.56595838
-1.6078908 -1.9661511 -0.56861943
-1.6723455 -2.0449672 -0.56839973
-1.7369667 -2.123987 -0.56654584
-1.809876 -2.2131412 -0.56559438
-1.8942167 -2.3162742 -0.56615144
-1.9876961 -2.430582 -0.56710297
-2.0922699 -2.5584564 -0.56861597
-2.1976316 -2.687294 -0.56758612
-2.3186285 -2.8352509 -0.56762397
-2.4679003 -3.0177824 -0.57103103
-2.6121001 -3.1941121 -0.56940943
-2.7854183 -3.4060478 -0.56996781
-2.9798131 -3.6437564 -0.57001078
-3.2003207 -3.9133961 -0.56960207
-3.4661109 -4.2384081 -0.57086754
-3.776546 -4.6180124 -0.57191879
-4.144649 -5.0681338 -0.57279336
-4.5886116 -5.6110172 -0.57348913
-5.1470704 -6.2939086 -0.5753324
-5.8416586 -7.1432605 -0.5759396
-6.7600417 -8.2662725 -0.57743353
-8.0268965 -9.8153992 -0.58000201
-9.8774014 -12.078222 -0.58381373
-12.842169 -15.703581 -0.59026283
-18.32774 -22.411411 -0.60162783
-31.96653 -39.089111 -0.62954348
-1.3233204 -1.6593978 -0.56870687
-1.3619598 -1.7078502 -0.56589687
-1.4183654 -1.7785809 -0.56920075
-1.4577805 -1.828006 -0.564412
-1.5147356 -1.8994257 -0.56513774
-1.5818602 -1.9835976 -0.56799668
-1.6485212 -2.0671883 -0.5688988
-1.7118784 -2.146636 -0.56692946
-1.777992 -2.2295401 -0.56415534
-1.8703367 -2.3453372 -0.56759083
-1.9592592 -2.4568427 -0.5675661
-2.0539577 -2.5755916 -0.56676817
-2.1690977 -2.7199731 -0.56881183
-2.284025 -2.8640881 -0.56773156
-2.4225638 -3.0378108 -0.56914109
-2.5623772 -3.2131319 -0.56714028
-2.7447689 -3.4418447 -0.57026708
-2.9335613 -3.6785839 -0.56977296
-3.1443558 -3.9429126 -0.56822759
-3.406194 -4.2712488 -0.56960642
-3.7156997 -4.659358 -0.57133764
-4.084806 -5.1222043 -0.57318419
-4.5160217 -5.6629343 -0.57307637
-5.0652122 -6.3516002 -0.57486916
-5.7532854 -7.2144194 -0.5759294
-6.6551642 -8.3453445 -0.57719696
-7.9131279 -9.9227867 -0.58055401
-9.7296009 -12.200581 -0.58390099
-12.62873 -15.835987 -0.58935821
-18.029234 -22.608032 -0.60090923
-31.445122 -39.431091 -0.62877631
-1.3004773 -1.6725339 -0.56768543
-1.3441793 -1.7287388 -0.56729865
-1.3943057 -1.793206 -0.56835133
-1.447298 -1.861359 -0.56917208
-1.4947363 -1.922369 -0.56645262
-1.5545329 -1.9992728 -0.5669688
-1.6120658 -2.0732656 -0.56507325
-1.6942179 -2.1789207 -0.56991088
-1.7600235 -2.2635529 -0.56724262
-1.8409971 -2.3676925 -0.56747955
-1.925468 -2.4763298 -0.56655544
-2.0262144 -2.6058989 -0.5679118
-2.1293631 -2.7385576 -0.5671798
-2.2503495 -2.8941574 -0.56816393
-2.387161 -3.0701096 -0.56964982
-2.5233164 -3.245218 -0.56728417
-2.6980238 -3.4699078 -0.56937689
-2.8840775 -3.7091901 -0.56897753
-3.1122665 -4.0026622 -0.57127994
-3.3578537 -4.3185101 -0.57035965
-3.6506276 -4.6950445 -0.57016593
-4.0071406 -5.153553 -0.57113516
-4.4442272 -5.7156868 -0.57284123
-4.9724975 -6.3950915 -0.57322806
-5.6588645 -7.2778225 -0.57539248
-6.5500121 -8.4239206 -0.57701731
-7.7852077 -10.012497 -0.58015788
-9.5757179 -12.315258 -0.5837099
-12.428 -15.983557 -0.58911824
-17.738688 -22.813591 -0.60052991
-30.893751 -39.732216 -0.627473
-1.2722234 -1.6783832 -0.56431836
-1.3229268 -1.7452738 -0.56734359
-1.37459 -1.8134307 -0.56936121
-1.4188125 -1.8717713 -0.56697834
-1.4747386 -1.945552 -0.56789738
-1.5312425 -2.0200949 -0.56749111
-1.5938652 -2.1027098 -0.56771374
-1.6628087 -2.1936636 -0.56837606
-1.7337449 -2.2872465 -0.5677948
-1.8032542 -2.3789468 -0.56481981
-1.8988771 -2.5050976 -0.56775218
-1.9984314 -2.6364348 -0.56916815
-2.1015058 -2.7724156 -0.56879717
-2.2156549 -2.9230072 -0.56843609
-2.3533127 -3.1046126 -0.57063931
-2.4905019 -3.2855995 -0.56894678
-2.6569371 -3.5051696 -0.56975895
-2.8409598 -3.747942 -0.56952012
-3.05621 -4.0319114 -0.57004774
-3.3055387 -4.3608384 -0.57053864
-3.598841 -4.7477779 -0.57115269
-3.9478636 -5.2082272 -0.5717712
-4.3717794 -5.7674785 -0.57260096
-4.8950181 -6.4577627 -0.57340699
-5.5618858 -7.3375292 -0.57466239
-6.4448686 -8.5024061 -0.5769214
-7.6586809 -10.10373 -0.5799436
-9.4188538 -12.425842 -0.58341771
-12.227725 -16.131453 -0.58898294
-17.441383 -23.009581 -0.59999812
-30.353676 -40.044147 -0.62645733
-1.2584567 -1.7033278 -0.56745952
-1.291254 -1.7477192 -0.56293446
-1.3498238 -1.8269937 -0.56836534
-1.3980211 -1.892229 -0.56792498
-1.4492637 -1.961586 -0.56733298
-1.5037273 -2.0353029 -0.56652611
-1.5683519 -2.1227725 -0.56788075
-1.6363505 -2.2148092 -0.56859839
-1.7025656 -2.3044314 -0.56682092
-1.7806299 -2.4100919 -0.56697297
-1.8615613 -2.5196331 -0.56581581
-1.9633234 -2.6573684 -0.56843251
-2.0590951 -2.7869961 -0.56655109
-2.179734 -2.9502816 -0.56848478
-2.3081396 -3.1240792 -0.56895763
-2.4487419 -3.3143852 -0.56867433
-2.614718 -3.5390344 -0.56999427
-2.794172 -3.7819264 -0.56942028
-3.0052695 -4.0676479 -0.5698325
-3.2491207 -4.3977017 -0.57009137
-3.5350037 -4.784646 -0.57031554
-3.8887954 -5.263505 -0.57254684
-4.2961903 -5.8149161 -0.57202256
-4.8178325 -6.5209618 -0.57371497
-5.4757161 -7.4114103 -0.57513183
-6.3403592 -8.5817099 -0.57696867
-7.5294313 -10.191125 -0.57960182
-9.2571487 -12.529599 -0.5829007
-12.015244 -16.262697 -0.58833605
-17.133615 -23.190437 -0.5991751
-29.811296 -40.349747 -0.62545615
-1.2409803 -1.7236197 -0.56909299
-1.2766315 -1.7731364 -0.56602222
-1.3288178 -1.845619 -0.56903332
-1.3729568 -1.9069244 -0.56722564
-1.423887 -1.9776622 -0.56687576
-1.4866962 -2.064899 -0.56963259
-1.5329292 -2.129113 -0.56449157
-1.6031542 -2.2266498 -0.56653446
-1.6826165 -2.3370163 -0.56970352
-1.751339 -2.432466 -0.56712747
-1.8363228 -2.5505018 -0.56763417
-1.9272759 -2.6768281 -0.56748283
-2.0293028 -2.8185353 -0.56784695
-2.1343899 -2.9644923 -0.56612301
-2.2628036 -3.1428485 -0.56726563
-2.4036477 -3.3384693 -0.56769246
-2.5651069 -3.5627229 -0.56868649
-2.746681 -3.8149145 -0.56925881
-2.9510953 -4.0988293 -0.56907409
-3.1977434 -4.4414034 -0.57061607
-3.4785604 -4.8314352 -0.57075101
-3.8177898 -5.3025966 -0.57164937
-4.2231579 -5.8656197 -0.57185864
-4.731719 -6.5719695 -0.57304037
-5.3878927 -7.4833412 -0.57552898
-6.2399368 -8.6667604 -0.57748449
-7.4017391 -10.280408 -0.57945955
-9.0973368 -12.635454 -0.58257699
-11.817176 -16.413088 -0.58847535
-16.820858 -23.362791 -0.59823895
-29.24505 -40.618977 -0.624008
-1.2035292 -1.7157047 -0.56155092
-1.2582413 -1.7937001 -0.56760472
-1.3089935 -1.8660504 -0.57032686
-1.3442305 -1.9162831 -0.56505001
-1.3965976 -1.9909356 -0.56571513
-1.4459631 -2.0613091 -0.56369472
-1.5116093 -2.1548917 -0.56635541
-1.574986 -2.245239 -0.5662939
-1.648129 -2.349509 -0.56776565
-1.7257168 -2.4601152 -0.56858337
-1.808646 -2.5783358 -0.56883615
-1.897931 -2.705617 -0.56859547
-1.9986309 -2.8491709 -0.56902474
-2.105747 -3.0018713 -0.56827348
-2.234513 -3.1854353 -0.56994981
-2.3604226 -3.3649273 -0.56721306
-2.5256937 -3.6005311 -0.56972104
-2.6991293 -3.8477745 -0.5691666
-2.908896 -4.1468096 -0.57072628
-3.147583 -4.4870725 -0.5714677
-3.4160998 -4.8698597 -0.57028478
-3.7475505 -5.3423629 -0.57092535
-4.1527414 -5.9199877 -0.57213753
-4.6429396 -6.6187949 -0.57210189
-5.2826152 -7.5306921 -0.57413149
-6.1197681 -8.7241049 -0.57624775
-7.2673006 -10.359982 -0.5788641
-8.9401503 -12.744733 -0.58250284
-11.590862 -16.523485 -0.58727896
-16.519602 -23.549706 -0.59777844
-28.70369 -40.918869 -0.62314576
-1.1936527 -1.7469254 -0.56692255
-1.2283018 -1.7976347 -0.56402767
-1.2755877 -1.8668381 -0.56573093
-1.3278024 -1.9432552 -0.56814587
-1.3723325 -2.0084252 -0.5658471
-1.4280229 -2.0899289 -0.56667644
-1.4848182 -2.1730497 -0.56628633
-1.5587147 -2.281198 -0.57048613
-1.6163197 -2.3655035 -0.5667851
-1.6869015 -2.468801 -0.56575394
-1.778239 -2.6024745 -0.56929451
-1.8651121 -2.7296143 -0.56877589
-1.9597269 -2.8680842 -0.56794637
-2.0653076 -3.0226028 -0.56734759
-2.1949248 -3.2122993 -0.56988424
-2.3255785 -3.4035125 -0.56885386
-2.4895835 -3.6435361 -0.57163858
-2.6551707 -3.8858745 -0.56992984
-2.8582659 -4.1831069 -0.57084155
-3.0842047 -4.5137711 -0.56999493
-3.3524528 -4.9063554 -0.56968808
-3.6829138 -5.3899894 -0.57113224
-4.0787859 -5.9693527 -0.57201797
-4.5766993 -6.6980553 -0.57404506
-5.1946635 -7.6024537 -0.57468927
-6.0086646 -8.7937536 -0.5759244
-7.1389222 -10.4479 -0.5788278
-8.767087 -12.83074 -0.58146262
-11.385239 -16.662436 -0.58719736
-16.221807 -23.740812 -0.59752095
-28.147463 -41.194157 -0.62202013
-1.1646329 -1.7502733 -0.56331897
-1.2149167 -1.8258426 -0.5681479
-1.2506546 -1.8795514 -0.56488055
-1.2979372 -1.95061 -0.56558728
-1.3492386 -2.0277088 -0.56656283
-1.4018532 -2.1067808 -0.56652898
-1.4637928 -2.199867 -0.56854123
-1.5217689 -2.2869966 -0.56721371
-1.5885763 -2.3873985 -0.56730789
-1.6614895 -2.4969764 -0.56748587
-1.7403872 -2.6155481 -0.56743008
-1.8220848 -2.7383277 -0.56588012
-1.9262891 -2.8949316 -0.56852931
-2.0401607 -3.0660639 -0.57075328
-2.1399562 -3.2160418 -0.56583714
-2.2790289 -3.4250479 -0.56772649
-2.4371488 -3.662679 -0.56989712
-2.5977221 -3.9039972 -0.56785989
-2.8054161 -4.2161312 -0.57059741
-3.0186555 -4.5365992 -0.5681473
-3.3040187 -4.9654579 -0.57179004
-3.6174603 -5.4365149 -0.57130557
-3.9909027 -5.9977446 -0.56999296
-4.4893956 -6.7469068 -0.5734573
-5.101573 -7.6669202 -0.57477695
-5.8908248 -8.8530502 -0.57502037
-7.000617 -10.520906 -0.57805961
-8.6107645 -12.940722 -0.58160454
-11.178337 -16.79941 -0.58713603
-15.901009 -23.896896 -0.59648317
-27.578802 -41.446915 -0.62066913
-1.1467434 -1.7702018 -0.56515187
-1.1888623 -1.83522 -0.56647408
-1.2361507 -1.9082179 -0.56888467
-1.273481 -1.9658439 -0.5654211
-1.3286374 -2.0509875 -0.56845933
-1.3726056 -2.1188602 -0.5651958
-1.4292141 -2.2062454 -0.56560498
-1.4917674 -2.3028076 -0.5665428
-1.5561097 -2.4021313 -0.56621915
-1.6253564 -2.5090261 -0.56563944
-1.7092328 -2.6385043 -0.56780773
-1.7914428 -2.7654097 -0.5668816
-1.8983365 -2.9304192 -0.57087123
-1.9895849 -3.0712774 -0.56712669
-2.1147666 -3.2645175 -0.56974775
-2.2424181 -3.46157 -0.56916666
-2.3846006 -3.6810541 -0.56815082
-2.5578222 -3.9484525 -0.56970823
-2.7425406 -4.2335978 -0.56835431
-2.9779248 -4.5969553 -0.57107705
-3.2367041 -4.9964271 -0.57072997
-3.5467629 -5.4750576 -0.57072967
-3.9282002 -6.0638738 -0.57164389
-4.3976212 -6.7885089 -0.5723539
-5.0045757 -7.725451 -0.57450801
-5.7875824 -8.9341602 -0.57562268
-6.8687863 -10.60319 -0.5778963
-8.4562244 -13.053682 -0.58196402
-10.954327 -16.909946 -0.58624727
-15.599857 -24.081148 -0.59624904
-27.025192 -41.718182 -0.61970806
-1.1219933 -1.7795718 -0.56369603
-1.1679572 -1.8524741 -0.56732398
-1.2123358 -1.9228622 -0.5687632
-1.2492183 -1.9813609 -0.56542325
-1.3002466 -2.0622959 -0.5671193
-1.3489945 -2.1396139 -0.56626421
-1.4038482 -2.2266164 -0.56635904
-1.4671166 -2.3269651 -0.56800479
-1.5323657 -2.4304552 -0.56841105
-1.5985799 -2.5354764 -0.56712806
-1.6791283 -2.6632326 -0.56864297
-1.7569832 -2.7867169 -0.56677777
-1.8497192 -2.9338036 -0.56705678
-1.9539346 -3.0990975 -0.56778437
-2.0699747 -3.2831464 -0.56851375
-2.191195 -3.4754117 -0.56696945
-2.3453374 -3.7198942 -0.56965131
-2.500293 -3.9656663 -0.56771296
-2.6956894 -4.2755804 -0.56949735
-2.9102871 -4.6159496 -0.56894797
-3.1706109 -5.0288444 -0.56993639
-3.4820294 -5.5227795 -0.57119775
-3.8480308 -6.1032867 -0.57085556
-4.3147969 -6.8436155 -0.57248342
-4.9049759 -7.7796869 -0.57401264
-5.6771169 -9.004365 -0.57560468
-6.7354569 -10.682978 -0.5776872
-8.2774954 -13.128774 -0.58073008
-10.746965 -17.045553 -0.58632272
-15.280919 -24.236769 -0.5954048
-26.458176 -41.964798 -0.61849189
-1.1085978 -1.8072033 -0.56808758
-1.1465266 -1.8690338 -0.56803489
-1.1859354 -1.9332769 -0.56748742
-1.2226094 -1.9930619 -0.56442952
-1.2713033 -2.0724411 -0.56556761
-1.3159158 -2.1451674 -0.56340891
-1.3701661 -2.2336042 -0.56380838
-1.4367899 -2.3422127 -0.56737119
-1.4910027 -2.4305887 -0.56411177
-1.5692822 -2.5581977 -0.56785113
-1.6388962 -2.6716805 -0.56610101
-1.7214115 -2.8061943 -0.56639123
-1.8221397 -2.9703984 -0.56975621
-1.9206131 -3.1309268 -0.56924593
-2.0284619 -3.3067389 -0.56823689
-2.1515017 -3.5073144 -0.56781512
-2.2880409 -3.729897 -0.56683177
-2.4494703 -3.9930544 -0.56727904
-2.6399074 -4.3034992 -0.56884927
-2.8560143 -4.6557903 -0.56948692
-3.1212697 -5.088202 -0.57227051
-3.4103427 -5.5594401 -0.57060915
-3.7822332 -6.1656852 -0.57229859
-4.2280998 -6.8925242 -0.57218236
-4.8085141 -7.8386979 -0.57396066
-5.5616188 -9.0663872 -0.57515424
-6.5971842 -10.754535 -0.57712632
-8.1151924 -13.229148 -0.58071214
-10.523229 -17.154657 -0.58558047
-14.963405 -24.392902 -0.5946753
-25.891928 -42.20826 -0.61734104
-1.0794282 -1.8091911 -0.56449741
-1.1218361 -1.8802694 -0.56721425
-1.1601096 -1.9444184 -0.56652766
-1.2008101 -2.012635 -0.56574816
-1.2432343 -2.0837407 -0.56443661
-1.2935059 -2.1679993 -0.56518531
-1.34929 -2.2614968 -0.5666182
-1.4078021 -2.3595667 -0.56733876
-1.4688154 -2.4618292 -0.56712765
-1.5318182 -2.5674257 -0.56567574
-1.6131378 -2.7037227 -0.5686444
-1.6887488 -2.8304517 -0.56705314
-1.778123 -2.9802485 -0.56740874
-1.8810507 -3.1527619 -0.5689674
-1.9916648 -3.3381581 -0.56938457
-2.1161447 -3.5467947 -0.569951
-2.2493186 -3.7700024 -0.56868035
-2.4081182 -4.0361609 -0.56915325
-2.586061 -4.3344045 -0.56868809
-2.8010011 -4.6946578 -0.56998509
-3.045155 -5.1038756 -0.56977886
-3.3425364 -5.6023059 -0.57074708
-3.7009654 -6.2030563 -0.5715
-4.1441379 -6.9458413 -0.57233495
-4.7061172 -7.8877549 -0.57327211
-5.4518681 -9.137681 -0.57538068
-6.4592924 -10.826189 -0.57666564
-7.9396014 -13.307282 -0.57981253
-10.297425 -17.259148 -0.58478075
-14.641351 -24.539846 -0.59382367
-25.318325 -42.435139 -0.61605936
-1.0610291 -1.829097 -0.56659466
-1.1001152 -1.8964771 -0.56797987
-1.1357719 -1.9579452 -0.5663569
-1.1782951 -2.0312507 -0.56686538
-1.2198701 -2.1029212 -0.56552631
-1.2639999 -2.1789963 -0.56395763
-1.3235639 -2.2816782 -0.567554
-1.3794868 -2.3780828 -0.56766933
-1.4386084 -2.4800022 -0.56719607
-1.5006402 -2.5869379 -0.56586635
-1.5756664 -2.716275 -0.56716657
-1.6560569 -2.8548591 -0.56782037
-1.7448549 -3.0079372 -0.56855249
-1.8341638 -3.1618958 -0.56650275
-1.9479368 -3.3580279 -0.56864512
-2.0673401 -3.5638661 -0.56856626
-2.2027979 -3.7973802 -0.5686813
-2.3598025 -4.0680389 -0.56951356
-2.533145 -4.3668623 -0.56881684
-2.74124 -4.725595 -0.56960565
-2.9928181 -5.1592879 -0.57181334
-3.2740057 -5.6440244 -0.57085264
-3.6300304 -6.2577715 -0.57238531
-4.0609722 -7.0006676 -0.5726946
-4.6074791 -7.9427848 -0.57311064
-5.3386354 -9.2032175 -0.57533032
-6.3247724 -10.90321 -0.57658201
-7.7714186 -13.397068 -0.57951707
-10.08054 -17.377739 -0.58455479
-14.33285 -24.70825 -0.59358913
-24.755241 -42.675301 -0.61508024
-1.0351287 -1.8360971 -0.56477755
-1.0671812 -1.8929516 -0.56295133
-1.1152185 -1.9781594 -0.56819439
-1.1570202 -2.0523067 -0.56872809
-1.1974965 -2.1241031 -0.56721979
-1.2484033 -2.2144008 -0.56910479
-1.2887738 -2.2860093 -0.56464666
-1.3405035 -2.3777668 -0.56361651
-1.409387 -2.4999514 -0.56775212
-1.4769529 -2.6197989 -0.56903875
-1.5456434 -2.7416413 -0.56845164
-1.620083 -2.8736811 -0.56755877
-1.7076137 -3.0289419 -0.56851083
-1.797031 -3.1875491 -0.56709701
-1.90152 -3.3728902 -0.56715953
-2.0204854 -3.5839095 -0.56775737
-2.1534004 -3.8196721 -0.56801128
-2.3090458 -4.0957537 -0.56937557
-2.4786401 -4.3965778 -0.5686745
-2.6743386 -4.7437053 -0.56778187
-2.9184737 -5.1767488 -0.56972808
-3.2049274 -5.6848564 -0.57095337
-3.544812 -6.2877388 -0.57109624
-3.9715874 -7.0447478 -0.57226223
-4.5112691 -8.0020275 -0.57333928
-5.2254257 -9.2687883 -0.57536906
-6.1879892 -10.976171 -0.57637298
-7.6022272 -13.484727 -0.57922149
-9.8622513 -17.493528 -0.58432621
-14.007932 -24.847078 -0.59274143
-24.178532 -42.88755 -0.6138078
-1.013451 -1.8504684 -0.56532216
-1.0442476 -1.9067003 -0.56317884
-1.0921879 -1.9942349 -0.56891125
-1.1213454 -2.0474739 -0.5635252
-1.1720207 -2.1400023 -0.56757408
-1.2135082 -2.2157547 -0.56557506
-1.2642739 -2.3084483 -0.56630641
-1.3128527 -2.3971486 -0.56434149
-1.3804705 -2.5206125 -0.5685463
-1.435889 -2.6218016 -0.56559592
-1.4966515 -2.7327485 -0.56274951
-1.5817026 -2.8880439 -0.56651133
-1.6643008 -3.0388606 -0.56648856
-1.7607831 -3.2150285 -0.56809092
-1.8547472 -3.3865981 -0.56558675
-1.9775715 -3.6108642 -0.56813222
-2.1060026 -3.8453677 -0.56793845
-2.2606015 -4.1276507 -0.56990242
-2.423614 -4.4252968 -0.56849146
-2.6167319 -4.7779121 -0.56798196
-2.8601131 -5.2223043 -0.57082796
-3.1316397 -5.7180867 -0.57038015
-3.4693825 -6.3347745 -0.57145035
-3.8803325 -7.0851312 -0.5716235
-4.4065204 -8.0459023 -0.57255733
-5.103941 -9.3193274 -0.57456702
-6.04561 -11.038729 -0.57571077
-7.4408846 -13.586372 -0.57961363
-9.6345663 -17.591833 -0.58360857
-13.68942 -24.995625 -0.59222466
-23.607468 -43.105072 -0.61272007
-0.98823315 -1.8582978 -0.563959
-1.0271006 -1.931385 -0.56669664
-1.0583671 -1.9901794 -0.563999
-1.1003929 -2.069206 -0.56573957
-1.134445 -2.1332381 -0.56203783
-1.188432 -2.2347567 -0.56665236
-1.2381549 -2.3282568 -0.56738794
-1.2844259 -2.4152658 -0.56484568
-1.3411289 -2.5218916 -0.56507236
-1.4063238 -2.6444857 -0.56671613
-1.4800168 -2.7830598 -0.56931931
-1.5455288 -2.90625 -0.5663119
-1.630409 -3.065861 -0.56774163
-1.7167497 -3.2282181 -0.56664854
-1.8185787 -3.4196999 -0.56733745
-1.9285129 -3.6264229 -0.56680626
-2.0526817 -3.8599129 -0.56631595
-2.2018917 -4.140491 -0.56789398
-2.3616214 -4.4408507 -0.56671619
-2.5661452 -4.8254423 -0.56983799
-2.7904851 -5.2472963 -0.56976604
-3.0582294 -5.7507691 -0.56984603
-3.3862169 -6.3675251 -0.57060546
-3.7843897 -7.1162591 -0.57033741
-4.3094811 -8.1036539 -0.57285273
-4.9889531 -9.3813496 -0.57456523
-5.9093843 -11.112151 -0.57570672
-7.2682037 -13.667308 -0.5792098
-9.4121304 -17.698799 -0.58327353
-13.367207 -25.136023 -0.59161192
-23.03001 -43.306194 -0.6115073
-0.96952224 -1.8784701 -0.56642008
-1.0041329 -1.9455291 -0.56718093
-1.0379827 -2.0111139 -0.56627172
-1.0729122 -2.0787904 -0.56471032
-1.115227 -2.1607761 -0.56563741
-1.1627624 -2.252877 -0.56757867
-1.2061126 -2.336869 -0.56582969
-1.2629365 -2.4469664 -0.56858456
-1.3123635 -2.5427325 -0.56608343
-1.380353 -2.6744635 -0.56945992
-1.4407229 -2.7914317 -0.56736493
-1.5152252 -2.9357812 -0.56839275
-1.5874485 -3.0757153 -0.56590897
-1.6788566 -3.2528205 -0.5673005
-1.7788013 -3.4464657 -0.56810623
-1.8864952 -3.6551251 -0.56762373
-2.0099268 -3.8942764 -0.56768864
-2.1535075 -4.1724668 -0.56860471
-2.3126481 -4.4808049 -0.56814295
-2.4987724 -4.8414249 -0.56805396
-2.7328939 -5.2950406 -0.57125813
-2.9932704 -5.7995257 -0.57098699
-3.3071074 -6.4075913 -0.5705086
-3.7050142 -7.1785445 -0.57163477
-4.2139664 -8.1646509 -0.57345831
-4.8617516 -9.4197483 -0.57321221
-5.7712207 -11.181864 -0.57559836
-7.085825 -13.728938 -0.57808542
-9.1821556 -17.790625 -0.58253461
-13.043139 -25.271362 -0.59097779
-22.452953 -43.503078 -0.61034268
-0.94932532 -1.8961875 -0.56819963
-0.97766709 -1.9527975 -0.56575245
-1.0063322 -2.0100534 -0.56244636
-1.0498929 -2.0970619 -0.56612396
-1.0885142 -2.1742043 -0.565606
-1.1310333 -2.2591321 -0.56560802
-1.1812766 -2.3594882 -0.56774658
-1.2190309 -2.4348989 -0.56225497
-1.2859224 -2.5685084 -0.5682587
-1.3385564 -2.6736398 -0.56573713
-1.4068718 -2.8100934 -0.56759888
-1.4795535 -2.9552681 -0.56860024
-1.5526383 -3.1012483 -0.56705111
-1.6353228 -3.2664027 -0.56611949
-1.7332573 -3.4620175 -0.5671137
-1.839411 -3.6740496 -0.5670073
-1.9622917 -3.919492 -0.5678041
-2.0933344 -4.1812372 -0.56624931
-2.2529078 -4.4999704 -0.56701756
-2.4437294 -4.8811188 -0.56914252
-2.6675999 -5.328279 -0.571262
-2.9116697 -5.8157849 -0.56901973
-3.2215202 -6.4346819 -0.5693506
-3.6132793 -7.2171841 -0.57113045
-4.1017165 -8.192791 -0.57184911
-4.7472939 -9.4822702 -0.57342124
-5.6273322 -11.240065 -0.57498884
-6.9171214 -13.816296 -0.57813865
-8.9654484 -17.907635 -0.58271217
-12.714816 -25.396643 -0.59020668
-21.877335 -43.69791 -0.60925585
-0.91971421 -1.894892 -0.56437987
-0.95340014 -1.9642951 -0.56564426
-0.99220026 -2.0442355 -0.56855416
-1.018275 -2.0979571 -0.56294286
-1.0603795 -2.1847055 -0.56490308
-1.1062025 -2.2791147 -0.56716251
-1.148133 -2.3655043 -0.56575429
-1.1983511 -2.4689689 -0.56667674
-1.2556047 -2.5869288 -0.56887513
-1.3036182 -2.6858513 -0.56488645
-1.3697041 -2.8220086 -0.5665608
-1.4380381 -2.9627974 -0.56660384
-1.5144383 -3.1202049 -0.56706941
-1.5992466 -3.2949362 -0.5676136
-1.6954532 -3.4931509 -0.56875557
-1.7965714 -3.7014852 -0.56778908
-1.9153436 -3.9461923 -0.56821722
-2.0493515 -4.2222891 -0.56835312
-2.2035828 -4.5400529 -0.56861091
-2.3811255 -4.9058447 -0.56856865
-2.5949774 -5.3464451 -0.56974554
-2.8458762 -5.8633733 -0.57020885
-3.1435344 -6.4766397 -0.56959981
-3.5238981 -7.2603054 -0.57107067
-4.0010986 -8.2434845 -0.57191008
-4.636807 -9.553237 -0.57422143
-5.4986219 -11.328839 -0.57602781
-6.7392554 -13.884923 -0.57749903
-8.729147 -17.984707 -0.58168334
-12.385336 -25.517572 -0.58943319
-21.290346 -43.864609 -0.60788405
-0.9007507 -1.9154236 -0.56715328
-0.92337286 -1.9635291 -0.56211156
-0.96363521 -2.0491459 -0.56658149
-0.99944818 -2.1253014 -0.56693953
-1.0397961 -2.2111003 -0.56837904
-1.0755655 -2.2871628 -0.56583124
-1.113561 -2.3679595 -0.56302398
-1.1722351 -2.4927285 -0.56877863
-1.2141513 -2.5818622 -0.56443518
-1.2706661 -2.7020395 -0.56496221
-1.3312632 -2.8308973 -0.56501615
-1.4025583 -2.9825048 -0.56703162
-1.473412 -3.1331735 -0.56609082
-1.5535963 -3.3036833 -0.56578672
-1.6515419 -3.5119622 -0.56846887
-1.7505171 -3.7224305 -0.56765723
-1.866173 -3.9683697 -0.56806338
-1.9956722 -4.2437468 -0.56789529
-2.1420255 -4.5549631 -0.56713659
-2.3191135 -4.9315362 -0.5681982
-2.5297036 -5.3793511 -0.56989419
-2.7698362 -5.889987 -0.56944174
-3.0709324 -6.5302601 -0.57095134
-3.432287 -7.2986717 -0.57072556
-3.901639 -8.2967367 -0.5722329
-4.5126114 -9.5959539 -0.57341039
-5.3447719 -11.365523 -0.57450789
-6.5643635 -13.958954 -0.57717723
-8.5093517 -18.094921 -0.58181983
-12.054075 -25.632687 -0.58862394
-20.712898 -44.045456 -0.60681474
-0.87533188 -1.9224019 -0.56598973
-0.90324605 -1.983707 -0.56466573
-0.94008064 -2.0646029 -0.56761616
-0.97017658 -2.1306996 -0.56515449
-1.0074463 -2.2125511 -0.56552482
-1.0435619 -2.2918682 -0.56377816
-1.0904288 -2.3947973 -0.56617427
-1.1322823 -2.4867158 -0.56418717
-1.1896935 -2.612802 -0.56795806
-1.2369752 -2.7166421 -0.56479251
-1.3028204 -2.8612511 -0.56783408
-1.3621913 -2.9916415 -0.56554139
-1.4356576 -3.152988 -0.56643844
-1.5180959 -3.3340387 -0.56774551
-1.6036904 -3.5220211 -0.56686223
-1.7048002 -3.7440784 -0.56771874
-1.8118452 -3.9791703 -0.56637746
-1.9469388 -4.2758622 -0.5689463
-2.0868211 -4.5830717 -0.56739849
-2.2636216 -4.9713607 -0.56953663
-2.4586346 -5.3996477 -0.5687986
-2.6926138 -5.9135122 -0.56847215
-2.9862275 -6.5583458 -0.57015336
-3.3439393 -7.3439517 -0.57100779
-3.793947 -8.3322573 -0.57142192
-4.3927617 -9.6473732 -0.57321191
-5.2023511 -11.425392 -0.57425719
-6.3894958 -14.032597 -0.57692999
-8.2724762 -18.167994 -0.58085471
-11.732333 -25.766523 -0.58833992
-20.136696 -44.224167 -0.60581976
-0.84848797 -1.9258903 -0.56390232
-0.88207066 -2.002116 -0.56677562
-0.9142381 -2.0751295 -0.56737661
-0.94557059 -2.1462476 -0.56615168
-0.98405999 -2.2336104 -0.56777173
-1.0157033 -2.3054342 -0.56400031
-1.0637068 -2.414392 -0.5676716
-1.1000512 -2.4968863 -0.56338304
-1.1542481 -2.6199019 -0.56637335
-1.2049661 -2.7350209 -0.56549025
-1.2594298 -2.8586423 -0.56420028
-1.3338772 -3.0276225 -0.56919956
-1.3995552 -3.1766977 -0.56756324
-1.477936 -3.3546059 -0.56811017
-1.5597225 -3.5402441 -0.56666553
-1.6509238 -3.747252 -0.56507909
-1.7620579 -3.9995031 -0.5661447
-1.8876702 -4.2846165 -0.56697971
-2.031991 -4.6121945 -0.5678677
-2.2012599 -4.9963994 -0.56926113
-2.3928268 -5.4312167 -0.56898159
-2.6278195 -5.964601 -0.570234
-2.9015651 -6.5859461 -0.569408
-3.2516766 -7.3806262 -0.57070732
-3.6891496 -8.3735981 -0.57110292
-4.2729836 -9.6987801 -0.5731011
-5.0599589 -11.485049 -0.574085
-6.2127967 -14.10175 -0.57658863
-8.0391617 -18.247215 -0.58018321
-11.396365 -25.867367 -0.58739841
-19.542423 -44.357216 -0.60430479
-0.82713372 -1.9417875 -0.56553626
-0.85365111 -2.0040402 -0.56430608
-0.88778156 -2.0841651 -0.56681943
-0.91914612 -2.1577969 -0.56617403
-0.95253813 -2.2361884 -0.56540698
-0.98994738 -2.3240106 -0.5655241
-1.027781 -2.4128292 -0.56428999
-1.0760155 -2.5260649 -0.56693852
-1.1172925 -2.6229675 -0.56402338
-1.1715741 -2.7503994 -0.5656485
-1.2313963 -2.8908386 -0.56752336
-1.2890034 -3.0260775 -0.56588644
-1.3557445 -3.1827595 -0.56562507
-1.4316776 -3.361021 -0.56617242
-1.5182489 -3.5642567 -0.56747794
-1.6121505 -3.7847011 -0.56769401
-1.7129502 -4.0213394 -0.56621134
-1.8397949 -4.3191214 -0.56850904
-1.9715797 -4.6285005 -0.56684756
-2.1344273 -5.0108032 -0.56786901
-2.3237743 -5.4553165 -0.56846988
-2.5481548 -5.9820743 -0.56886595
-2.8170235 -6.6132731 -0.5687328
-3.1575632 -7.4127274 -0.57014418
-3.5809214 -8.4066076 -0.57030797
-4.1451349 -9.7311621 -0.57195944
-4.9154282 -11.53951 -0.57374257
-6.0333672 -14.163995 -0.57605672
-7.8053546 -18.323931 -0.5795269
-11.067419 -25.981985 -0.58686644
-18.964975 -44.522369 -0.6033321
-0.80072796 -1.9458138 -0.56379867
-0.83244437 -2.0228865 -0.5666877
-0.85908055 -2.0876138 -0.56484175
-0.89047694 -2.1639087 -0.56486195
-0.91958773 -2.2346497 -0.56211632
-0.96659613 -2.3488827 -0.56864119
-0.99974442 -2.4294348 -0.56525582
-1.0468065 -2.5437982 -0.56798661
-1.0818856 -2.6290424 -0.56242651
-1.1360263 -2.7606075 -0.56483233
-1.1913775 -2.8951139 -0.56544393
-1.244242 -3.0235775 -0.56251532
-1.3192481 -3.2058465 -0.5668022
-1.3919071 -3.382412 -0.56684977
-1.4692154 -3.5702755 -0.56551713
-1.5639681 -3.80053 -0.56714076
-1.6680944 -4.0535626 -0.56781745
-1.7832179 -4.3333192 -0.56744874
-1.9154369 -4.6546187 -0.56711882
-2.075103 -5.0426164 -0.56853956
-2.2507372 -5.4694171 -0.56701237
-2.4758935 -6.0165596 -0.56920713
-2.7399123 -6.6581397 -0.56965077
-3.0677087 -7.4547038 -0.57042825
-3.4784393 -8.4528017 -0.57049698
-4.0237284 -9.7778845 -0.57175428
-4.7626677 -11.573549 -0.57247996
-5.85921 -14.238207 -0.57610118
-7.5814815 -18.423424 -0.57968134
-10.731846 -26.078985 -0.58603233
-18.370632 -44.641663 -0.60184205
-0.78274882 -1.9706331 -0.56815821
-0.80366373 -2.023288 -0.56398922
-0.83405751 -2.0998068 -0.56532311
-0.86551422 -2.1790016 -0.56598085
-0.90380371 -2.2753985 -0.56952792
-0.93365574 -2.3505535 -0.5662235
-0.96920949 -2.440063 -0.56491297
-1.0114064 -2.5462971 -0.56572485
-1.0525405 -2.6498554 -0.56406754
-1.1074485 -2.7880907 -0.56762636
-1.1568247 -2.9123993 -0.56599891
-1.213726 -3.0556531 -0.5656634
-1.2831869 -3.2305264 -0.56833297
-1.3526452 -3.4053931 -0.56787074
-1.4276098 -3.5941224 -0.56647092
-1.5193701 -3.8251364 -0.56798178
-1.6175489 -4.0723095 -0.56761438
-1.7339405 -4.365335 -0.56880617
-1.8593379 -4.6810331 -0.56750858
-2.0095415 -5.0591826 -0.56757849
-2.1848462 -5.5005264 -0.5674094
-2.403373 -6.0506845 -0.56959665
-2.657007 -6.6892285 -0.56947231
-2.9738493 -7.4869051 -0.57005101
-3.3782773 -8.505085 -0.57117879
-3.8981452 -9.8138943 -0.57101393
-4.6240368 -11.641385 -0.57297957
-5.6746616 -14.286418 -0.57518506
-7.3444209 -18.49017 -0.57889611
-10.401554 -26.186749 -0.58553553
-17.789627 -44.786816 -0.60080445
-0.75591731 -1.9734712 -0.56625378
-0.78290856 -2.0439372 -0.56701875
-0.81088996 -2.1169882 -0.56722146
-0.84146857 -2.1968195 -0.56787843
-0.8680523 -2.2662218 -0.5645166
-0.90125263 -2.3528979 -0.56407601
-0.94062829 -2.4556956 -0.56581163
-0.97890639 -2.5556283 -0.565081
-1.0200386 -2.663012 -0.56415558
-1.0678172 -2.7877474 -0.56484056
-1.1222643 -2.9298923 -0.56667376
-1.1783085 -3.0762067 -0.56674325
-1.2389444 -3.234509 -0.56631064
-1.3049666 -3.4068725 -0.56539887
-1.3893702 -3.6272249 -0.56895256
-1.4714906 -3.8416166 -0.56769925
-1.5694022 -4.0972338 -0.56835562
-1.674153 -4.3707066 -0.56678087
-1.8009259 -4.7016721 -0.56728315
-1.9467961 -5.0824952 -0.56746531
-2.1207659 -5.5366778 -0.56840557
-2.3258905 -6.072196 -0.56888628
-2.5721326 -6.7150598 -0.56893575
-2.8775008 -7.5122833 -0.56924623
-3.2662368 -8.5271549 -0.56992066
-3.7820497 -9.873786 -0.57174957
-4.4842401 -11.706992 -0.5734514
-5.4989381 -14.356063 -0.57522321
-7.1083283 -18.557693 -0.57822984
-10.064638 -26.275723 -0.58471358
-17.201471 -44.907833 -0.59954506
-0.73052639 -1.9797199 -0.56542647
-0.75357652 -2.0421855 -0.56391954
-0.77561706 -2.1019151 -0.56058502
-0.80991805 -2.1948705 -0.56475741
-0.84306264 -2.284692 -0.56649238
-0.87434822 -2.3694756 -0.5654301
-0.91281879 -2.4737306 -0.56733793
-0.94799906 -2.5690687 -0.56543255
-0.98837519 -2.6784875 -0.56481665
-1.0307788 -2.793401 -0.56337535
-1.0827368 -2.934207 -0.5648905
-1.1365623 -3.0800736 -0.56483811
-1.1981237 -3.2469044 -0.56585866
-1.2605922 -3.4161935 -0.56433058
-1.339384 -3.6297183 -0.56671745
-1.4219209 -3.8533926 -0.56681275
-1.5122273 -4.0981221 -0.56585658
-1.6191479 -4.387876 -0.56638265
-1.7369384 -4.707087 -0.56531674
-1.8913329 -5.1254945 -0.56962657
-2.0528309 -5.5631533 -0.56848913
-2.2474375 -6.0905352 -0.56797236
-2.4929991 -6.7560048 -0.56976449
-2.7904561 -7.5621104 -0.57037872
-3.1614566 -8.5675182 -0.56997705
-3.656477 -9.9090195 -0.57114303
-4.3412805 -11.76483 -0.57362628
-5.3194098 -14.415552 -0.57494247
-6.8796315 -18.643738 -0.57823133
-9.7284317 -26.36396 -0.58397096
-16.616407 -45.030312 -0.59840715
-0.7045837 -1.9841994 -0.56418872
-0.72940284 -2.0540934 -0.56468832
-0.76115316 -2.1435063 -0.56913823
-0.78452814 -2.2093332 -0.56595379
-0.81218719 -2.2872248 -0.56460142
-0.84139282 -2.3694715 -0.56291765
-0.87578547 -2.4663258 -0.56312728
-0.91445452 -2.575223 -0.56426954
-0.95673305 -2.6942847 -0.56562424
-1.0012606 -2.8196802 -0.56614947
-1.0505221 -2.9584069 -0.5670197
-1.0969346 -3.0891106 -0.56397915
-1.1606371 -3.2685051 -0.56709307
-1.2230752 -3.4443388 -0.56645274
-1.2926798 -3.6403546 -0.56585354
-1.3716918 -3.8628628 -0.56568199
-1.4602205 -4.1121707 -0.56527442
-1.5667344 -4.412128 -0.56698352
-1.6866825 -4.749917 -0.56792676
-1.818434 -5.1209469 -0.56659329
-1.9832079 -5.5849719 -0.56818378
-2.1730967 -6.1197228 -0.5681594
-2.4022181 -6.7649584 -0.56798553
-2.694541 -7.5881782 -0.5698027
-3.0549531 -8.6031456 -0.56980503
-3.5318053 -9.946023 -0.57072955
-4.1848416 -11.785058 -0.57206029
-5.1377816 -14.468661 -0.57449752
-6.6404395 -18.70034 -0.57741076
-9.3948774 -26.457197 -0.58343315
-16.033274 -45.151787 -0.59735632
-0.67977375 -1.9916582 -0.56389022
-0.70485401 -2.0651405 -0.56529987
-0.72894126 -2.1357133 -0.56464642
-0.75704503 -2.2180541 -0.56576037
-0.78670669 -2.3049593 -0.56654841
-0.81289297 -2.3816822 -0.56340122
-0.84517735 -2.4762716 -0.56298268
-0.88954198 -2.6062548 -0.56862938
-0.92623335 -2.7137561 -0.56727809
-0.96582794 -2.8297637 -0.56574672
-1.0160873 -2.9770179 -0.56814909
-1.064832 -3.1198339 -0.56715494
-1.1195606 -3.2801826 -0.56668776
-1.1801826 -3.4577978 -0.56623673
-1.2576094 -3.6846495 -0.57029188
-1.3262258 -3.8856876 -0.56659353
-1.4103159 -4.132062 -0.56558204
-1.5141551 -4.4362988 -0.56765401
-1.6265589 -4.7656288 -0.56737101
-1.7566844 -5.1468816 -0.56702989
-1.9096173 -5.5949569 -0.56676793
-2.0958195 -6.1405077 -0.56765354
-2.3198135 -6.7967839 -0.56821966
-2.597527 -7.6104527 -0.56903386
-2.952106 -8.6493273 -0.57041639
-3.4101353 -9.9913006 -0.57087833
-4.0404005 -11.837904 -0.57217062
-4.9565024 -14.521977 -0.5741511
-6.4040599 -18.763153 -0.57687509
-9.0579214 -26.53866 -0.58272934
-15.44404 -45.249245 -0.59608817
-0.65796137 -2.0081906 -0.56623745
-0.67696393 -2.0661891 -0.56326574
-0.7004922 -2.1380007 -0.56293136
-0.72642976 -2.2171657 -0.56321275
-0.75230688 -2.2961464 -0.5620659
-0.78510052 -2.3962371 -0.56451792
-0.81783211 -2.4961386 -0.56517041
-0.85138887 -2.5985584 -0.56462342
-0.88927937 -2.7142057 -0.56504345
-0.93525416 -2.8545272 -0.56835544
-0.97831494 -2.9859548 -0.56751591
-1.0262477 -3.1322522 -0.56707555
-1.0757921 -3.2834685 -0.56492734
-1.1369108 -3.4700115 -0.56590474
-1.2006284 -3.6644866 -0.56484348
-1.2763902 -3.8957224 -0.56572539
-1.3593308 -4.1488686 -0.56555188
-1.4562995 -4.4448309 -0.56641161
-1.567065 -4.7829027 -0.56709063
-1.6986203 -5.1844282 -0.56882226
-1.8448248 -5.6306648 -0.56804419
-2.022212 -6.1720753 -0.56823015
-2.2349319 -6.8213263 -0.567931
-2.4999475 -7.6301913 -0.56816828
-2.8419657 -8.6740789 -0.56970096
-3.2860844 -10.029592 -0.57071429
-3.8948023 -11.887484 -0.57220888
-4.7734981 -14.569387 -0.57366151
-6.171957 -18.837681 -0.5767895
-8.7154856 -26.600887 -0.5816986
-14.856565 -45.344326 -0.59488916
-0.63233721 -2.0133185 -0.56544822
-0.65242922 -2.0772901 -0.5640623
-0.67621535 -2.1530235 -0.56465477
-0.70290709 -2.2380083 -0.56626886
-0.72747988 -2.3162463 -0.56475371
-0.76074344 -2.4221554 -0.56837714
-0.78799504 -2.5089226 -0.5658282
-0.81835127 -2.6055746 -0.56391877
-0.85362887 -2.7178962 -0.56358397
-0.89723498 -2.856735 -0.56655544
-0.93903482 -2.9898229 -0.56601369
-0.98623413 -3.1401021 -0.56625837
-1.0380622 -3.3051195 -0.56641346
-1.0976037 -3.4946952 -0.56768626
-1.1601982 -3.6939919 -0.56714952
-1.2266654 -3.9056187 -0.56492937
-1.3125083 -4.178937 -0.56740779
-1.4060229 -4.4766808 -0.56822419
-1.5095177 -4.806201 -0.56760931
-1.632811 -5.1987591 -0.56814873
-1.774739 -5.6506476 -0.56781566
-1.9431592 -6.1868863 -0.56735104
-2.1528537 -6.8545394 -0.5684492
-2.4081292 -7.6673188 -0.568685
-2.7333393 -8.7027655 -0.56933457
-3.1625092 -10.069214 -0.57071292
-3.7446387 -11.922674 -0.57164311
-4.5937133 -14.62607 -0.57362586
-5.9316988 -18.886124 -0.57599592
-8.3839283 -26.693855 -0.58143318
-14.269332 -45.432583 -0.59370017
-0.60852146 -2.024224 -0.56636673
-0.62956572 -2.0942271 -0.5665164
-0.65055287 -2.1640401 -0.56540334
-0.67901659 -2.2587235 -0.56935465
-0.70180827 -2.3345394 -0.56706697
-0.72396851 -2.4082544 -0.56298363
-0.76027983 -2.5290427 -0.56821454
-0.79053313 -2.6296792 -0.56698895
-0.82607752 -2.7479165 -0.56765974
-0.85940439 -2.858777 -0.56482196
-0.90072781 -2.9962378 -0.56508863
-0.94559824 -3.1454976 -0.56509179
-0.99835575 -3.3209934 -0.56698716
-1.0484179 -3.4875236 -0.5643844
-1.112209 -3.6997221 -0.56588674
-1.1802534 -3.9260695 -0.56574547
-1.2607242 -4.1937528 -0.56727159
-1.3447492 -4.4732585 -0.56564814
-1.4458233 -4.8094778 -0.56585383
-1.5626981 -5.1982574 -0.56595117
-1.7012222 -5.6590524 -0.56651527
-1.8679118 -6.2135396 -0.56764603
-2.0656202 -6.8712096 -0.56768233
-2.3128514 -7.6936145 -0.568483
-2.6242747 -8.7295532 -0.56893295
-3.0335271 -10.090916 -0.56978565
-3.5979648 -11.968497 -0.57167572
-4.4136329 -14.681787 -0.57363915
-5.699234 -18.95829 -0.57601601
-8.0427647 -26.75396 -0.58054429
-13.679277 -45.503609 -0.59238547
-0.5757814 -2.0043824 -0.55879194
-0.60010189 -2.0890455 -0.56307602
-0.62278163 -2.1679974 -0.56439376
-0.64424556 -2.2427166 -0.56328034
-0.67101049 -2.3358893 -0.56534791
-0.69798154 -2.4297798 -0.56596649
-0.7255764 -2.5258415 -0.56544799
-0.75469065 -2.6271925 -0.56440926
-0.78845042 -2.7447155 -0.56495297
-0.82604736 -2.8755963 -0.56609535
-0.85998929 -2.9937532 -0.56258309
-0.91027939 -3.1688206 -0.56722802
-0.95244801 -3.3156161 -0.56402689
-1.0049957 -3.4985423 -0.56412506
-1.0679398 -3.7176602 -0.56657904
-1.1361963 -3.9552715 -0.56789732
-1.2045839 -4.1933393 -0.56516939
-1.2890472 -4.4873691 -0.56538534
-1.3887894 -4.8345866 -0.56675595
-1.5024837 -5.2303739 -0.56739342
-1.632048 -5.681407 -0.56670129
-1.792255 -6.2391119 -0.56792587
-1.9825548 -6.9015737 -0.56813389
-2.2183757 -7.7225022 -0.56855893
-2.5157628 -8.7577524 -0.56871164
-2.9079614 -10.123055 -0.56953824
-3.4433906 -11.986965 -0.57049227
-4.2225952 -14.699495 -0.57225907
-5.4574919 -18.998358 -0.57515091
-7.7066307 -26.827951 -0.58004969
-13.09503 -45.585785 -0.59131432
-0.55782008 -2.0358624 -0.56561309
-0.57745761 -2.107533 -0.56610233
-0.59482038 -2.1709015 -0.5632031
-0.61797023 -2.2553909 -0.56451237
-0.63962853 -2.3344369 -0.56305027
-0.66263437 -2.4184005 -0.56137556
-0.69555193 -2.5385392 -0.56633306
-0.72076136 -2.6305454 -0.56318295
-0.75382215 -2.7512066 -0.56433845
-0.79017663 -2.8838885 -0.56577224
-0.82767636 -3.0207503 -0.56570107
-0.86809659 -3.1682711 -0.56517619
-0.91613406 -3.3435924 -0.56682682
-0.96427673 -3.5192974 -0.56551701
-1.0198381 -3.7220783 -0.56529844
-1.0824406 -3.9505572 -0.56526661
-1.1542697 -4.2127099 -0.56582439
-1.2343991 -4.5051565 -0.56567121
-1.3278944 -4.846384 -0.56618202
-1.4365231 -5.2428436 -0.56678706
-1.5665478 -5.717391 -0.56832623
-1.7153802 -6.2605815 -0.56791723
-1.8970716 -6.923696 -0.56799179
-2.1206274 -7.7396026 -0.56785512
-2.4064848 -8.7828894 -0.5683794
-2.7809622 -10.14961 -0.56906533
-3.2954028 -12.027152 -0.5704332
-4.0404682 -14.746399 -0.57210761
-5.218946 -19.047461 -0.57465118
-7.3610282 -26.865366 -0.5788579
-12.508472 -45.651871 -0.59013176
-0.53243959 -2.041393 -0.56528789
-0.5483346 -2.102335 -0.56285244
-0.57246387 -2.1948476 -0.56754637
-0.59029925 -2.2632291 -0.56461477
-0.60973108 -2.3377314 -0.56199402
-0.64040691 -2.4553437 -0.56808019
-0.66440278 -2.5473447 -0.56643206
-0.69556195 -2.66681 -0.56907284
-0.7206949 -2.7631707 -0.56493205
-0.75430381 -2.8920283 -0.5655067
-0.79052454 -3.0309 -0.56573862
-0.83087653 -3.185611 -0.56640404
-0.87135941 -3.3408237 -0.56449836
-0.92051971 -3.5293062 -0.56526375
