# .PCD v0.7 - Point Cloud Data file format
VERSION 0.7
FIELDS x y z
SIZE 4 4 4
TYPE F F F
COUNT 1 1 1
WIDTH 1414
HEIGHT 1
VIEWPOINT 0 0 0 1 0 0 0
POINTS 1414
DATA ascii
-2.728379 -0.37129942 -0.5685569
-2.8461843 -0.38733128 -0.56825721
-2.970943 -0.40430942 -0.56731331
-3.1398993 -0.42730236 -0.57233906
-3.2858624 -0.44716617 -0.57052732
-3.4636381 -0.47135928 -0.5715248
-3.6541495 -0.4972856 -0.57153338
-3.8709817 -0.52679384 -0.57224095
-4.1165643 -0.56021464 -0.57331777
-4.3909822 -0.59755963 -0.57404679
-4.7017765 -0.63985497 -0.57462132
-5.053175 -0.68767607 -0.57460326
-5.4573731 -0.74268258 -0.57425165
-5.9516854 -0.80995244 -0.57584453
-6.542697 -0.89038199 -0.57768714
-7.2434359 -0.98574412 -0.57838124
-8.1405182 -1.1078261 -0.58134836
-9.2464771 -1.2583338 -0.58242863
-10.734856 -1.4608841 -0.58583391
-12.794105 -1.741123 -0.59063256
-15.822186 -2.1532085 -0.59748054
-20.673588 -2.8134255 -0.60708374
-29.861258 -4.0637565 -0.6262573
-17.230974 -2.3449273 -0.21680324
-16.633265 -2.2635863 -0.069757707
-16.778625 -2.2833681 0.070367329
-19.123377 -2.6024604 0.2406138
-19.226494 -2.6164935 0.40322256
-19.311258 -2.6280291 0.56707871
-19.33457 -2.6312015 0.73011589
-19.302431 -2.6268277 0.89108586
-19.232166 -2.6172652 1.0495582
-19.086916 -2.5974987 1.2022705
-18.908539 -2.5732238 1.3503377
-18.64472 -2.5373211 1.4887625
-18.285509 -2.4884367 1.6145182
-16.551424 -2.2524488 1.6014031
-16.722944 -2.2757907 1.7596704
-21.150059 -2.8782673 2.4050012
-2.0968223 -0.31165719 -0.56801307
-2.1556799 -0.32040539 -0.56458658
-2.2376001 -0.33258146 -0.56602174
-2.3389635 -0.34764743 -0.57082218
-2.4200749 -0.35970327 -0.56914055
-2.5171797 -0.37413624 -0.56972486
-2.6110516 -0.38808873 -0.56797498
-2.7298656 -0.4057484 -0.56986326
-2.8398407 -0.42209435 -0.56798404
-2.9819729 -0.4432199 -0.57041711
-3.1316485 -0.46546665 -0.57183516
-3.280108 -0.48753265 -0.57052588
-3.4659142 -0.51514959 -0.57290232
-3.6408505 -0.54115093 -0.5704509
-3.8632333 -0.57420439 -0.57209599
-4.1090131 -0.61073536 -0.57326865
-4.3704371 -0.64959162 -0.57236183
-4.6880155 -0.69679433 -0.57394326
-5.0467224 -0.75011009 -0.57487494
-5.4556732 -0.81089365 -0.57507849
-5.9497662 -0.88433224 -0.57666737
-6.5197787 -0.969055 -0.57667214
-7.2324057 -1.074975 -0.57851225
-8.1254673 -1.2077135 -0.58129019
-9.2282925 -1.3716297 -0.58230156
-10.724751 -1.594053 -0.58630782
-12.773802 -1.8986099 -0.5907284
-15.792445 -2.3472803 -0.59740222
-20.634094 -3.0669096 -0.60698557
-29.820421 -4.432302 -0.62649655
-53.663925 -7.9762363 -0.6763922
-16.719057 -2.4850054 -0.070240349
-16.72117 -2.4853196 0.07024923
-17.218805 -2.5592847 0.21702969
-18.626543 -2.7685211 0.39132461
-18.674175 -2.7756009 0.54933137
-18.708204 -2.7806587 0.70770061
-18.713333 -2.7814209 0.86540389
-18.649784 -2.7719755 1.0195589
-18.541023 -2.75581 1.1699312
-18.378004 -2.73158 1.3147494
-18.137638 -2.6958537 1.4508098
-17.020468 -2.5298049 1.5054543
-16.555214 -2.4606531 1.604576
-22.28117 -3.3117197 2.3486416
-21.411957 -3.1825256 2.4390476
-2.1045082 -0.33929774 -0.57118219
-2.1764586 -0.35089788 -0.57111555
-2.2438269 -0.36175931 -0.56867909
-2.3228896 -0.37450612 -0.56798023
-2.425966 -0.39112455 -0.57161385
-2.4956481 -0.40235898 -0.56592858
-2.6163597 -0.42182061 -0.57021481
-2.7339127 -0.44077301 -0.5717963
-2.8429904 -0.45835897 -0.56969821
-2.9830775 -0.48094442 -0.57171649
-3.1138139 -0.50202227 -0.56966275
-3.2713175 -0.52741569 -0.57008189
-3.4555616 -0.55712032 -0.57228017
-3.6556427 -0.58937824 -0.5738607
-3.8501465 -0.62073696 -0.57124513
-4.0921221 -0.65974933 -0.57200074
-4.3682804 -0.70427275 -0.57317024
-4.6669288 -0.75242203 -0.57245111
-5.0443816 -0.81327665 -0.57570392
-5.4436913 -0.87765497 -0.57490957
-5.9195127 -0.95436901 -0.5748291
-6.5169172 -1.050685 -0.57751811
-7.2311969 -1.1658442 -0.57951838
-8.0996923 -1.3058668 -0.58055109
-9.2286711 -1.4878855 -0.58343583
-10.692558 -1.7238997 -0.58566254
-12.747928 -2.055275 -0.59065598
-15.763476 -2.5414546 -0.59744334
-20.601086 -3.3213947 -0.6071701
-29.754004 -4.7970667 -0.62629306
-53.541878 -8.6322489 -0.67614061
-16.711201 -2.6942506 0.070341207
-16.783657 -2.7059326 0.21194836
-17.007084 -2.7419543 0.3579827
-17.327257 -2.7935741 0.51068145
-17.526236 -2.8256543 0.66425282
-18.108551 -2.9195375 0.83903235
-18.080158 -2.9149597 0.9903028
-17.47298 -2.8170681 1.1046404
-17.263731 -2.7833321 1.2373899
-16.915155 -2.727133 1.3556046
-16.648232 -2.6840985 1.4753379
-22.572556 -3.6392431 2.3838933
-21.696854 -3.498059 2.476213
-2.0810974 -0.36183086 -0.56599307
-2.1416535 -0.37235945 -0.56314141
-2.224957 -0.38684303 -0.56505948
-2.3038945 -0.40056756 -0.56449735
-2.4110799 -0.4192034 -0.56927788
-2.5031977 -0.43521947 -0.56881112
-2.6014009 -0.4522936 -0.56812382
-2.7087231 -0.47095323 -0.56769621
-2.8256397 -0.49128097 -0.56738901
-2.9635077 -0.51525146 -0.5691371
-3.0817175 -0.53580403 -0.56495339
-3.2720053 -0.56888849 -0.57137758
-3.4382291 -0.59778911 -0.570584
-3.6274321 -0.63068491 -0.57060647
-3.8518853 -0.66970962 -0.57268173
-4.0762591 -0.70872039 -0.57095838
-4.3545303 -0.75710213 -0.57254428
-4.6815586 -0.81396103 -0.5754298
-5.0255914 -0.8737765 -0.5747422
-5.4444485 -0.94660121 -0.57617527
-5.9123507 -1.0279531 -0.57531756
-6.5134449 -1.1324627 -0.57840067
-7.2164044 -1.254683 -0.57952553
-8.0942907 -1.407317 -0.58136028
-9.2101212 -1.6013215 -0.58346385
-10.683166 -1.8574328 -0.58635473
-12.72203 -2.2119207 -0.59067154
-15.713086 -2.731962 -0.59676164
-20.54517 -3.572094 -0.60677075
-29.689451 -5.1619682 -0.62622303
-53.412827 -9.2866421 -0.67590189
-16.815371 -2.9236112 0.21278673
-16.740042 -2.9105141 0.35308838
-16.816429 -2.9237955 0.49664804
-16.876629 -2.9342618 0.6409514
-16.91486 -2.9409089 0.78534067
-16.894672 -2.9373991 0.92727864
-16.826445 -2.9255366 1.0659602
-16.727571 -2.9083459 1.2014327
-16.673176 -2.8988883 1.3389676
-22.886408 -3.9791543 2.4220235
-21.970619 -3.8199308 2.5126281
-2.0713322 -0.38642922 -0.56458688
-2.1652265 -0.40394619 -0.57060277
-2.2558253 -0.4208484 -0.57416981
-2.3156817 -0.43201524 -0.56864405
-2.3987408 -0.44751081 -0.56762087
-2.5102246 -0.46830934 -0.57167321
-2.5879869 -0.48281673 -0.56644809
-2.7101681 -0.50561094 -0.56925899
-2.8331046 -0.52854604 -0.5701499
-2.9617543 -0.55254704 -0.5700621
-3.1102638 -0.58025306 -0.57145149
-3.2633011 -0.60880381 -0.57112169
-3.4206908 -0.63816655 -0.56893265
-3.6293933 -0.67710227 -0.57218146
-3.8464565 -0.71759772 -0.57314312
-4.0761786 -0.76045483 -0.57221365
-4.3400455 -0.80968201 -0.57190561
-4.6507335 -0.86764419 -0.572909
-5.0111508 -0.93488395 -0.57436198
-5.4134498 -1.0099372 -0.57416558
-5.8943782 -1.0996594 -0.57484102
-6.4887538 -1.2105466 -0.57748628
-7.2018962 -1.343591 -0.57964343
-8.065691 -1.5047412 -0.5805912
-9.1827183 -1.7131345 -0.58301824
-10.665771 -1.9898138 -0.58669853
-12.679592 -2.3655138 -0.59000713
-15.678294 -2.9249539 -0.59676117
-20.501144 -3.8247082 -0.60681361
-29.601992 -5.5225687 -0.6257633
-53.267796 -9.9376793 -0.6755619
-26.093084 -4.8679447 2.5446918
-23.204824 -4.3291092 2.4611685
-22.273394 -4.1553407 2.5529046
-2.0853326 -0.41563693 -0.56975305
-2.161963 -0.43091041 -0.57109594
-2.2221594 -0.44290841 -0.56694424
-2.2987809 -0.45818019 -0.56583458
-2.401526 -0.4786588 -0.56962967
-2.4900527 -0.49630344 -0.56842613
-2.5920939 -0.51664174 -0.56869453
-2.6997766 -0.53810447 -0.56842321
-2.8402936 -0.56611151 -0.57295424
-2.968318 -0.59162861 -0.57268238
-3.0986221 -0.61760014 -0.5706647
-3.2436981 -0.64651585 -0.56903923
-3.4181805 -0.68129271 -0.56986547
-3.6202056 -0.72155923 -0.57208854
-3.820842 -0.76154894 -0.57067859
-4.0663581 -0.81048387 -0.57219082
-4.3360167 -0.86423069 -0.57273179
-4.6576972 -0.92834634 -0.57512963
-4.9953752 -0.99565041 -0.57391369
-5.4071608 -1.0777252 -0.57486063
-5.8987269 -1.1757014 -0.57663143
-6.4625192 -1.2880733 -0.57651746
-7.1791096 -1.4309002 -0.57918179
-8.0439892 -1.603283 -0.58040428
-9.1748419 -1.8286784 -0.58390176
-10.636653 -2.1200385 -0.58648652
-12.660683 -2.5234568 -0.59052652
-15.628528 -3.1149912 -0.59627974
-20.442469 -4.0744791 -0.60651398
-29.532522 -5.8862581 -0.6257776
-53.11274 -10.586136 -0.67519528
-23.507267 -4.6853375 2.4991682
-22.570225 -4.4985714 2.5930707
-2.0653205 -0.43811813 -0.56571448
-2.1565309 -0.45746666 -0.57110381
-2.2221584 -0.47138825 -0.56837988
-2.3028572 -0.48850694 -0.56827354
-2.3779826 -0.50444335 -0.56547379
-2.4912152 -0.52846348 -0.57013184
-2.604722 -0.55254179 -0.5729124
-2.6929188 -0.57125103 -0.56841528
-2.8185682 -0.59790516 -0.57001173
-2.9411039 -0.6238988 -0.56886905
-3.0784168 -0.65302706 -0.56837946
-3.243597 -0.68806684 -0.57046264
-3.4201481 -0.72551876 -0.57163757
-3.6176946 -0.76742446 -0.57313961
-3.8128064 -0.80881369 -0.57092071
-4.0587597 -0.86098796 -0.57256806
-4.338316 -0.92029047 -0.57448679
-4.6307993 -0.98233521 -0.57325649
-4.9896846 -1.0584658 -0.5747118
-5.4154601 -1.1487859 -0.57720119
-5.8843899 -1.2482604 -0.5766868
-6.4336691 -1.3647794 -0.57539737
-7.1604514 -1.5189524 -0.57913959
-8.0300226 -1.7034152 -0.58086401
-9.1390619 -1.9386766 -0.5830977
-10.600174 -2.2486234 -0.58595544
-12.626542 -2.6784785 -0.59042567
-15.595784 -3.3083465 -0.59653753
-20.411058 -4.3298144 -0.60711581
-29.435558 -6.2441888 -0.62530261
-52.957787 -11.233978 -0.67493051
-27.702097 -5.8764682 2.4775465
-23.853285 -5.0600166 2.5423775
-22.892494 -4.8562031 2.6367571
-2.0604074 -0.46362096 -0.56588745
-2.1380932 -0.48110136 -0.56774479
-2.2303486 -0.50186014 -0.57200998
-2.2995021 -0.51742071 -0.56897271
-2.3946004 -0.53881913 -0.57095778
-2.4845707 -0.55906373 -0.57014138
-2.5934768 -0.58356917 -0.5719741
-2.6778593 -0.60255647 -0.56675768
-2.8097577 -0.63223547 -0.56975913
-2.9340596 -0.66020513 -0.56903374
-3.0728946 -0.69144499 -0.56888664
-3.2416663 -0.72942102 -0.5716573
-3.4128954 -0.76795 -0.57196045
-3.5982311 -0.80965316 -0.57159013
-3.8143203 -0.85827631 -0.57268441
-4.0458164 -0.91036618 -0.57227802
-4.3143744 -0.97079563 -0.57285392
-4.6181607 -1.0391518 -0.57323039
-4.9709649 -1.1185378 -0.57409644
-5.3826375 -1.21117 -0.57524669
-5.8586159 -1.3182719 -0.57570601
-6.4426184 -1.4496807 -0.57774836
-7.1436777 -1.607429 -0.57933778
-8.0116787 -1.8027416 -0.58109665
-9.1233234 -2.0528774 -0.58366001
-10.559978 -2.3761451 -0.58530432
-12.594144 -2.8338614 -0.59049547
-15.545034 -3.4978538 -0.59619641
-20.329519 -4.5744309 -0.60631776
-29.372606 -6.6092544 -0.62564451
-52.78685 -11.877792 -0.67456239
-26.683424 -6.0041499 2.3928633
-26.61702 -5.9892077 2.6155627
-24.182533 -5.4414139 2.5844064
-23.202705 -5.2209387 2.6796789
-2.0557466 -0.4892042 -0.56621671
-2.1498637 -0.51160121 -0.57249749
-2.2075946 -0.52533937 -0.56778812
-2.2979846 -0.54684937 -0.57021791
-2.3725522 -0.56459415 -0.56731319
-2.4792848 -0.58999318 -0.57055002
-2.5744483 -0.61263919 -0.56939584
-2.6777267 -0.63721627 -0.56834501
-2.796999 -0.66559941 -0.56878853
-2.9136956 -0.69336957 -0.56669503
-3.0681982 -0.73013639 -0.56963629
-3.2370002 -0.77030611 -0.57246155
-3.4011092 -0.80935901 -0.57160991
-3.5803463 -0.85201192 -0.57037026
-3.8014965 -0.90463883 -0.57238597
-4.0372963 -0.96075183 -0.57270068
-4.2959237 -1.0222973 -0.57202995
-4.6089859 -1.0967963 -0.57372224
-4.9752326 -1.1839517 -0.57622713
-5.3582506 -1.2750982 -0.57427269
-5.8341355 -1.388344 -0.57493448
-6.4151497 -1.5266075 -0.57692486
-7.1141467 -1.6929473 -0.57858735
-7.9771891 -1.8983247 -0.5802443
-9.0856571 -2.1621058 -0.58290708
-10.539807 -2.5081487 -0.58585149
-12.545944 -2.9855473 -0.5899123
-15.499218 -3.6883354 -0.59613365
-20.274931 -4.8248076 -0.6064133
-29.282001 -6.9682121 -0.62549239
-52.595013 -12.515988 -0.67402667
-26.088615 -6.2082849 2.3461916
-25.916437 -6.1673117 2.553978
-24.535011 -5.8385749 2.6295497
-23.543228 -5.6025615 2.7267563
-2.0617325 -0.51749498 -0.56957501
-2.1360061 -0.53613764 -0.57051975
-2.1904273 -0.54979742 -0.56506884
-2.2997327 -0.57723308 -0.57236969
-2.3830142 -0.59813672 -0.57153034
-2.4672654 -0.61928374 -0.56949347
-2.5615075 -0.64293855 -0.56823933
-2.6657863 -0.66911256 -0.56751406
-2.7960954 -0.70182014 -0.57031661
-2.9264688 -0.73454392 -0.57089293
-3.0672655 -0.76988387 -0.57117754
-3.2017305 -0.80363452 -0.56792879
-3.3950448 -0.85215646 -0.57230848
-3.556875 -0.89277583 -0.56833702
-3.778192 -0.94832641 -0.57058966
-4.0368152 -1.0132408 -0.57435638
-4.2836103 -1.0751865 -0.57210749
-4.5879865 -1.1515849 -0.57282764
-4.9455199 -1.2413259 -0.57451022
-5.3562484 -1.3444188 -0.57578635
-5.8110476 -1.4585733 -0.57438332
-6.4075317 -1.6082909 -0.57797462
-7.091773 -1.7800355 -0.57850415
-7.9476895 -1.9948705 -0.57983899
-9.058733 -2.2737424 -0.58292937
-10.502592 -2.6361513 -0.58554047
-12.506134 -3.1390405 -0.58981073
-15.458557 -3.8800988 -0.59635973
-20.211885 -5.073185 -0.60634762
-29.176868 -7.3233957 -0.62512296
-52.400791 -13.152601 -0.67355937
-25.403637 -6.3763146 2.5109801
-24.894861 -6.2486119 2.6761494
-23.911705 -6.0018396 2.7777705
-2.0541599 -0.54252762 -0.56928295
-2.122025 -0.56045163 -0.56858319
-2.2020941 -0.58159876 -0.56988031
-2.2809072 -0.60241425 -0.56948483
-2.3668783 -0.62512022 -0.56946087
-2.4522409 -0.6476655 -0.56782085
-2.5589175 -0.67584008 -0.56946528
-2.6660917 -0.70414597 -0.56937933
-2.7783957 -0.73380679 -0.56850392
-2.9139812 -0.76961654 -0.57025987
-3.0526228 -0.80623341 -0.57025385
-3.2145329 -0.84899569 -0.57200825
-3.376488 -0.89176995 -0.57098562
-3.5661728 -0.94186795 -0.57163
-3.7915134 -1.0013831 -0.57441765
-4.011951 -1.0596032 -0.57262921
-4.2729893 -1.1285464 -0.5724991
-4.5762615 -1.2086442 -0.57317597
-4.9227972 -1.3001683 -0.57368445
-5.3243775 -1.4062303 -0.57417572
-5.812489 -1.5351464 -0.57634807
-6.3610072 -1.6800164 -0.57559788
-7.0707178 -1.8674592 -0.57861602
-7.9420753 -2.097595 -0.58126718
-9.0365171 -2.3866498 -0.58334422
-10.47142 -2.7656245 -0.58565426
-12.453815 -3.2891982 -0.58920622
-15.409729 -4.0698895 -0.59636158
-20.134615 -5.3177872 -0.60594535
-29.065842 -7.6766286 -0.62471944
-52.19701 -13.785841 -0.67306805
-25.26008 -6.6714826 2.7240226
-24.275036 -6.4113212 2.8289223
-2.0478899 -0.5678978 -0.56943756
-2.1207349 -0.58809841 -0.57013202
-2.1959889 -0.60896701 -0.5701952
-2.255944 -0.62559307 -0.56513011
-2.347451 -0.65096873 -0.56666976
-2.4422746 -0.67726415 -0.56739855
-2.5423791 -0.705024 -0.56767118
-2.6644709 -0.73888111 -0.57093036
-2.7727249 -0.76890093 -0.56923515
-2.9096832 -0.80688065 -0.57131726
-3.0439062 -0.84410191 -0.57052135
-3.182384 -0.88250297 -0.56817561
-3.3625998 -0.93247837 -0.57053292
-3.5360324 -0.98057276 -0.56868851
-3.7635405 -1.0436628 -0.57208079
-3.9919264 -1.1069962 -0.57167077
-4.2385097 -1.1753759 -0.5697729
-4.5519762 -1.2623029 -0.57203507
-4.9030967 -1.3596716 -0.57329363
-5.3341465 -1.4792056 -0.57714701
-5.7870517 -1.6048002 -0.57573897
-6.3574567 -1.7629784 -0.57719457
-7.0441723 -1.9534106 -0.57836562
-7.9071379 -2.1927187 -0.58063966
-9.0033617 -2.4967113 -0.58314174
-10.44226 -2.8957303 -0.58597052
-12.428268 -3.4464679 -0.58995801
-15.341237 -4.2542596 -0.59569037
-20.058037 -5.5622697 -0.60565341
-28.954504 -8.0293379 -0.62440133
-52.001122 -14.420367 -0.67277777
-25.639355 -7.1100178 2.7741416
-24.671265 -6.841558 2.8846831
-2.0442827 -0.59406066 -0.57042259
-2.1087823 -0.612804 -0.56890148
-2.1839612 -0.63465071 -0.56905544
-2.2571774 -0.65592706 -0.56741667
-2.3490129 -0.68261409 -0.56902999
-2.4178421 -0.70261562 -0.56368691
-2.55018 -0.74107242 -0.5714044
-2.6437614 -0.76826686 -0.56847411
-2.7680614 -0.80438799 -0.57026523
-2.8934824 -0.84083486 -0.57012326
-3.0291846 -0.88026935 -0.56974775
-3.1787796 -0.9237411 -0.56951696
-3.3531833 -0.9744221 -0.57092506
-3.5360477 -1.0275618 -0.5706799
-3.7433028 -1.0877894 -0.57099456
-3.9987977 -1.1620351 -0.57465762
-4.2566972 -1.2369798 -0.57421905
-4.5547819 -1.3236021 -0.57438958
-4.8910098 -1.4213086 -0.57388055
-5.2958512 -1.5389539 -0.57500756
-5.7737169 -1.6778198 -0.57642126
-6.3433814 -1.8433622 -0.57793099
-7.0235424 -2.0410144 -0.57868874
-7.8778133 -2.2892623 -0.58050948
-8.9714127 -2.607058 -0.58310467
-10.382402 -3.0170863 -0.58464926
-12.371469 -3.5951011 -0.58931571
-15.31523 -4.4505467 -0.59676045
-19.990231 -5.8090839 -0.60571706
-28.843161 -8.381711 -0.62417555
-51.778355 -15.046591 -0.67223859
-26.037123 -7.5662875 2.8270326
-25.099022 -7.2936792 2.9449625
-2.011127 -0.61134005 -0.5632261
-2.1141465 -0.64265579 -0.57243723
-2.16524 -0.65818709 -0.56624341
-2.2529457 -0.68484777 -0.56842685
-2.3364458 -0.71023005 -0.56805837
-2.4328709 -0.73954123 -0.56926775
-2.5393727 -0.77191556 -0.57106656
-2.6311007 -0.79979891 -0.56782353
-2.7564771 -0.83791071 -0.56995827
-2.8706598 -0.87261981 -0.56769764
-3.0256271 -0.91972661 -0.57116264
-3.1681082 -0.96303779 -0.56968361
-3.3364582 -1.0142127 -0.57015771
-3.5135374 -1.068041 -0.56912351
-3.728193 -1.1332917 -0.57077229
-3.9708848 -1.2070649 -0.57273602
-4.2412457 -1.2892489 -0.57422984
-4.5217776 -1.3745246 -0.57231569
-4.8789568 -1.4830996 -0.57456267
-5.2797141 -1.6049212 -0.5753547
-5.7474852 -1.7471138 -0.57590365
-6.3114161 -1.9185369 -0.57712436
-6.986165 -2.1236463 -0.57771695
-7.8490195 -2.3859358 -0.58050573
-8.9284792 -2.7140687 -0.58243924
-10.364055 -3.1504533 -0.58575326
-12.333209 -3.7490342 -0.58964455
-15.223876 -4.6277361 -0.59537309
-19.904064 -6.0504136 -0.60531467
-28.728655 -8.7329025 -0.62397432
-51.565674 -15.674873 -0.67192894
-26.43812 -8.0366287 2.8810835
-25.614607 -7.7862983 3.016464
-2.0118005 -0.63867003 -0.56557131
-2.0895951 -0.66336691 -0.56795532
-2.1600246 -0.68572557 -0.56704175
-2.2449543 -0.71268749 -0.56857872
-2.3349493 -0.74125749 -0.56986755
-2.4254618 -0.76999176 -0.56970644
-2.5218422 -0.80058891 -0.56929499
-2.6253405 -0.83344561 -0.56874913
-2.7393858 -0.86965072 -0.56859243
-2.8636384 -0.90909618 -0.56847686
-3.0100074 -0.95556271 -0.57038897
-3.1648595 -1.0047225 -0.57127786
-3.3044243 -1.0490289 -0.566845
-3.5275722 -1.1198698 -0.57358408
-3.7319455 -1.1847507 -0.57353377
-3.9421568 -1.2514848 -0.57076889
-4.2180753 -1.3390783 -0.57327878
-4.4911394 -1.4257659 -0.57061374
-4.8616395 -1.5433854 -0.57471478
-5.254024 -1.6679527 -0.57474679
-5.7193089 -1.8156627 -0.57527399
-6.2948537 -1.9983764 -0.57781321
-6.961482 -2.2100055 -0.57787937
-7.8049359 -2.4777701 -0.57945496
-8.9082632 -2.8280344 -0.58334488
-10.307745 -3.2723165 -0.58480072
-12.280015 -3.8984373 -0.58934867
-15.166776 -4.8148737 -0.59541047
-19.825865 -6.2939572 -0.60524446
-28.614096 -9.0838861 -0.62386501
-51.314098 -16.290272 -0.67121023
-26.834612 -8.5189676 2.9354846
-2.0129738 -0.66639638 -0.56816179
-2.090147 -0.69194466 -0.57037479
-2.1474071 -0.7109006 -0.56598145
-2.2365367 -0.74040705 -0.56870961
-2.3323934 -0.77214044 -0.57151777
-2.4027591 -0.79543513 -0.56662852
-2.506892 -0.82990837 -0.5681808
-2.6098189 -0.86398244 -0.56764525
-2.7320533 -0.90444815 -0.56933582
-2.8639364 -0.94810814 -0.57080716
-2.9960988 -0.99186063 -0.57002145
-3.1411057 -1.0398653 -0.56925517
-3.3136175 -1.0969754 -0.57069278
-3.4974322 -1.1578274 -0.5709551
-3.6912808 -1.2220012 -0.56955057
-3.9327958 -1.3019547 -0.57168829
-4.1926632 -1.387984 -0.57210135
-4.4955068 -1.4882407 -0.57345033
-4.8327565 -1.5998875 -0.57358271
-5.2338252 -1.7326615 -0.57482439
-5.6932168 -1.8847435 -0.57493722
-6.250041 -2.0690806 -0.57599163
-6.9203901 -2.2910001 -0.57676321
-7.7847362 -2.5771425 -0.58026415
-8.8523827 -2.9305875 -0.58200139
-10.273215 -3.400955 -0.58517003
-12.228859 -4.0483723 -0.58923817
-15.103124 -4.9998999 -0.59528017
-19.759346 -6.5413456 -0.60562348
-28.478851 -9.4279442 -0.62339681
-51.069218 -16.9065 -0.67067564
-27.257517 -9.0236197 2.9936585
-2.020978 -0.6967333 -0.57279587
-2.0722961 -0.71442533 -0.56785792
-2.1603785 -0.74479169 -0.57177085
-2.2193623 -0.76512647 -0.56669205
-2.3158085 -0.79837632 -0.56981641
-2.3982363 -0.82679331 -0.56791651
-2.4908173 -0.85871065 -0.56688786
-2.6129296 -0.90080899 -0.57068789
-2.7328231 -0.94214237 -0.57186729
-2.84741 -0.98164624 -0.56987607
-2.9828706 -1.0283463 -0.56986743
-3.1248496 -1.0772936 -0.56866682
-3.3053339 -1.1395158 -0.57163614
-3.4800699 -1.199756 -0.57048595
-3.6917899 -1.2727467 -0.57200062
-3.9119716 -1.3486544 -0.57102871
-4.1733365 -1.4387602 -0.57183504
-4.4845843 -1.5460629 -0.57443869
-4.8106918 -1.6584888 -0.57334101
-5.2227612 -1.80055 -0.57599735
-5.684772 -1.9598284 -0.57647449
-6.238606 -2.150763 -0.57733142
-6.9032936 -2.3799143 -0.57773364
-7.7487564 -2.6713881 -0.57998687
-8.8133354 -3.0384023 -0.58184654
-10.233834 -3.5281203 -0.58535379
-12.182807 -4.2000294 -0.58946306
-15.045712 -5.1870179 -0.59548628
-19.649399 -6.7741413 -0.604761
-28.351053 -9.7740421 -0.62318307
-50.816505 -17.519018 -0.67013526
-27.680435 -9.5428457 3.0527639
-1.9974519 -0.71622056 -0.5685811
-2.0622966 -0.73947167 -0.56756651
-2.1387787 -0.76689565 -0.56850702
-2.224993 -0.79780924 -0.57059163
-2.3081286 -0.82761896 -0.57038766
-2.3955569 -0.85896784 -0.56974018
-2.4948623 -0.89457554 -0.57026893
-2.5982277 -0.93163896 -0.56993586
-2.7159967 -0.973867 -0.57080889
-2.8385301 -1.0178034 -0.57056051
-2.9844151 -1.0701129 -0.57263309
-3.1194367 -1.1185274 -0.57014167
-3.288281 -1.1790694 -0.57115114
-3.4704974 -1.2444061 -0.57138193
-3.6627085 -1.3133267 -0.56995386
-3.9138718 -1.4033855 -0.57378161
-4.1652298 -1.4935143 -0.57319731
-4.4615855 -1.5997777 -0.57396913
-4.8017979 -1.7217667 -0.57476085
-5.1813521 -1.8578624 -0.5739066
-5.653275 -2.0270784 -0.5757646
-6.1995778 -2.2229645 -0.57620573
-6.8763938 -2.4656484 -0.57797605
-7.7177911 -2.7673459 -0.5801723
-8.7887516 -3.1513572 -0.5827378
-10.17448 -3.6482339 -0.58448064
-12.108084 -4.3415604 -0.58838624
-14.974202 -5.369256 -0.59522408
-19.568316 -7.0165539 -0.60487515
-28.209476 -10.11499 -0.62275797
-50.562885 -18.130186 -0.66968006
-29.679739 -10.642178 2.7585163
-29.608101 -10.61649 3.0154727
-28.102955 -10.076795 3.112792
-29.626646 -10.62314 3.5462208
-1.9828492 -0.7386232 -0.56696689
-2.0631704 -0.7685433 -0.57036471
-2.1288779 -0.79301977 -0.56842434
-2.2030437 -0.82064694 -0.56750768
-2.2883317 -0.85241723 -0.5680427
-2.3825057 -0.8874976 -0.56918859
-2.4724433 -0.92099994 -0.56769019
-2.5729032 -0.95842177 -0.56692308
-2.6948943 -1.0038643 -0.5689252
-2.8285959 -1.0536689 -0.57112485
-2.9461424 -1.0974557 -0.56783599
-3.1174994 -1.1612871 -0.5723542
-3.2699928 -1.2180918 -0.5705331
-3.4604776 -1.2890486 -0.57229871
-3.6524174 -1.3605473 -0.57091266
-3.8884342 -1.448465 -0.57262027
-4.1461978 -1.5444834 -0.57314843
-4.4193931 -1.6462504 -0.5711022
-4.7690663 -1.7765057 -0.57341439
-5.1639409 -1.9235988 -0.57455456
-5.6475639 -2.1037514 -0.57777393
-6.1787682 -2.3016281 -0.57685846
-6.8545151 -2.5533478 -0.57873237
-7.6743903 -2.8587563 -0.57950848
-8.7374601 -3.2547562 -0.58194661
-10.143439 -3.7784917 -0.58532226
-12.061864 -4.4931164 -0.58878046
-14.894145 -5.5481582 -0.59470874
-19.469997 -7.2526908 -0.60454708
-28.066105 -10.454792 -0.62238383
-50.280724 -18.72987 -0.66894275
-1.9806676 -0.76567292 -0.5689922
-2.0414417 -0.78916657 -0.56699765
-2.1193888 -0.81929886 -0.56853765
-2.1976054 -0.84953523 -0.56875479
-2.2880607 -0.88450283 -0.57063216
-2.3731573 -0.91739893 -0.5696072
-2.4747531 -0.95667315 -0.57087839
-2.5734367 -0.99482155 -0.56969303
-2.6761973 -1.034546 -0.56762075
-2.8169754 -1.0889671 -0.57143903
-2.9510674 -1.1408035 -0.5714457
-3.1035156 -1.1997358 -0.57245207
-3.264817 -1.2620906 -0.57229453
-3.4416602 -1.3304535 -0.57184905
-3.6466177 -1.4096845 -0.57267231
-3.8738873 -1.4975408 -0.57314652
-4.1224661 -1.5936347 -0.57253343
-4.4186535 -1.7081329 -0.5736776
-4.7497869 -1.8361402 -0.57376766
-5.1418967 -1.9877193 -0.57477796
-5.6017361 -2.1654806 -0.57576609
-6.1631422 -2.3825052 -0.57809103
-6.8162589 -2.6349826 -0.57819432
-7.6372881 -2.9523704 -0.57940435
-8.7066021 -3.3657384 -0.58260375
-10.087196 -3.8994393 -0.58479947
-12.004387 -4.6405735 -0.58871573
-14.829301 -5.7326097 -0.59488922
-19.363417 -7.4853768 -0.60405004
-27.941231 -10.80133 -0.622513
-49.998955 -19.328253 -0.66830552
-1.9732451 -0.79082674 -0.56961042
-2.0426307 -0.81863475 -0.57008064
-2.1172574 -0.84854317 -0.57072169
-2.1895089 -0.87749976 -0.56940889
-2.2667449 -0.908454 -0.56805915
-2.3594992 -0.94562757 -0.5690769
-2.4646323 -0.98776227 -0.57130235
-2.5593231 -1.025712 -0.5693177
-2.6631339 -1.0673167 -0.56759071
-2.7932231 -1.1194532 -0.56937009
-2.941499 -1.1788783 -0.57235658
-3.0839682 -1.2359763 -0.57160664
-3.2487023 -1.3019977 -0.5722329
-3.4152162 -1.3687322 -0.57020861
-3.6216149 -1.4514515 -0.57150549
-3.8497379 -1.5428776 -0.57233721
-4.1016936 -1.643855 -0.57241255
-4.3940148 -1.7610101 -0.57324678
-4.7110786 -1.8880811 -0.57185298
-5.125299 -2.0540903 -0.57570249
-5.5698442 -2.2322526 -0.57526594
-6.1306653 -2.4570155 -0.57783496
-6.7927761 -2.7223728 -0.57899821
-7.5973053 -3.0448077 -0.57916766
-8.6490355 -3.4663146 -0.5815599
-10.029397 -4.0195284 -0.58426982
-11.945597 -4.7874928 -0.58867514
-14.745391 -5.9095798 -0.59439325
-19.274811 -7.7248564 -0.60420346
-27.772934 -11.13069 -0.62176573
-49.713436 -19.923887 -0.66771334
-1.9486353 -0.80891144 -0.56533492
-2.0278623 -0.84179991 -0.5688048
-2.1002557 -0.87185168 -0.56898564
-2.180609 -0.90520763 -0.56994593
-2.2540946 -0.93571281 -0.56772941
-2.3545451 -0.97741157 -0.57073766
-2.436553 -1.0114543 -0.56763363
-2.5457828 -1.0567975 -0.56915331
-2.6493812 -1.0998029 -0.56749898
-2.7748201 -1.1518748 -0.56846303
-2.9130065 -1.2092383 -0.56966275
-3.052176 -1.2670099 -0.56855869
-3.2286921 -1.3402847 -0.57156801
-3.392519 -1.4082921 -0.56926733
-3.6085496 -1.49797 -0.57230717
-3.8271773 -1.588726 -0.57184428
-4.0782423 -1.6929473 -0.5720017
-4.3700209 -1.8140695 -0.57298326
-4.6941667 -1.9486279 -0.57266539
-5.0779467 -2.1079416 -0.57325178
-5.5420532 -2.3006001 -0.57527393
-6.0756979 -2.522125 -0.57553375
-6.7429957 -2.7991316 -0.57764518
-7.5561805 -3.1366985 -0.57892919
-8.6063099 -3.5726247 -0.58159697
-9.9793825 -4.1426105 -0.5842796
-11.884665 -4.9335251 -0.58861744
-14.660745 -6.0859227 -0.59395289
-19.165003 -7.9557171 -0.6037823
-27.627569 -11.468671 -0.62162155
-49.42305 -20.516344 -0.66715109
-1.9457307 -0.83589816 -0.56743133
-2.0212808 -0.86835492 -0.56991071
-2.0901027 -0.89792132 -0.56918323
-2.1676011 -0.93121505 -0.56949586
-2.2398143 -0.96223831 -0.56706989
-2.3347056 -1.0030042 -0.56887513
-2.4305575 -1.0441829 -0.56918514
-2.5482335 -1.0947372 -0.57266748
-2.6442213 -1.135974 -0.56934279
-2.7716 -1.1906968 -0.57075965
-2.9084489 -1.249488 -0.57173288
-3.0414689 -1.3066342 -0.5695141
-3.1995506 -1.3745471 -0.56935829
-3.3860645 -1.4546747 -0.57114261
-3.5881224 -1.5414799 -0.57203037
-3.8066106 -1.6353439 -0.5717327
-4.0543118 -1.7417578 -0.57160604
-4.3396106 -1.864324 -0.57195854
-4.686584 -2.013386 -0.57471722
-5.0641565 -2.1755936 -0.57467163
-5.5045342 -2.3647826 -0.57435435
-6.055233 -2.6013663 -0.57658166
-6.7079492 -2.8817773 -0.57763487
-7.5142622 -3.2281744 -0.57871509
-8.5549116 -3.6752441 -0.58113366
-9.9355936 -4.2683935 -0.58474457
-11.816214 -5.0763197 -0.58827436
-14.60399 -6.2739658 -0.59473407
-19.067726 -8.1916151 -0.60384536
-27.47798 -11.804713 -0.62147486
-49.130161 -21.106627 -0.66665047
-1.9385707 -0.86120921 -0.56838864
-1.9951923 -0.88636333 -0.5655852
-2.082051 -0.9249503 -0.57004482
-2.1589999 -0.95913482 -0.57029164
-2.2389293 -0.99464345 -0.56989932
-2.3187575 -1.0301071 -0.56803268
-2.4070239 -1.0693194 -0.56671035
-2.517941 -1.1185942 -0.56890792
-2.6277397 -1.1673722 -0.56884181
-2.7504332 -1.2218788 -0.56945175
-2.8733211 -1.2764717 -0.56787014
-3.0214865 -1.3422941 -0.56882006
-3.183785 -1.4143951 -0.56960464
-3.3667295 -1.4956682 -0.57094026
-3.5693624 -1.5856878 -0.57210487
-3.7828119 -1.6805125 -0.57121873
-4.0332065 -1.7917502 -0.57169348
-4.3343663 -1.9255403 -0.57434458
-4.6412511 -2.0618739 -0.5722239
-5.0463901 -2.2418568 -0.57574022
-5.4851594 -2.4367797 -0.57541573
-6.0161548 -2.6726744 -0.57594645
-6.6736064 -2.9647467 -0.57777309
-7.4957128 -3.3299673 -0.58039618
-8.5212231 -3.7855496 -0.58196324
-9.8816566 -4.3899217 -0.58470291
-11.757757 -5.2233791 -0.58851725
-14.511018 -6.4465137 -0.59413117
-18.947666 -8.4174919 -0.60327542
-27.283953 -12.120885 -0.62041056
-48.815819 -21.686407 -0.66595322
-1.9341168 -0.88786358 -0.57024068
-1.9976758 -0.91704047 -0.56944269
-2.0525916 -0.94224977 -0.5651086
-2.1341724 -0.97969979 -0.56687284
-2.2186186 -1.0184652 -0.56787419
-2.3067186 -1.0589077 -0.56823027
-2.4013898 -1.1023669 -0.56853235
-2.5059047 -1.1503448 -0.56934136
-2.6105387 -1.1983776 -0.5682652
-2.7297807 -1.253116 -0.56832319
-2.8693068 -1.317166 -0.57023466
-3.0107291 -1.3820864 -0.56995118
-3.1657219 -1.4532363 -0.56952697
-3.3529758 -1.539196 -0.5717743
-3.5480008 -1.628723 -0.5718478
-3.7663133 -1.7289401 -0.57189447
-4.0134792 -1.8424027 -0.57206529
-4.283967 -1.966571 -0.57082736
-4.6290874 -2.1249998 -0.57390243
-5.004952 -2.2975419 -0.57419235
-5.4564385 -2.5047984 -0.57559031
-5.9989367 -2.7538342 -0.57749617
-6.6424084 -3.0492222 -0.57827455
-7.4502282 -3.4200552 -0.58008677
-8.4618464 -3.8844421 -0.58112627
-9.8182583 -4.5071082 -0.58418679
-11.697417 -5.3697429 -0.58875746
-14.426444 -6.6225128 -0.59395766
-18.841961 -8.6494722 -0.60325068
-27.148041 -12.462409 -0.62075776
-48.484695 -22.25708 -0.66511935
-1.9142038 -0.90738225 -0.56761634
-1.9864233 -0.94161618 -0.56949264
-2.0502086 -0.971852 -0.56769967
-2.1416371 -1.0151916 -0.57212806
-2.2104979 -1.0478333 -0.56905055
-2.2826533 -1.082037 -0.56553692
-2.3842497 -1.1301962 -0.56772166
-2.4836383 -1.177309 -0.56752867
-2.6005073 -1.232708 -0.56933808
-2.7200911 -1.2893938 -0.56956369
-2.855093 -1.3533882 -0.57067406
-3.0078516 -1.4257997 -0.57268214
-3.1484799 -1.4924612 -0.56968361
-3.3236306 -1.5754871 -0.57003063
-3.5130994 -1.6653003 -0.56947994
-3.7417414 -1.7736826 -0.57143188
-3.9891016 -1.8909377 -0.57186157
-4.2804351 -2.0290372 -0.57363796
-4.5940495 -2.1776989 -0.57283509
-4.9714379 -2.3565905 -0.5736286
-5.4243479 -2.5712817 -0.57549697
-5.969141 -2.8295276 -0.57793361
-6.5908303 -3.1242244 -0.57708514
-7.3938503 -3.5048769 -0.57900894
-8.4134007 -3.9881704 -0.58112323
-9.7560263 -4.6246095 -0.58382332
-11.612774 -5.5047565 -0.58785969
-14.345777 -6.8002706 -0.59403431
-18.722965 -8.8751707 -0.6028893
-26.964418 -12.781834 -0.62010604
-48.159798 -22.828993 -0.66446298
-1.9052385 -0.93199265 -0.56831324
-1.9772741 -0.96723056 -0.57023627
-2.0512967 -1.0034405 -0.57137442
-2.1191373 -1.0366263 -0.56947958
-2.1930392 -1.0727772 -0.56790906
-2.2762175 -1.1134658 -0.56729168
-2.3743918 -1.1614901 -0.5687322
-2.4860327 -1.2161019 -0.57144958
-2.5910804 -1.2674885 -0.57064331
-2.7105124 -1.3259115 -0.57092875
-2.8351617 -1.3868866 -0.57005578
-2.980412 -1.4579393 -0.57082796
-3.1283162 -1.5302901 -0.56939691
-3.3124321 -1.6203548 -0.57148403
-3.5030835 -1.7136165 -0.57122886
-3.7181227 -1.818808 -0.57119727
-3.9740934 -1.9440222 -0.57309359
-4.2516537 -2.0797973 -0.57316476
-4.5646453 -2.2329044 -0.57254899
-4.9583468 -2.425493 -0.57551593
-5.3867331 -2.6350484 -0.57490045
-5.9244056 -2.8980637 -0.57700896
-6.5550394 -3.206553 -0.57736003
-7.348002 -3.5944495 -0.57883602
-8.3618507 -4.0903978 -0.58099276
-9.7063866 -4.7481093 -0.58430254
-11.540647 -5.645381 -0.58767813
-14.264824 -6.9779773 -0.5941903
-18.591183 -9.0943184 -0.60220122
-26.808189 -13.113862 -0.62017471
-47.830074 -23.397217 -0.66383308
-1.8847166 -0.95084876 -0.56563663
-1.950087 -0.98382837 -0.56584179
-2.020571 -1.019388 -0.56626469
-2.0969257 -1.0579091 -0.56696355
-2.1773343 -1.0984758 -0.56729716
-2.2619324 -1.1411558 -0.56718576
-2.3552256 -1.1882228 -0.56759816
-2.4685705 -1.2454058 -0.57091266
-2.5724235 -1.2978002 -0.57000589
-2.6781268 -1.351128 -0.56756383
-2.8300903 -1.4277943 -0.57252294
-2.9602523 -1.4934617 -0.57044095
-3.1153884 -1.5717286 -0.57051843
-3.2923124 -1.6609876 -0.57149339
-3.4808547 -1.7561082 -0.57108223
-3.6952133 -1.864253 -0.57115626
-3.9472256 -1.9913945 -0.572707
-4.2184124 -2.1282096 -0.57216817
-4.5349784 -2.2879186 -0.57231337
-4.9158459 -2.480068 -0.5740791
-5.3523011 -2.7002621 -0.57472593
-5.8876405 -2.9703434 -0.57694197
-6.5142436 -3.2864676 -0.57728261
-7.2906523 -3.6781695 -0.57783753
-8.3074617 -4.191155 -0.58075064
-9.6416941 -4.8642817 -0.58396471
-11.472831 -5.7880988 -0.58780468
-14.156116 -7.1418295 -0.59327537
-18.483669 -9.3251019 -0.60238743
-26.602905 -13.421295 -0.61919683
-47.476101 -23.951923 -0.66295785
-1.8790098 -0.97713655 -0.56748706
-1.9394615 -1.0085731 -0.5663144
-2.0281804 -1.0547093 -0.57198858
-2.1035151 -1.0938855 -0.57233882
-2.1689637 -1.1279205 -0.56868684
-2.2499769 -1.1700497 -0.56775272
-2.3494232 -1.2217644 -0.56977737
-2.4604721 -1.2795129 -0.57263517
-2.5503085 -1.3262303 -0.56867617
-2.6620717 -1.3843503 -0.56772602
-2.8051567 -1.4587584 -0.57106447
-2.9264479 -1.5218331 -0.56748998
-3.0971956 -1.6106266 -0.57077056
-3.2740843 -1.7026135 -0.57192022
-3.4603491 -1.7994764 -0.57130504
-3.6787565 -1.9130541 -0.57220531
-3.9185879 -2.0377731 -0.57214427
-4.1998591 -2.184042 -0.57325101
-4.5187707 -2.3498845 -0.57387114
-4.8986101 -2.5474114 -0.57568085
-5.3143177 -2.7635908 -0.57425284
-5.8317542 -3.0326719 -0.57507628
-6.4657493 -3.3623667 -0.5766055
-7.2659092 -3.7784717 -0.5795151
-8.2650509 -4.2980528 -0.58143651
-9.5711555 -4.977263 -0.58335513
-11.392946 -5.924644 -0.58739996
-14.049994 -7.3063817 -0.59254825
-18.352444 -9.5437737 -0.60188979
-26.420628 -13.73945 -0.61883968
-47.125336 -24.506466 -0.66221768
-1.8619297 -0.99752825 -0.56599033
-1.9230862 -1.0302929 -0.56518942
-1.99603 -1.0693725 -0.56658709
-2.0659461 -1.10683 -0.56577712
-2.1581831 -1.1562459 -0.56954497
-2.253005 -1.2070469 -0.57221884
-2.3206227 -1.2432729 -0.56645745
-2.4259784 -1.2997173 -0.56828392
-2.5278153 -1.3542764 -0.56733102
-2.6458607 -1.4175191 -0.5679431
-2.7703691 -1.4842244 -0.56765503
-2.9081292 -1.5580294 -0.56760985
-3.0713143 -1.6454557 -0.56968665
-3.2401681 -1.7359191 -0.56968135
-3.4216313 -1.8331381 -0.5685913
-3.6486206 -1.9547474 -0.57121342
-3.8925316 -2.0854228 -0.57204074
-4.1551085 -2.2260983 -0.57083595
-4.4798412 -2.4000735 -0.5726319
-4.8356743 -2.5907111 -0.57198524
-5.2940626 -2.8362927 -0.57578927
-5.8017387 -3.1082797 -0.5758419
-6.4341636 -3.4471011 -0.57752508
-7.212976 -3.8643498 -0.57903939
-8.2086163 -4.3977637 -0.58122677
-9.5227308 -5.1018004 -0.58418316
-11.309442 -6.0590301 -0.58689153
-13.967438 -7.4830508 -0.59290242
-18.233171 -9.7684164 -0.60187203
-26.24235 -14.059331 -0.61866653
-46.760147 -25.051735 -0.66136473
-1.8488461 -1.0199724 -0.5657829
-1.9206191 -1.0595682 -0.5682506
-1.9856337 -1.0954355 -0.56741673
-2.0701313 -1.1420512 -0.57072592
-2.1320496 -1.1762103 -0.5664224
-2.2241778 -1.2270356 -0.56868643
-2.3045826 -1.2713935 -0.56631547
-2.4192021 -1.3346267 -0.57049769
-2.5268221 -1.3939986 -0.570912
-2.6320908 -1.4520733 -0.56877708
-2.7623994 -1.5239621 -0.56981868
-2.8894455 -1.594051 -0.56774604
-3.0608704 -1.6886227 -0.5715577
-3.223989 -1.778612 -0.5706389
-3.4207442 -1.8871582 -0.5722568
-3.6229434 -1.9987075 -0.57099801
-3.8618643 -2.1305156 -0.57134074
-4.130291 -2.2786014 -0.57123256
-4.4527683 -2.4565058 -0.57298917
-4.8105755 -2.6539009 -0.57283312
-5.2410798 -2.891402 -0.57385033
-5.7642465 -3.1800227 -0.57595825
-6.3834023 -3.5215991 -0.57681209
-7.1648932 -3.9527321 -0.57903749
-8.1407433 -4.4910898 -0.58028728
-9.4449806 -5.2106118 -0.58329993
-11.24861 -6.2056394 -0.58765024
-13.87507 -7.6546063 -0.59293211
-18.090115 -9.9799652 -0.60115522
-26.055635 -14.374388 -0.61838496
-46.406063 -25.601322 -0.66075921
-1.8432363 -1.0466431 -0.56796181
-1.905929 -1.0822418 -0.56779867
-1.9790562 -1.1237656 -0.56944281
-2.0469584 -1.1623224 -0.56823474
-2.1191206 -1.2032982 -0.56687564
-2.2146189 -1.2575248 -0.57015288
-2.2856333 -1.2978489 -0.56553787
-2.3958321 -1.360423 -0.56888849
-2.507668 -1.4239267 -0.57049727
-2.6043456 -1.4788231 -0.56666821
-2.7387159 -1.5551224 -0.56883484
-2.8815298 -1.6362163 -0.57010084
-3.0257452 -1.718106 -0.56890076
-3.2040491 -1.819352 -0.57102609
-3.3905158 -1.9252334 -0.57111704
-3.5967143 -2.0423188 -0.57077903
-3.8299081 -2.1747329 -0.57052612
-4.1139326 -2.3360102 -0.57289952
-4.4178786 -2.5085998 -0.5724256
-4.7903275 -2.7200871 -0.5743615
-5.2235551 -2.9660861 -0.57588136
-5.7277589 -3.2523878 -0.57626492
-6.347693 -3.6044042 -0.5775466
-7.1124735 -4.0386691 -0.57877082
-8.0929756 -4.5954266 -0.58086634
-9.3764706 -5.3242321 -0.58306807
-11.159958 -6.3369484 -0.58704531
-13.763452 -7.8152871 -0.59222424
-17.975573 -10.207052 -0.60147429
-25.858622 -14.683276 -0.61794758
-46.03191 -26.138254 -0.6599583
-1.8323765 -1.0704827 -0.56862855
-1.8979377 -1.1087838 -0.56943667
-1.9594839 -1.1447395 -0.56781846
-2.032306 -1.1872824 -0.56817704
-2.1026576 -1.2283822 -0.56646943
-2.1843855 -1.2761281 -0.56636637
-2.2783597 -1.3310282 -0.56774491
-2.3773022 -1.3888309 -0.5685007
-2.4744563 -1.4455887 -0.56694269
-2.5935814 -1.5151823 -0.56833702
-2.7178361 -1.5877723 -0.56851029
-2.8587918 -1.6701193 -0.56962228
-2.9930663 -1.7485631 -0.56675625
-3.1762884 -1.8556023 -0.57010204
-3.3677573 -1.9674593 -0.57131547
-3.5739038 -2.0878909 -0.57119018
-3.8169835 -2.2298992 -0.57264209
-4.075139 -2.3807151 -0.5715307
-4.3871775 -2.5630093 -0.57248795
-4.751462 -2.7758257 -0.57375067
-5.1768198 -3.0243218 -0.57478541
-5.6793551 -3.3179054 -0.57545626
-6.3066559 -3.6843772 -0.57789117
-7.0503221 -4.1188302 -0.57779098
-8.0300665 -4.6912022 -0.58044755
-9.3276663 -5.4492655 -0.5841558
-11.075772 -6.4705167 -0.58675784
-13.676342 -7.9897819 -0.59265864
-17.834255 -10.418854 -0.60098708
-25.640442 -14.979263 -0.61708868
-45.636395 -26.660992 -0.65893817
-1.8235034 -1.095592 -0.57001257
-1.8811417 -1.1302221 -0.56852412
-1.9507679 -1.1720548 -0.56942606
-2.0033274 -1.2036334 -0.56417054
-2.0984035 -1.2607567 -0.56945688
-2.1800976 -1.30984 -0.56938761
-2.2613287 -1.358645 -0.56762111
-2.3633444 -1.4199378 -0.56929523
-2.4520135 -1.4732116 -0.56590837
-2.5811312 -1.5507878 -0.56974441
-2.6973605 -1.6206204 -0.56835276
-2.8408129 -1.706809 -0.57017869
-2.9771373 -1.7887151 -0.56786191
-3.1479309 -1.8913307 -0.56914341
-3.3430367 -2.0085535 -0.57126844
-3.5485287 -2.1320169 -0.57128143
-3.7753599 -2.2683008 -0.57053894
-4.0545578 -2.4360478 -0.57280201
-4.3644719 -2.6222496 -0.57368928
-4.710288 -2.8300216 -0.57293761
-5.1369119 -3.0863445 -0.5745247
-5.6396966 -3.3884263 -0.57561612
-6.244204 -3.7516248 -0.57635224
-7.0054264 -4.2089801 -0.57830948
-7.9567385 -4.7805448 -0.57935238
-9.2384577 -5.5506234 -0.58279938
-10.992586 -6.6045337 -0.58660895
-13.571562 -8.154027 -0.59241819
-17.700264 -10.634622 -0.60083306
-25.44277 -15.286451 -0.61680853
-45.236351 -27.178774 -0.65793777
-1.8015829 -1.1127962 -0.56739485
-1.8513423 -1.1435314 -0.56372517
-1.9315062 -1.1930468 -0.56804287
-1.996709 -1.2333211 -0.5665347
-2.0651364 -1.2755872 -0.56464291
-2.1551676 -1.3311974 -0.56710887
-2.2576571 -1.3945028 -0.57096058
-2.346611 -1.4494476 -0.56951469
-2.4394176 -1.5067719 -0.56723458
-2.5596776 -1.5810539 -0.5692572
-2.6627157 -1.644698 -0.56527144
-2.8106678 -1.7360847 -0.56836998
-2.9605613 -1.8286705 -0.56894624
-3.1382883 -1.9384482 -0.57166636
-3.3031797 -2.040298 -0.56870174
-3.5222766 -2.1756291 -0.57131886
-3.7545497 -2.3190987 -0.57166034
-4.0265899 -2.4871318 -0.57312816
-4.3242002 -2.6709588 -0.57266957
-4.6750727 -2.8876846 -0.57292998
-5.1101255 -3.1564066 -0.57582623
-5.588438 -3.4518492 -0.57467318
-6.1988955 -3.8289146 -0.57647228
-6.9482961 -4.2918024 -0.57790619
-7.9108424 -4.8863449 -0.5803417
-9.1778898 -5.6689706 -0.58333188
-10.912112 -6.74016 -0.58669299
-13.452598 -8.3093596 -0.59164065
-17.55904 -10.845814 -0.60052085
-25.231157 -15.584704 -0.61627769
-44.870087 -27.715218 -0.65751767
-1.7943236 -1.1390274 -0.5694766
-1.8484577 -1.1733915 -0.56719732
-1.912889 -1.214292 -0.56691605
-1.986472 -1.2610022 -0.56798679
-2.060849 -1.3082163 -0.56782603
-2.1402302 -1.3586072 -0.56753135
-2.2316279 -1.416626 -0.56874019
-2.3220434 -1.4740212 -0.56790823
-2.4349871 -1.5457172 -0.57058084
-2.5435944 -1.6146605 -0.5700528
-2.6597624 -1.6884035 -0.56900895
-2.7840629 -1.7673087 -0.56734163
-2.9426401 -1.8679727 -0.56987327
-3.1014619 -1.968792 -0.56932503
-3.2795601 -2.0818479 -0.56899959
-3.4953856 -2.2188528 -0.57133943
-3.7270103 -2.3658869 -0.57185352
-3.9949236 -2.5359569 -0.57301605
-4.2972217 -2.727854 -0.57349557
-4.634171 -2.9417479 -0.57230723
-5.0504961 -3.2060287 -0.57350588
-5.5481696 -3.5219495 -0.57494223
-6.1522179 -3.9053962 -0.57655382
-6.9114442 -4.3873491 -0.57928437
-7.8489623 -4.982481 -0.58025283
-9.0906172 -5.7706766 -0.58225101
-10.814015 -6.8646812 -0.58591294
-13.353419 -8.4766817 -0.59181821
-17.403757 -11.047815 -0.5998109
-25.017395 -15.880913 -0.6157797
-44.460278 -28.223154 -0.65654832
-1.7762419 -1.1584332 -0.56821585
-1.8359486 -1.1973728 -0.5678339
-1.8972294 -1.237339 -0.56674147
-1.9675763 -1.283218 -0.56705272
-2.0518053 -1.3381506 -0.56982487
-2.1356471 -1.3928307 -0.57081443
-2.2183573 -1.4467729 -0.56984895
-2.3034167 -1.5022471 -0.56782752
-2.3929431 -1.5606346 -0.56518292
-2.5186923 -1.642646 -0.56895572
-2.6388791 -1.7210295 -0.56902564
-2.7748251 -1.8096912 -0.56995076
-2.9198754 -1.9042904 -0.56995636
-3.0746725 -2.0052462 -0.56889069
-3.2544849 -2.1225166 -0.56913429
-3.4575827 -2.2549734 -0.56964958
-3.6886253 -2.4056551 -0.57045954
-3.9654038 -2.5861652 -0.57329988
-4.2687187 -2.7839818 -0.5742169
-4.5997243 -2.9998577 -0.57256532
-5.0241337 -3.27665 -0.57504416
-5.5077724 -3.5920703 -0.57528967
-6.1003938 -3.9785674 -0.57623827
-6.8464994 -4.4651642 -0.57839924
-7.7848263 -5.0771241 -0.58008289
-9.0381441 -5.894516 -0.58348846
-10.732238 -6.999373 -0.58610106
-13.22531 -8.6253099 -0.59079635
-17.262669 -11.258403 -0.59967422
-24.809994 -16.180634 -0.61552548
-44.041779 -28.723259 -0.65553439
-1.7562486 -1.1764239 -0.56640482
-1.8192917 -1.2186533 -0.56727397
-1.8910725 -1.2667357 -0.56951213
-1.9555196 -1.3099056 -0.5681771
-2.0328984 -1.3617378 -0.56918126
-2.1236196 -1.4225075 -0.57223171
-2.1973505 -1.4718962 -0.56905901
-2.296586 -1.5383692 -0.57076371
-2.3902733 -1.6011256 -0.56915945
-2.4976962 -1.6730828 -0.56881714
-2.614537 -1.7513487 -0.56837749
-2.7485189 -1.8410965 -0.5691545
-2.9002061 -1.9427043 -0.57073677
-3.055964 -2.0470388 -0.57004339
-3.2404308 -2.170604 -0.57130098
-3.4493051 -2.3105185 -0.57292336
-3.6676645 -2.4567866 -0.57184672
-3.9216373 -2.6269104 -0.57159913
-4.2191443 -2.8261955 -0.57217979
-4.5627728 -3.0563755 -0.57260066
-4.9699903 -3.3291502 -0.57348919
-5.470439 -3.6643758 -0.57605302
-6.0561695 -4.0567279 -0.57672924
-6.786242 -4.5457673 -0.57798713
-7.719955 -5.1712155 -0.57994342
-8.9506378 -5.9955883 -0.5825547
-10.639384 -7.1267962 -0.58577174
-13.129485 -8.7947912 -0.59130204
-17.106884 -11.459053 -0.59911203
-24.597073 -16.47636 -0.61522299
-43.62397 -29.221537 -0.65461439
-1.7463377 -1.2011524 -0.56792891
-1.8137743 -1.2475363 -0.57029372
-1.8687475 -1.2853475 -0.56750578
-1.9408592 -1.3349468 -0.56864399
-2.0175178 -1.3876735 -0.5696094
-2.0941756 -1.4403996 -0.5690273
-2.1731381 -1.4947112 -0.5675056
-2.2710824 -1.5620784 -0.56915605
-2.3770311 -1.6349512 -0.57075024
-2.4787123 -1.7048888 -0.56922513
-2.6021361 -1.7897811 -0.57042283
-2.7201045 -1.8709213 -0.56799155
-2.8709967 -1.9747068 -0.56972402
-3.0311654 -2.0848727 -0.57015657
-3.2041216 -2.2038341 -0.56963414
-3.4137638 -2.3480287 -0.5717724
-3.6391363 -2.5030427 -0.57215434
-3.8905785 -2.6759875 -0.57182503
-4.177702 -2.8734748 -0.5713082
-4.5375996 -3.1210167 -0.57421428
-4.9316635 -3.3920586 -0.57383621
-5.4035397 -3.7166209 -0.57377744
-6.0081096 -4.1324515 -0.57694799
-6.7339044 -4.6316624 -0.57833654
-7.6515088 -5.2628016 -0.57961923
-8.8834333 -6.1101346 -0.58302665
-10.543486 -7.2519388 -0.58535725
-13.013947 -8.9511528 -0.59101099
-16.959032 -11.664631 -0.59891206
-24.36689 -16.759846 -0.61457384
-43.202442 -29.71517 -0.65372258
-1.7344847 -1.2246859 -0.56892866
-1.7937368 -1.2665226 -0.56884718
-1.8662095 -1.3176942 -0.57161242
-1.9164933 -1.3531986 -0.56633747
-1.9934275 -1.4075203 -0.56765151
-2.0755084 -1.465476 -0.5688085
-2.154103 -1.5209701 -0.56737584
-2.2358227 -1.578671 -0.5651418
-2.3564146 -1.6638186 -0.57066929
-2.452215 -1.7314613 -0.56798649
-2.5874743 -1.8269652 -0.57209021
-2.7034993 -1.9088882 -0.56938249
-2.8429632 -2.0073609 -0.56901622
-3.0068147 -2.1230533 -0.57044363
-3.1763337 -2.2427475 -0.56955379
-3.3847575 -2.3899114 -0.57179308
-3.607276 -2.5470273 -0.57202607
-3.8560092 -2.7226532 -0.5716216
-4.1431036 -2.925365 -0.5714528
-4.4905119 -3.1706629 -0.57314593
-4.8925376 -3.4545255 -0.57418293
-5.3690352 -3.7909713 -0.57502002
-5.9396653 -4.193882 -0.57528406
-6.6657424 -4.7065511 -0.57740927
-7.5934367 -5.361578 -0.58017051
-8.7848387 -6.2028036 -0.5815177
-10.438865 -7.3706789 -0.58453643
-12.89919 -9.1078672 -0.59084088
-16.808695 -11.868293 -0.59871143
-24.142202 -17.046339 -0.61414707
-42.791496 -30.214245 -0.65307683
-1.7092543 -1.2386433 -0.565606
-1.7688568 -1.2818353 -0.56591284
-1.8340147 -1.3290532 -0.56671405
-1.9111593 -1.3849576 -0.56975067
-1.9777312 -1.4332001 -0.56815732
-2.0595083 -1.4924613 -0.56941003
-2.1395817 -1.5504881 -0.56852978
-2.2317419 -1.6172738 -0.569094
-2.3317571 -1.6897517 -0.56968671
-2.4453764 -1.7720881 -0.57140648
-2.5518637 -1.849256 -0.56920135
-2.6852562 -1.9459215 -0.57053667
-2.8068669 -2.0340488 -0.56675476
-2.9752629 -2.1560802 -0.56944448
-3.1560571 -2.287096 -0.57091761
-3.3533258 -2.4300506 -0.5714879
-3.5804787 -2.5946612 -0.57279271
-3.824604 -2.7715712 -0.57197493
-4.1206417 -2.9861004 -0.57337582
-4.4606581 -3.2324998 -0.57436544
-4.8506808 -3.5151372 -0.57429999
-5.3185058 -3.8541553 -0.57464063
-5.8925447 -4.2701435 -0.57576233
-6.6027503 -4.7848072 -0.57700568
-7.5148091 -5.4457479 -0.57923549
-8.719759 -6.3189378 -0.58230913
-10.363845 -7.510355 -0.58546269
-12.778659 -9.2602949 -0.59049106
-16.648973 -12.064991 -0.59826142
-23.914227 -17.329893 -0.61372221
-42.337673 -30.68079 -0.65185905
-1.6916424 -1.2578906 -0.56485373
-1.7628874 -1.3108678 -0.56911701
-1.82239 -1.3551134 -0.56822801
-1.889311 -1.4048753 -0.56834435
-1.9591255 -1.4567888 -0.5679155
-2.0394633 -1.5165272 -0.56898075
-2.1127391 -1.5710145 -0.56648755
-2.2138467 -1.6461972 -0.56964946
-2.3061266 -1.7148157 -0.56853342
-2.4149685 -1.7957495 -0.56941777
-2.5201566 -1.8739666 -0.56722599
-2.655273 -1.974438 -0.56928158
-2.7901742 -2.0747495 -0.56849259
-2.9506109 -2.1940486 -0.56984681
-3.1277466 -2.3257651 -0.57092655
-3.3179479 -2.4671972 -0.57058585
-3.5414758 -2.6334107 -0.57169026
-3.7846117 -2.8142045 -0.57112604
-4.0736599 -3.0291381 -0.57197809
-4.4157658 -3.283525 -0.57374048
-4.8007283 -3.5697799 -0.5735395
-5.2729373 -3.9209104 -0.57488292
-5.841908 -4.3439922 -0.57599032
-6.5571852 -4.8758659 -0.57821959
-7.4589424 -5.5464048 -0.58014238
-8.63169 -6.4184499 -0.58165443
-10.270509 -7.6370611 -0.58545077
-12.662275 -9.4155579 -0.59041846
-16.489037 -12.261105 -0.5978868
-23.68292 -17.610415 -0.61329705
-41.911797 -31.165247 -0.65115309
-1.6806991 -1.2821432 -0.56642121
-1.7299807 -1.3197384 -0.56369001
-1.8198149 -1.3882695 -0.57270455
-1.8677996 -1.4248754 -0.56710106
-1.9400645 -1.4800036 -0.56762266
-2.0195723 -1.5406572 -0.56867379
-2.1005554 -1.6024361 -0.568461
-2.1913674 -1.6717132 -0.56911159
-2.2862654 -1.7441074 -0.56888121
-2.3906512 -1.8237395 -0.56892878
-2.4942625 -1.9027808 -0.56662118
-2.6321411 -2.0079634 -0.56957275
-2.7731214 -2.1155119 -0.57027519
-2.9260924 -2.2322078 -0.57036948
-3.0955229 -2.36146 -0.57030189
-3.2914751 -2.5109446 -0.57129979
-3.5141537 -2.6808181 -0.57255781
-3.7575054 -2.866462 -0.57231134
-4.0352459 -3.0783401 -0.57185608
-4.3721843 -3.3353779 -0.57336348
-4.7505212 -3.6239972 -0.5728218
-5.2246404 -3.9856851 -0.5749172
-5.7858429 -4.413806 -0.5757702
-6.474987 -4.9395285 -0.57628369
-7.3828211 -5.6320815 -0.57956451
-8.5528183 -6.5246291 -0.58170199
-10.174042 -7.7614007 -0.58534789
-12.540536 -9.5667114 -0.59018254
-16.336222 -12.4623 -0.59785706
-23.43325 -17.876362 -0.6124776
-41.451363 -31.621712 -0.64999157
