# .PCD v0.7 - Point Cloud Data file format
VERSION 0.7
FIELDS x y z
SIZE 4 4 4
TYPE F F F
COUNT 1 1 1
WIDTH 1420
HEIGHT 1
VIEWPOINT 0 0 0 1 0 0 0
POINTS 1420
DATA ascii
-18.191595 -0.67139632 -0.22695385
-17.484558 -0.6453017 -0.07270766
-17.144035 -0.63273406 0.071291633
-16.931206 -0.62487924 0.21122955
-16.780647 -0.61932254 0.34895083
-16.703188 -0.61646378 0.48634332
-16.648817 -0.61445707 0.62337798
-16.63595 -0.61398214 0.76149303
-16.636749 -0.6140117 0.90023857
-16.685881 -0.615825 1.0421408
-16.775898 -0.61914724 1.1879032
-16.952679 -0.62567163 1.3422046
-17.28233 -0.63783807 1.5130351
-19.048317 -0.70301527 1.8273962
-19.065899 -0.70366418 1.9892375
-19.298716 -0.71225679 2.1759202
-4.9326601 -0.18204944 1.0620514
-4.5229964 -0.16693 1.0132762
-4.2539539 -0.15700047 0.99022561
-4.0444307 -0.14926761 0.97697937
-3.878386 -0.14313941 0.97107387
-3.7235286 -0.13742408 0.96527618
-3.5845981 -0.13229659 0.9611426
-2.1269827 -0.10470234 -0.57061249
-2.1876872 -0.10769057 -0.56742978
-2.2804141 -0.11225513 -0.57127464
-2.3598468 -0.11616526 -0.57035041
-2.4295487 -0.11959638 -0.5658443
-2.551254 -0.12558742 -0.57185417
-2.6384547 -0.12987994 -0.56838679
-2.762203 -0.13597155 -0.57103878
-2.8815727 -0.14184761 -0.5707584
-3.0039229 -0.14787039 -0.56906021
-3.1621778 -0.15566061 -0.57182711
-3.2975457 -0.16232421 -0.56801349
-3.5045941 -0.17251632 -0.57369506
-3.6903965 -0.18166259 -0.57262337
-3.8947465 -0.19172186 -0.5711863
-4.149117 -0.20424345 -0.57326704
-4.4144955 -0.2173069 -0.57254213
-4.72474 -0.23257893 -0.57284677
-5.1011009 -0.25110558 -0.57545114
-5.5219755 -0.27182347 -0.57643962
-6.0185828 -0.29626933 -0.57769728
-6.6046257 -0.32511774 -0.5785287
-7.3318706 -0.36091691 -0.58079803
-8.2019386 -0.40374666 -0.58108777
-9.3489561 -0.46020952 -0.58421183
-10.860907 -0.53463638 -0.58801061
-12.92371 -0.63617951 -0.59188253
-15.983581 -0.7868039 -0.59878665
-20.925322 -1.0300648 -0.60960102
-30.27738 -1.4904271 -0.62994671
-54.752007 -2.6952093 -0.68343431
-18.078369 -0.88992155 -0.075216778
-17.694008 -0.87100101 0.073617607
-17.442364 -0.85861367 0.21772188
-17.296671 -0.8514418 0.35987195
-17.160105 -0.84471917 0.49991187
-17.133949 -0.84343171 0.64188248
-17.112034 -0.84235287 0.78370011
-17.119747 -0.84273255 0.92686486
-17.191919 -0.84628534 1.0743148
-17.365648 -0.85483724 1.2303146
-17.681175 -0.87036926 1.4006237
-18.448883 -0.90816039 1.6160202
-19.74156 -0.97179335 1.8949054
-19.549387 -0.9623335 2.0407627
-19.545208 -0.96212775 2.2048793
-5.0950332 -0.2508069 1.0533119
-4.6613178 -0.22945692 1.0041603
-4.3868322 -0.21594517 0.98329222
-4.1576161 -0.20466183 0.96831298
-3.9716027 -0.19550517 0.95989507
-3.8175831 -0.18792343 0.95635623
-3.6728888 -0.18080075 0.95265281
-3.5516841 -0.17483436 0.95282173
-2.1225102 -0.13066065 -0.56980062
-2.195178 -0.13513406 -0.56976062
-2.2553391 -0.13883755 -0.56537795
-2.3445203 -0.14432748 -0.56703222
-2.4436722 -0.15043122 -0.56952143
-2.533803 -0.15597962 -0.56832951
-2.6492653 -0.16308743 -0.57110453
-2.7563436 -0.16967912 -0.57021564
-2.8703628 -0.17669807 -0.56892538
-3.0129337 -0.18547468 -0.57115608
-3.1540911 -0.19416425 -0.57075334
-3.3254712 -0.20471433 -0.57321405
-3.4890261 -0.21478269 -0.57153571
-3.6611643 -0.22537942 -0.56847459
-3.9011049 -0.24015005 -0.57250857
-4.1342688 -0.25450349 -0.57160467
-4.4287114 -0.27262923 -0.57477725
-4.7263341 -0.29095075 -0.57343042
-5.1024604 -0.31410488 -0.57599664
-5.5040488 -0.33882648 -0.57495975
-6.0025134 -0.36951169 -0.57654738
-6.5739021 -0.40468609 -0.57622981
-7.3224635 -0.45076716 -0.58044803
-8.1976118 -0.50464082 -0.58117688
-9.333828 -0.57458574 -0.58366388
-10.83745 -0.66714799 -0.58714044
-12.925519 -0.79568839 -0.59236866
-15.973776 -0.98333758 -0.59882706
-20.899185 -1.2865433 -0.60925442
-30.244591 -1.8618418 -0.62969321
-54.708439 -3.3678238 -0.68335575
-18.86101 -1.1610743 -0.078526497
-18.33712 -1.1288239 0.076345317
-18.093391 -1.11382 0.22600211
-17.928604 -1.1036758 0.373274
-17.834576 -1.0978875 0.51991469
-17.798903 -1.0956914 0.66724765
-17.797888 -1.095629 0.81566638
-17.813711 -1.096603 0.96509331
-17.936586 -1.1041671 1.1216123
-18.204332 -1.1206496 1.2906122
-18.843699 -1.1600087 1.4937307
-20.564587 -1.2659456 1.8025713
-20.536251 -1.2642012 1.9725273
-20.029531 -1.2330079 2.0923097
-19.529686 -1.2022376 2.2046294
-5.2578793 -0.32367238 1.0421474
-4.7874761 -0.2947146 0.99040401
-4.4929104 -0.27658132 0.96854079
-4.2524991 -0.26178169 0.95383137
-4.0666442 -0.25034058 0.94777077
-3.9108696 -0.24075116 0.94586051
-3.7542322 -0.23110864 0.94112676
-3.6230175 -0.22303113 0.94035774
-3.5095615 -0.21604684 0.94216287
-2.1165869 -0.15644099 -0.56868392
-2.198539 -0.16249824 -0.5711084
-2.2676067 -0.16760315 -0.56892687
-2.3534317 -0.17394665 -0.56966174
-2.4335868 -0.17987105 -0.56764346
-2.5211329 -0.18634176 -0.5659588
-2.6539803 -0.19616076 -0.57259762
-2.7594991 -0.20395987 -0.57134414
-2.8654003 -0.21178722 -0.56841505
-3.0203342 -0.22323869 -0.57303607
-3.1714883 -0.23441076 -0.57437968
-3.3121295 -0.24480584 -0.57139003
-3.4911876 -0.25804037 -0.5723663
-3.687412 -0.27254367 -0.57302713
-3.894083 -0.28781915 -0.57195425
-4.147512 -0.30655056 -0.57391351
-4.4158778 -0.326386 -0.57358921
-4.7485127 -0.35097167 -0.57660133
-5.0869689 -0.37598762 -0.57472634
-5.5047202 -0.40686443 -0.57550901
-6.0030665 -0.44369817 -0.57708097
-6.6021466 -0.4879773 -0.57918775
-7.311039 -0.54037285 -0.58002532
-8.189435 -0.60529685 -0.58108097
-9.3372374 -0.69013309 -0.58436358
-10.829982 -0.80046469 -0.58722472
-12.919168 -0.95488042 -0.5925709
-15.947078 -1.178679 -0.5983243
-20.892965 -1.5442392 -0.60958058
-30.236389 -2.2348294 -0.63004696
-54.672588 -4.0409555 -0.68347692
-19.419483 -1.4353312 0.080919027
-18.904896 -1.3972971 0.23633526
-18.69632 -1.3818808 0.38958222
-18.589243 -1.3739665 0.54236633
-18.530207 -1.369603 0.69524169
-18.542278 -1.3704953 0.85048938
-18.640236 -1.3777355 1.0107133
-18.907259 -1.3974717 1.1832956
-21.718275 -1.6052393 1.5410191
-21.536581 -1.5918099 1.7086165
-21.446915 -1.5851825 1.8814774
-20.630682 -1.5248532 1.9832486
-19.731262 -1.4583753 2.0628693
-19.277668 -1.4248494 2.1779933
-5.4495959 -0.40279007 1.0339303
-4.930253 -0.36440444 0.97802383
-4.6395736 -0.34291977 0.96060663
-4.3690014 -0.32292125 0.94261426
-4.1736555 -0.30848289 0.93692684
-4.0050864 -0.29602361 0.93420184
-3.8428268 -0.28403071 0.93017846
-3.7077765 -0.27404886 0.93025553
-3.5747666 -0.26421785 0.92860723
-3.4804363 -0.25724572 0.93512249
-2.1171784 -0.18268456 -0.56940329
-2.1834881 -0.18840623 -0.56775755
-2.2631083 -0.19527638 -0.56835771
-2.3451974 -0.2023596 -0.56822795
-2.4332678 -0.20995893 -0.56812835
-2.5388961 -0.21907324 -0.57050794
-2.6483629 -0.22851877 -0.57194865
-2.7419956 -0.23659804 -0.56827945
-2.8742039 -0.24800588 -0.57072324
-2.999182 -0.25878984 -0.56958359
-3.1543725 -0.27218074 -0.57184279
-3.312125 -0.28579271 -0.57195222
-3.4727499 -0.29965252 -0.56990451
-3.6631427 -0.3160809 -0.56981659
-3.8936946 -0.33597448 -0.57246071
-4.1446047 -0.35762471 -0.57407629
-4.4106922 -0.38058457 -0.57348013
-4.7334638 -0.40843549 -0.57534033
-5.0827718 -0.43857616 -0.57481802
-5.4953885 -0.47417954 -0.57509947
-5.997992 -0.51754761 -0.57716125
-6.5931511 -0.56890196 -0.57896852
-7.3151851 -0.63120395 -0.58092606
-8.1998968 -0.7075429 -0.58239657
-9.3257351 -0.80468786 -0.58421874
-10.827212 -0.93424553 -0.58765298
-12.884582 -1.1117693 -0.59156686
-15.950331 -1.3763032 -0.59903604
-20.865318 -1.8004017 -0.60937375
-30.201847 -2.6060209 -0.62994725
-54.600624 -4.7113137 -0.68324989
-21.154629 -1.8253654 0.26472038
-20.115925 -1.735739 0.41957608
-19.755243 -1.7046169 0.57695395
-19.68672 -1.6987042 0.73936117
-19.891737 -1.7163944 0.91328478
-23.043856 -1.9883808 1.8299984
-22.590784 -1.9492867 1.9837786
-20.262148 -1.748356 1.9497403
-19.434605 -1.6769501 2.0338564
-19.025965 -1.6416898 2.1516738
-5.6494594 -0.48747382 1.0241665
-5.1118956 -0.44108915 0.97081542
-4.7637544 -0.41104913 0.94592631
-4.4891758 -0.38735667 0.93038315
-4.3012428 -0.37114051 0.92890972
-4.1103654 -0.35467032 0.92362827
-3.9488132 -0.34073049 0.92198348
-3.8110068 -0.32883963 0.9233852
-3.6598165 -0.31579387 0.9191274
-3.5596185 -0.3071481 0.92558336
-3.4560976 -0.29821563 0.9294982
-2.1153088 -0.20875557 -0.56954777
-2.1810064 -0.21523912 -0.56775755
-2.257889 -0.22282654 -0.56769216
-2.349575 -0.23187485 -0.56993639
-2.4264741 -0.23946387 -0.56718677
-2.5204554 -0.24873866 -0.56700861
-2.629643 -0.25951418 -0.56855208
-2.7456417 -0.27096188 -0.5696826
-2.8694077 -0.28317606 -0.57041913
-2.9945886 -0.29552993 -0.56935835
-3.1498258 -0.31084996 -0.57166827
-3.3108566 -0.32674178 -0.57238376
-3.4653459 -0.34198803 -0.56933653
-3.6786754 -0.36304107 -0.57288384
-3.8883684 -0.38373527 -0.57232809
-4.1359448 -0.40816805 -0.57352865
-4.3945384 -0.43368816 -0.57202995
-4.7187347 -0.46568245 -0.57420266
-5.0599432 -0.49935558 -0.57288736
-5.4777908 -0.54059219 -0.57391018
-5.9893274 -0.59107471 -0.57698327
-6.5870957 -0.65006721 -0.57909489
-7.2977719 -0.72020245 -0.58020264
-8.1657906 -0.80586547 -0.58063412
-9.3084984 -0.91863692 -0.58380246
-10.807309 -1.0665517 -0.58724022
-12.876209 -1.2707273 -0.59185517
-15.910596 -1.5701847 -0.59822369
-20.844038 -2.0570562 -0.60944498
-30.156103 -2.9760454 -0.62970889
-54.537888 -5.3822346 -0.68324131
-21.030008 -2.0754092 1.8488225
-19.892651 -1.9631656 1.9163631
-19.12459 -1.8873674 2.0036902
-18.781042 -1.8534633 2.1263919
-5.9061775 -0.58286875 1.021065
-5.2868781 -0.52175134 0.95952618
-4.9092221 -0.48448128 0.93338585
-4.6351261 -0.45743129 0.92143226
-4.4015431 -0.43437943 0.91325921
-4.2230363 -0.41676298 0.9130578
-4.0488782 -0.39957565 0.91084689
-3.8894484 -0.38384184 0.90915608
-3.7598016 -0.37104726 0.91201496
-3.6481147 -0.36002511 0.91723114
-3.5235631 -0.34773338 0.91725069
-3.4328506 -0.33878112 0.92429656
-2.0963273 -0.23294243 -0.56516552
-2.1818502 -0.24244568 -0.56871027
-2.2581003 -0.25091854 -0.56847799
-2.3502595 -0.26115921 -0.57083821
-2.4192166 -0.26882166 -0.56622016
-2.5293415 -0.28105867 -0.56974208
-2.6474361 -0.29418126 -0.57313782
-2.7430065 -0.30480099 -0.56987041
-2.8617561 -0.31799632 -0.56963229
-3.0041289 -0.33381671 -0.57190943
-3.1318233 -0.34800604 -0.56913459
-3.2908518 -0.36567715 -0.56965959
-3.4760296 -0.38625401 -0.5718289
-3.6565611 -0.40631452 -0.57017493
-3.8802421 -0.43116981 -0.57186913
-4.1264772 -0.45853129 -0.5729543
-4.4062119 -0.4896152 -0.57428974
-4.7049885 -0.52281505 -0.57326883
-5.083003 -0.56481975 -0.57624102
-5.4802337 -0.60895973 -0.57490712
-5.9705625 -0.66344476 -0.5759179
-6.5597672 -0.72891682 -0.57743669
-7.2718306 -0.80804074 -0.57888645
-8.1756773 -0.90847564 -0.58208746
-9.3066425 -1.0341477 -0.58443946
-10.799347 -1.2000159 -0.58756495
-12.855007 -1.4284395 -0.59164321
-15.892114 -1.7659206 -0.59829992
-20.81259 -2.3126805 -0.60931087
-30.123083 -3.3472559 -0.62983119
-54.437218 -6.049026 -0.68286037
-21.432442 -2.3815582 1.706166
-20.766457 -2.3075542 1.828009
-19.563423 -2.1738739 1.8870795
-18.855467 -2.0952063 1.9780438
-18.551464 -2.0614257 2.1031098
-6.2181458 -0.69095606 1.0229244
-5.4877906 -0.6097995 0.94995844
-5.0825973 -0.56477469 0.92364144
-4.7743554 -0.53052306 0.90891546
-4.5359774 -0.50403464 0.90288591
-4.3418078 -0.48245865 0.90202767
-4.1558857 -0.46179914 0.89969891
-3.9939559 -0.44380561 0.89965105
-3.8566988 -0.42855367 0.90266442
-3.7254274 -0.41396689 0.90484321
-3.616219 -0.40183175 0.91038519
-3.5120299 -0.39025432 0.91542834
-3.4049442 -0.37835503 0.91796595
-2.1051607 -0.26016554 -0.56836653
-2.1812677 -0.26957119 -0.56937945
-2.2620106 -0.27954975 -0.57028472
-2.3393116 -0.28910297 -0.56899953
-2.4262567 -0.29984805 -0.56868792
-2.5137329 -0.31065875 -0.56704378
-2.6152291 -0.32320213 -0.56698292
-2.7326915 -0.3377187 -0.56854719
-2.8507826 -0.35231295 -0.56826741
-2.9993041 -0.3706679 -0.57181543
-3.1492159 -0.38919473 -0.57312161
-3.2982247 -0.40760991 -0.5717603
-3.4652147 -0.4282473 -0.5708729
-3.6639547 -0.4528085 -0.57215279
-3.8857718 -0.48022169 -0.573511
-4.1168795 -0.50878304 -0.57244706
-4.397471 -0.54345989 -0.57397807
-4.6958885 -0.58033967 -0.57298625
-5.0411348 -0.62300682 -0.57231975
-5.4810529 -0.67737395 -0.57582331
-5.9853282 -0.73969465 -0.57817584
-6.5471864 -0.80913162 -0.57716143
-7.2670202 -0.89809203 -0.57933879
-8.169857 -1.0096688 -0.58251297
-9.2734098 -1.146051 -0.58319336
-10.773506 -1.33144 -0.58700538
-12.850271 -1.5880961 -0.5922792
-15.886664 -1.9633477 -0.59895843
-20.786591 -2.5689032 -0.60942841
-30.071526 -3.7163787 -0.62966108
-54.342854 -6.7159419 -0.68266094
-22.259115 -2.7508845 1.5870806
-21.927626 -2.7099175 1.7481064
-20.184849 -2.4945374 1.7793775
-19.216831 -2.3749053 1.856324
-18.584219 -2.2967238 1.9524034
-18.300404 -2.2616487 2.0776439
-6.7557292 -0.83490431 1.0549556
-5.7002907 -0.70446837 0.93908799
-5.2652664 -0.65070605 0.91275465
-4.9405212 -0.61057258 0.89911896
-4.6748428 -0.57773876 0.8912558
-4.4732656 -0.55282694 0.89168888
-4.2688398 -0.52756304 0.88814896
-4.108551 -0.50775385 0.89073592
-3.9515162 -0.4883467 0.89137661
-3.8316691 -0.47353542 0.89810109
-3.7111666 -0.4586432 0.90268105
-3.6038003 -0.44537437 0.90856886
-3.4918444 -0.43153831 0.91148108
-3.3834624 -0.41814399 0.91349167
-2.0955007 -0.28517234 -0.56666237
-2.1891618 -0.29791847 -0.57235301
-2.2549734 -0.30687463 -0.56941885
-2.3234491 -0.31619334 -0.56604415
-2.4267659 -0.33025351 -0.56971604
-2.5228765 -0.34333301 -0.57001567
-2.6297503 -0.35787725 -0.57104206
-2.7480826 -0.37398085 -0.57266289
-2.8501225 -0.38786721 -0.56904352
-2.9954562 -0.4076454 -0.57199425
-3.1334286 -0.42642176 -0.57115954
-3.2883601 -0.44750607 -0.57096094
-3.4581211 -0.4706085 -0.57061446
-3.6625013 -0.49842218 -0.57283962
-3.8615351 -0.52550822 -0.57084441
-4.1154447 -0.56006229 -0.57316184
-4.3840761 -0.59661978 -0.57314396
-4.6944256 -0.63885456 -0.5737229
-5.0582452 -0.68836606 -0.57517982
-5.4562511 -0.74252981 -0.57413352
-5.9644475 -0.8116892 -0.5770793
-6.5494647 -0.891303 -0.57828474
-7.2622237 -0.98830086 -0.57988143
-8.1422644 -1.1080637 -0.58147305
-9.284584 -1.2635196 -0.58482897
-10.77207 -1.4659486 -0.58786488
-12.81899 -1.7445096 -0.59178138
-15.846639 -2.1565361 -0.59840387
-20.727594 -2.820775 -0.60866964
-30.014893 -4.0846643 -0.62947935
-54.232491 -7.3803868 -0.68236303
-23.054653 -3.1374598 1.6464291
-22.955315 -3.1239409 1.8329592
-19.73262 -2.6853712 1.7422907
-18.897373 -2.5717041 1.8283812
-18.326149 -2.4939673 1.9283674
-18.084515 -2.4610839 2.0564144
-5.9673495 -0.8120842 0.93333328
-5.4561825 -0.74252051 0.90030873
-5.117867 -0.69647986 0.8886199
-4.8287706 -0.65713733 0.88018554
-4.5905824 -0.62472284 0.87658989
-4.3863482 -0.59692895 0.8757599
-4.2325497 -0.57599884 0.88200551
-4.0690093 -0.55374295 0.88357258
-3.9358306 -0.53561902 0.88925683
-3.7936702 -0.51627266 0.89061528
-3.6894 -0.50208277 0.8988204
-3.5615423 -0.48468286 0.89934957
-3.4840035 -0.47413078 0.91088736
-3.3887374 -0.46116623 0.9163776
-2.081917 -0.3094418 -0.56397539
-2.169199 -0.32241479 -0.56812727
-2.2371554 -0.33251536 -0.56590921
-2.3294442 -0.34623253 -0.56849891
-2.4251964 -0.36046448 -0.57034504
-2.5219204 -0.37484089 -0.57079792
-2.6193211 -0.38931787 -0.56977385
-2.7344174 -0.40642497 -0.57081348
-2.8475101 -0.42323428 -0.56951797
-2.9684205 -0.44120556 -0.56782472
-3.1281154 -0.46494153 -0.57119006
-3.2864783 -0.4884795 -0.57163393
-3.4577358 -0.51393402 -0.57155043
-3.6533544 -0.54300946 -0.57241005
-3.8690982 -0.5750761 -0.57296455
-4.1022668 -0.60973269 -0.57232749
-4.3732629 -0.65001166 -0.57273191
-4.7064652 -0.69953656 -0.57620203
-5.0454178 -0.74991614 -0.57472628
-5.4552593 -0.81083214 -0.5750348
-5.9635887 -0.88638675 -0.5780071
-6.5353851 -0.97137457 -0.57805246
-7.2505527 -1.0776721 -0.57996374
-8.1307011 -1.2084914 -0.58166456
-9.2488804 -1.3746898 -0.58360064
-10.758786 -1.5991119 -0.5881685
-12.807408 -1.903605 -0.59228259
-15.819373 -2.3512826 -0.59842086
-20.69306 -3.0756741 -0.60872012
-29.948051 -4.451272 -0.62917793
-54.129963 -8.0455046 -0.68226624
-19.305086 -2.869375 1.707528
-18.589609 -2.7630315 1.8017551
-18.081085 -2.6874478 1.9059137
-17.881767 -2.6578228 2.036922
-18.237356 -2.710675 2.2327588
-6.2808843 -0.93354738 0.93011957
-5.7198448 -0.85015833 0.89618921
-5.3028407 -0.78817767 0.87653923
-5.0114326 -0.74486482 0.87166405
-4.7610083 -0.70764345 0.86935425
-4.5382314 -0.67453146 0.86811149
-4.3569207 -0.64758271 0.87140858
-4.1897163 -0.62273061 0.87460923
-4.0285554 -0.5987767 0.87632072
-3.9088728 -0.58098793 0.88471323
-3.7667694 -0.55986667 0.88584918
-3.6684985 -0.54526037 0.89529407
-3.562716 -0.52953756 0.90122211
-3.4620092 -0.51456916 0.90672272
-3.375845 -0.50176233 0.91449058
-2.0927136 -0.33739614 -0.567981
-2.1523583 -0.34701234 -0.5647915
-2.2302032 -0.35956281 -0.56522626
-2.3365011 -0.37670064 -0.57130849
-2.4045796 -0.38767654 -0.56657475
-2.5110712 -0.40484557 -0.56942606
-2.5972838 -0.41874513 -0.56605738
-2.7391524 -0.44161779 -0.57289219
-2.836854 -0.45736966 -0.56846857
-2.9802201 -0.48048374 -0.57116884
-3.1111166 -0.50158745 -0.56916928
-3.2805948 -0.52891141 -0.57169861
-3.4460521 -0.55558717 -0.57070535
-3.6483421 -0.58820122 -0.57271469
-3.8533149 -0.62124777 -0.57171524
-4.0912099 -0.65960222 -0.57187319
-4.3696089 -0.70448691 -0.57334453
-4.7049303 -0.7585488 -0.57711244
-5.0396414 -0.8125124 -0.57516295
-5.4485946 -0.87844551 -0.57542741
-5.9348469 -0.95684123 -0.57631814
-6.5235767 -1.0517588 -0.57810825
-7.2454538 -1.1681428 -0.580661
-8.1147652 -1.3082969 -0.58163142
-9.2354126 -1.4889724 -0.58386207
-10.724162 -1.728995 -0.58739358
-12.76669 -2.0583 -0.59152532
-15.773356 -2.5430474 -0.59781784
-20.649918 -3.3292673 -0.60860926
-29.906475 -4.8216491 -0.62950248
-54.028137 -8.7106457 -0.68228126
-18.93232 -3.0523491 1.67775
-18.283775 -2.947788 1.7754918
-17.856825 -2.8789532 1.8858638
-17.655603 -2.8465111 2.0149941
-17.931353 -2.8909688 2.1994815
-6.6928 -1.0790416 0.93552595
-5.9716482 -0.96277452 0.88601178
-5.5385866 -0.89295447 0.86944419
-5.1944795 -0.83747602 0.86026472
-4.9094892 -0.7915287 0.85556072
-4.6982903 -0.7574783 0.85953784
-4.4927502 -0.72434026 0.86105007
-4.3210659 -0.69666058 0.86588526
-4.1602659 -0.67073578 0.87011737
-4.0007467 -0.64501739 0.87193096
-3.8765676 -0.62499672 0.87907445
-3.7534387 -0.60514528 0.88439721
-3.6475315 -0.58807051 0.89187443
-3.5398934 -0.57071662 0.89715624
-3.4573715 -0.55741209 0.90723467
-3.3620274 -0.54204035 0.91248405
-2.1001711 -0.36514708 -0.57118046
-2.1455231 -0.37303224 -0.56415892
-2.2358122 -0.38873041 -0.56781638
-2.3322532 -0.40549815 -0.57144576
-2.4266293 -0.42190686 -0.57294923
-2.5220418 -0.43849581 -0.57309318
-2.6051095 -0.45293841 -0.56893378
-2.7066262 -0.47058865 -0.56725675
-2.8342555 -0.49277896 -0.56911904
-2.9765365 -0.51751673 -0.57163924
-3.1096032 -0.54065239 -0.57006556
-3.2728524 -0.56903577 -0.57152551
-3.4386082 -0.59785497 -0.57064688
-3.6421735 -0.63324797 -0.57292533
-3.839366 -0.66753292 -0.57082039
-4.0902381 -0.71115088 -0.57291639
-4.3680964 -0.75946087 -0.57432801
-4.666697 -0.81137717 -0.57360309
-5.0258365 -0.87381911 -0.57477021
-5.4413037 -0.9460544 -0.57584244
-5.9226398 -1.0297421 -0.5763188
-6.508863 -1.1316661 -0.57799381
-7.219707 -1.2552572 -0.57979077
-8.0898962 -1.406553 -0.58104467
-9.2243404 -1.6037936 -0.58436459
-10.700693 -1.8604803 -0.58731675
-12.742984 -2.215564 -0.59164447
-15.770353 -2.7419188 -0.59893656
-20.611334 -3.5835979 -0.60872483
-29.829409 -5.1863022 -0.62917507
-53.882885 -9.3683701 -0.68185019
-19.566132 -3.4018734 1.5712913
-18.570009 -3.228682 1.649036
-18.011553 -3.1315861 1.7526639
-17.613829 -3.0624356 1.8640369
-17.431492 -3.0307331 1.9935193
-17.659941 -3.0704527 2.1706567
-7.1582541 -1.2445728 0.94118476
-6.2842212 -1.0926087 0.88022584
-5.7828517 -1.0054379 0.85976946
-5.4074206 -0.94016337 0.8506043
-5.0922146 -0.88535988 0.84506756
-4.8643918 -0.84574944 0.84944987
-4.6481738 -0.80815655 0.85212278
-4.445817 -0.77297378 0.85381234
-4.2748966 -0.74325663 0.85840005
-4.1331639 -0.71861422 0.86623162
-3.9931164 -0.69426483 0.87206268
-3.8633986 -0.67171133 0.87789476
-3.747705 -0.65159625 0.88486719
-3.6349869 -0.63199842 0.89063996
-3.5380144 -0.61513829 0.89852917
-3.4445541 -0.59888881 0.90573525
-3.3507137 -0.58257324 0.9112888
-2.080524 -0.38814405 -0.56709224
-2.1696081 -0.40476364 -0.5717575
-2.2320859 -0.41641957 -0.56812751
-2.3239021 -0.43354887 -0.57066268
-2.4127917 -0.45013219 -0.5709458
-2.5059803 -0.4675175 -0.57070661
-2.6017177 -0.48537835 -0.56945342
-2.7148583 -0.50648594 -0.57024419
-2.8480651 -0.53133708 -0.57316065
-2.9658787 -0.55331647 -0.57085598
-3.0985346 -0.57806486 -0.56929648
-3.257916 -0.60779917 -0.57017922
-3.4365804 -0.64113092 -0.57157546
-3.6214108 -0.67561305 -0.57092297
-3.8479314 -0.71787286 -0.57336289
-4.077775 -0.76075268 -0.57243776
-4.3561025 -0.81267762 -0.57402152
-4.6680899 -0.87088221 -0.57504708
-5.0243649 -0.9373492 -0.57587653
-5.4402423 -1.0149356 -0.57700729
-5.9062762 -1.1018791 -0.57600135
-6.4912601 -1.2110142 -0.57770932
-7.2081513 -1.3447579 -0.58014685
-8.0751038 -1.5064973 -0.58126885
-9.198472 -1.7160736 -0.58401853
-10.666636 -1.9899755 -0.58674622
-12.710724 -2.3713219 -0.59145576
-15.717894 -2.9323416 -0.59826845
-20.562756 -3.8362026 -0.60863727
-29.749943 -5.5501709 -0.62889087
-53.742256 -10.026195 -0.68157923
-19.00766 -3.546083 1.5298284
-18.218176 -3.3987961 1.6213816
-17.721794 -3.306191 1.7282934
-17.383183 -3.2430193 1.8437089
-17.216974 -3.2120111 1.9733542
-7.7042503 -1.4373106 0.94906205
-6.694304 -1.2488942 0.88213599
-6.076478 -1.1336321 0.85301542
-5.6500936 -1.0540855 0.84189492
-5.3160467 -0.99176556 0.83808589
-5.0378742 -0.93986946 0.83790421
-4.8035631 -0.89615625 0.84068835
-4.6048598 -0.85908604 0.84605497
-4.4168677 -0.82401407 0.85013431
-4.2547221 -0.79376405 0.85624421
-4.1062531 -0.7660656 0.86250067
-3.9808071 -0.74266225 0.8713029
-3.8390899 -0.71622342 0.8743062
-3.7295728 -0.69579184 0.88253945
-3.6304111 -0.67729217 0.89149207
-3.5159116 -0.655931 0.89489657
-3.4236822 -0.63872468 0.90224403
-3.3433352 -0.62373501 0.91129905
-2.0753374 -0.4136447 -0.56702214
-2.1519201 -0.42890871 -0.56844306
-2.2289305 -0.444258 -0.56867176
-2.3065946 -0.4597376 -0.5677579
-2.3951242 -0.47738281 -0.56811112
-2.4909956 -0.49649137 -0.56864142
-2.586024 -0.51543194 -0.56736284
-2.7041912 -0.53898436 -0.56935269
-2.8274574 -0.56355309 -0.57036489
-2.9465642 -0.58729279 -0.56848538
-3.1024499 -0.61836302 -0.57136965
-3.2544653 -0.64866191 -0.57092816
-3.4260883 -0.6828689 -0.5711838
-3.6224456 -0.72200567 -0.57244247
-3.8353324 -0.76443708 -0.5728429
-4.0646992 -0.81015319 -0.57195735
-4.3338447 -0.86379778 -0.57244492
-4.6410851 -0.92503524 -0.57307839
-4.9964957 -0.99587375 -0.57404244
-5.4114103 -1.0785722 -0.57531244
-5.8977418 -1.175505 -0.57653517
-6.4825439 -1.2920645 -0.57830387
-7.1803241 -1.4311422 -0.57927972
-8.0572338 -1.6059231 -0.58135998
-9.1808968 -1.8298854 -0.58428711
-10.642136 -2.1211312 -0.58678883
-12.683661 -2.5280368 -0.59159827
-15.688658 -3.126976 -0.59857392
-20.502777 -4.0864997 -0.60830331
-29.691225 -5.9178901 -0.62914038
-53.592945 -10.681848 -0.68129992
-18.55217 -3.697715 1.4967147
-17.908955 -3.5695131 1.5976471
-17.471718 -3.4823654 1.7079519
-17.167637 -3.4217577 1.8251721
-8.3365726 -1.6615993 0.9577806
-7.1512985 -1.425357 0.88303798
-6.4219141 -1.2799802 0.84825194
-5.9361491 -1.1831602 0.83529532
-5.5573564 -1.1076612 0.83004332
-5.2452021 -1.0454445 0.82888103
-4.9972782 -0.99602968 0.83312631
-4.7794156 -0.95260656 0.83844888
-4.5700564 -0.91087818 0.84165472
-4.4072814 -0.87843478 0.85030389
-4.2503295 -0.84715199 0.85739172
-4.0998459 -0.8171584 0.86320007
-3.9749603 -0.79226696 0.87208956
-3.8395219 -0.76527214 0.87648135
-3.7477603 -0.74698269 0.88894951
-3.622529 -0.72202229 0.89166921
-3.5340691 -0.704391 0.9016546
-3.4280601 -0.68326187 0.90554339
-3.3390012 -0.66551113 0.91227937
-2.0727208 -0.43968794 -0.56774145
-2.1405382 -0.45407408 -0.56686854
-2.2205107 -0.47103876 -0.56795847
-2.3146875 -0.49101657 -0.57119292
-2.3958683 -0.50823748 -0.56972694
-2.4845302 -0.52704543 -0.56860197
-2.5885506 -0.54911131 -0.56935543
-2.703095 -0.57340974 -0.57056326
-2.8217993 -0.59859055 -0.57066518
-2.9488618 -0.62554443 -0.5703696
-3.0992472 -0.65744585 -0.57222545
-3.2619522 -0.69196051 -0.57369083
-3.4119918 -0.72378856 -0.57027435
-3.5962009 -0.76286501 -0.56973445
-3.8177145 -0.80985481 -0.57165563
-4.0511346 -0.85937047 -0.57149237
-4.3252192 -0.91751224 -0.57275254
-4.6400146 -0.98429 -0.57439727
-4.9779015 -1.0559663 -0.57335466
-5.3996315 -1.1454282 -0.57551408
-5.883461 -1.2480633 -0.57659572
-6.4632483 -1.3710541 -0.57804281
-7.1706381 -1.5211133 -0.57996345
-8.0341806 -1.7042973 -0.58116484
-9.1516533 -1.9413476 -0.58390105
-10.615178 -2.2518063 -0.58678484
-12.653982 -2.6842995 -0.59170878
-15.64481 -3.3187461 -0.59841275
-20.454632 -4.3390574 -0.60841185
-29.593756 -6.2777472 -0.62866324
-53.41777 -11.331555 -0.68079287
-18.152309 -3.8506639 1.4681646
-17.611328 -3.7359054 1.5750753
-15.850403 -3.3623588 1.5533842
-9.100419 -1.9304792 0.96995866
-7.6531839 -1.6234761 0.88149363
-6.8375745 -1.4504602 0.84643787
-6.2583628 -1.3275915 0.82874256
-5.8116984 -1.2328403 0.81985462
-5.4824533 -1.1629972 0.82092977
-5.1973338 -1.1025146 0.82339668
-4.9583564 -1.0518202 0.828731
-4.744256 -1.0064029 0.83438873
-4.5609164 -0.96751082 0.84209877
-4.3791342 -0.92894924 0.84701324
-4.2311831 -0.89756423 0.85569113
-4.1124773 -0.87238318 0.8680526
-3.9613945 -0.84033382 0.87131453
-3.8423564 -0.81508219 0.87934989
-3.7350297 -0.79231483 0.88817364
-3.6209977 -0.76812518 0.89354968
-3.5229359 -0.74732322 0.90109056
-3.4235816 -0.72624713 0.90665078
-3.3359206 -0.7076515 0.91374606
-2.0651617 -0.46469074 -0.56719321
-2.1413896 -0.48184308 -0.56862009
-2.204077 -0.49594867 -0.56527215
-2.3050251 -0.51866341 -0.57033926
-2.3806794 -0.53568673 -0.56763858
-2.4744492 -0.55678624 -0.56781876
-2.5860662 -0.58190167 -0.57033974
-2.6946754 -0.60634029 -0.57031673
-2.8067296 -0.63155407 -0.56914508
-2.9518142 -0.66420013 -0.5724771
-3.0737224 -0.69163126 -0.56903994
-3.2525334 -0.73186624 -0.57357371
-3.4073625 -0.76670498 -0.57103318
-3.5997612 -0.8099975 -0.57183325
-3.8201802 -0.85959482 -0.57356423
-4.0585523 -0.91323197 -0.57407951
-4.3250804 -0.97320461 -0.57427543
-4.6091504 -1.0371243 -0.57211196
-4.9691496 -1.1181294 -0.57388681
-5.3801432 -1.2106087 -0.57498014
-5.8816023 -1.3234441 -0.57796478
-6.4439135 -1.4499722 -0.57786453
-7.1432943 -1.6073427 -0.57930666
-8.0131531 -1.8030734 -0.58120358
-9.1234188 -2.0528991 -0.58366615
-10.588241 -2.3825047 -0.58687085
-12.617645 -2.8391497 -0.59159738
-15.597003 -3.5095475 -0.59818959
-20.401339 -4.590591 -0.60845971
-29.499224 -6.6377449 -0.62834144
-53.264858 -11.985351 -0.68067086
-15.947651 -3.588448 1.1567022
-15.377921 -3.4602511 1.2471182
-14.992806 -3.3735945 1.3444952
-10.016767 -2.2539148 0.98431313
-8.2433681 -1.854875 0.88097519
-7.327538 -1.6488003 0.84625697
-6.6652336 -1.4997723 0.82732385
-6.1564655 -1.3852923 0.81744301
-5.7508116 -1.2940145 0.81344855
-5.4320803 -1.2222953 0.81557596
-5.1785951 -1.1652575 0.82263583
-4.9114509 -1.1051463 0.82310039
-4.7214484 -1.0623931 0.8326121
-4.5264978 -1.0185263 0.83799303
-4.3669977 -0.98263657 0.84693885
-4.2162561 -0.94871753 0.854967
-4.0750499 -0.91694415 0.86246717
-3.9652674 -0.89224154 0.87451339
-3.8216679 -0.85992962 0.8769688
-3.7197011 -0.83698565 0.88690889
-3.6162884 -0.81371629 0.89478904
-3.5103474 -0.78987807 0.90028691
-3.437356 -0.77345401 0.91274834
-3.352968 -0.75446552 0.92088711
-2.0658753 -0.49161452 -0.56900644
-2.1240358 -0.5054549 -0.56561965
-2.2121434 -0.52642184 -0.56895804
-2.2863131 -0.54407191 -0.56732178
-2.3814867 -0.56672031 -0.5694496
-2.4771297 -0.58948034 -0.57005411
-2.571552 -0.61194998 -0.56875527
-2.6769876 -0.63704044 -0.56818813
-2.8040354 -0.66727388 -0.57021946
-2.9307375 -0.69742507 -0.57000959
-3.0777299 -0.73240471 -0.57140595
-3.2282639 -0.7682271 -0.57091653
-3.4023144 -0.80964577 -0.57181245
-3.5872114 -0.85364556 -0.57146388
-3.8040798 -0.90525353 -0.57277489
-4.027597 -0.95844376 -0.57132483
-4.2950578 -1.0220912 -0.57191461
-4.6092567 -1.0968608 -0.57375592
-4.9690342 -1.1824768 -0.57550925
-5.3674808 -1.2772948 -0.57526195
-5.8561177 -1.3935752 -0.57710075
-6.4345541 -1.5312252 -0.57866991
-7.138052 -1.6986359 -0.58053154
-7.995554 -1.9026949 -0.5815801
-9.1014137 -2.1658554 -0.58391798
-10.553905 -2.5115032 -0.58663505
-12.592611 -2.9966526 -0.59210652
-15.551986 -3.7008924 -0.59816319
-20.341339 -4.840611 -0.60839951
-29.410017 -6.9986758 -0.62822694
-53.066833 -12.628268 -0.68007326
-16.291874 -3.8769631 0.90557814
-15.674055 -3.7299411 1.0055979
-15.200554 -3.6172626 1.105657
-14.846193 -3.5329356 1.207428
-11.174021 -2.6590719 1.004898
-8.9363413 -2.1265733 0.88064647
-7.873806 -1.8737227 0.84387833
-7.1320119 -1.6971986 0.8260234
-6.5431805 -1.5570749 0.81448895
-6.0761609 -1.4459387 0.80907995
-5.7121563 -1.3593168 0.81028378
-5.4005923 -1.2851743 0.81315953
-5.1410518 -1.2234116 0.81899977
-4.9216881 -1.1712098 0.82716709
-4.7140193 -1.121791 0.83367145
-4.5260029 -1.0770489 0.84028971
-4.3614202 -1.0378834 0.84826815
-4.2168489 -1.0034798 0.85752451
-4.0813532 -0.97123605 0.86626345
-3.9536135 -0.94083798 0.87442857
-3.8507056 -0.91634899 0.88615084
-3.7071042 -0.88217634 0.88642484
-3.6102369 -0.8591249 0.89583796
-3.512718 -0.83591843 0.90346283
-3.434258 -0.81724733 0.91452497
-3.3513684 -0.79752219 0.92307132
-2.0555534 -0.51594406 -0.56786799
-2.1382241 -0.53669441 -0.57111216
-2.2081909 -0.55425608 -0.56965137
-2.2756944 -0.57119942 -0.56638688
-2.3701477 -0.59490722 -0.56844449
-2.478523 -0.62210941 -0.57209194
-2.5821197 -0.64811218 -0.57281184
-2.6816926 -0.673105 -0.57090032
-2.7886014 -0.69993913 -0.56878805
-2.9227083 -0.73359996 -0.57015932
-3.0629132 -0.76879144 -0.57036704
-3.2093549 -0.80554825 -0.56928122
-3.3732507 -0.84668612 -0.56863463
-3.574841 -0.89728534 -0.5712077
-3.7826807 -0.94945312 -0.57126755
-4.0274129 -1.0108809 -0.57301867
-4.2907329 -1.0769743 -0.57305878
-4.5975561 -1.1539868 -0.57402241
-4.9573488 -1.2442949 -0.5758844
-5.3481965 -1.3423977 -0.57492077
-5.8343077 -1.4644116 -0.57668245
-6.4128151 -1.609617 -0.57845116
-7.0999589 -1.7820902 -0.5791719
-7.9636097 -1.9988666 -0.58100045
-9.0669956 -2.2758164 -0.58346111
-10.513803 -2.6389649 -0.58616543
-12.530701 -3.1452067 -0.59096932
-15.481512 -3.8858604 -0.59724528
-20.276478 -5.0893974 -0.60828537
-29.306246 -7.3558698 -0.62789494
-52.893269 -13.276215 -0.67988968
-16.606783 -4.1683035 0.78320438
-15.827412 -3.9726813 0.88240975
-15.288185 -3.8373353 0.98379463
-14.893801 -3.7383449 1.0866059
-12.78443 -3.2088926 1.0428767
-9.7601013 -2.4497862 0.88038439
-8.4986763 -2.1331685 0.84003752
-7.6469331 -1.9193807 0.82203048
-6.9946513 -1.7556579 0.81255335
-6.4687448 -1.6236553 0.80764747
-6.0344806 -1.514655 0.80594903
-5.6706805 -1.4233412 0.80682206
-5.3774834 -1.3497487 0.81211764
-5.1235895 -1.2860214 0.81867528
-4.9075885 -1.2318051 0.82728058
-4.703424 -1.1805598 0.83430195
-4.5367713 -1.1387299 0.84482479
-4.358079 -1.0938781 0.85017014
-4.2261453 -1.0607628 0.86200237
-4.0794802 -1.0239497 0.86847258
-3.9613404 -0.99429673 0.87877524
-3.8411787 -0.96413606 0.88661969
-3.7342818 -0.93730497 0.89561158
-3.6187437 -0.90830487 0.90065211
-3.5346208 -0.88719004 0.91183305
-3.4441533 -0.8644827 0.91992122
-3.3599727 -0.84335333 0.92822737
-2.0492375 -0.54122758 -0.56791878
-2.1266735 -0.56167936 -0.56982869
-2.1868522 -0.57757324 -0.56593591
-2.2927871 -0.6055519 -0.572451
-2.3941541 -0.6323241 -0.57602328
-2.4599509 -0.64970177 -0.56960607
-2.5570233 -0.67533976 -0.56904376
-2.667865 -0.7046144 -0.56975806
-2.7844615 -0.73540884 -0.56974506
-2.9120603 -0.76910919 -0.56988394
-3.0493348 -0.80536497 -0.56963962
-3.2055328 -0.84661871 -0.57040673
-3.3793607 -0.89252871 -0.57147145
-3.5745595 -0.94408292 -0.57297432
-3.7636499 -0.99402398 -0.57019633
-4.0000453 -1.0564587 -0.57092994
-4.2793808 -1.1302345 -0.57335544
-4.5750995 -1.2083373 -0.57303041
-4.9179244 -1.2988814 -0.5731166
-5.3377371 -1.4097588 -0.57561636
-5.8079901 -1.5339581 -0.57590193
-6.3964758 -1.689384 -0.57880735
-7.0796833 -1.8698272 -0.5793497
-7.9353151 -2.0958095 -0.58077246
-9.0389328 -2.3872879 -0.58350015
-10.477239 -2.7671611 -0.58597964
-12.486018 -3.2977035 -0.59072983
-15.444448 -4.0790596 -0.59770525
-20.207304 -5.3369856 -0.60813296
-29.217014 -7.7165551 -0.62796861
-52.69109 -13.916333 -0.67943913
-17.439285 -4.6059194 0.67490613
-16.308123 -4.3071661 0.77155852
-15.609348 -4.1226115 0.87301254
-15.081326 -3.9831545 0.97356141
-14.723115 -3.8885467 1.0775602
-10.748743 -2.8388689 0.87959886
-9.2742662 -2.4494421 0.83921427
-8.2637377 -2.1825497 0.81940609
-7.5025821 -1.9815197 0.80907118
-6.908174 -1.8245295 0.80505288
-6.4351726 -1.6996043 0.80600423
-6.0061536 -1.5862955 0.80471009
-5.6600118 -1.4948752 0.80785835
-5.3648787 -1.4169271 0.8127839
-5.13621 -1.3565332 0.82329494
-4.9118919 -1.2972881 0.83063227
-4.7099538 -1.2439539 0.83811015
-4.5430632 -1.1998762 0.84867978
-4.3731709 -1.1550055 0.85582012
-4.2266865 -1.1163173 0.86484718
-4.0961232 -1.0818341 0.87478161
-3.9663327 -1.0475549 0.8826735
-3.868995 -1.0218469 0.89587283
-3.7311988 -0.98545319 0.89771056
-3.641993 -0.96189296 0.90931356
-3.5322471 -0.93290776 0.9141109
-3.4440045 -0.90960187 0.92279917
-3.3506863 -0.88495547 0.92859793
-2.0356309 -0.56449831 -0.56602883
-2.1329243 -0.59147859 -0.57340896
-2.1921127 -0.6078921 -0.56918871
-2.2657685 -0.62831748 -0.56759125
-2.3540957 -0.65281135 -0.56827378
-2.4434624 -0.67759353 -0.56767452
-2.5485005 -0.70672148 -0.56903797
-2.6518052 -0.73536885 -0.56821644
-2.7728393 -0.76893264 -0.56925863
-2.9111655 -0.80729169 -0.57160825
-3.0392191 -0.84280211 -0.56964284
-3.2105453 -0.89031237 -0.57320344
-3.3743007 -0.93572313 -0.57251823
-3.5488036 -0.98411429 -0.57074243
-3.7680421 -1.0449111 -0.57276505
-4.0029311 -1.1100479 -0.57324672
-4.2691441 -1.1838712 -0.57389098
-4.5681052 -1.2667756 -0.57406199
-4.9189272 -1.3640616 -0.57514465
-5.3213778 -1.4756647 -0.57576549
-5.7922454 -1.6062404 -0.57625562
-6.3592319 -1.7634708 -0.5773558
-7.056016 -1.9566951 -0.57933807
-7.9151702 -2.1949461 -0.58122951
-9.0131769 -2.499433 -0.58377743
-10.449965 -2.897867 -0.58640289
-12.455734 -3.4540844 -0.5912618
-15.383936 -4.2661004 -0.59734839
-20.137445 -5.5842905 -0.60805112
-29.100176 -8.0697336 -0.62754267
-52.473999 -14.5515 -0.67889571
-17.14204 -4.7536378 0.66561443
-16.13154 -4.4734178 0.7657488
-15.485469 -4.2942562 0.86897171
-14.990208 -4.1569161 0.97090566
-11.970506 -3.3195262 0.87902224
-10.157974 -2.8168952 0.8340261
-8.9871273 -2.4922092 0.81594288
-8.1263266 -2.2535017 0.80846745
-7.4320006 -2.0609589 0.80413187
-6.8763862 -1.906882 0.80402017
-6.4210777 -1.7806211 0.80692023
-5.9916415 -1.6615347 0.80544221
-5.6568608 -1.5686971 0.81010062
-5.3968782 -1.4966017 0.82035792
-5.1441879 -1.4265283 0.82732284
-4.924777 -1.3656838 0.83558786
-4.7361188 -1.3133672 0.84557593
-4.5426178 -1.2597077 0.85142583
-4.392457 -1.2180668 0.86246037
-4.2500687 -1.1785814 0.872531
-4.1073103 -1.1389931 0.8800953
-3.9850793 -1.1050974 0.88980222
-3.8448911 -1.066222 0.89325982
-3.7507253 -1.040109 0.90541726
-3.6343882 -1.0078477 0.91044021
-3.5484478 -0.9840157 0.9213652
-3.4495094 -0.95657915 0.92735577
-3.3724914 -0.93522143 0.93775707
-2.0380685 -0.59225482 -0.56868863
-2.107868 -0.61253828 -0.56865484
-2.1689796 -0.63029712 -0.56515181
-2.2626731 -0.65752405 -0.56879818
-2.3362694 -0.67891085 -0.565943
-2.4468226 -0.71103728 -0.57044333
-2.5481527 -0.74048334 -0.57095021
-2.6389165 -0.76685899 -0.56743234
-2.7670019 -0.80408007 -0.57004696
-2.9029207 -0.84357756 -0.57198292
-3.0259464 -0.87932831 -0.56913871
-3.1755013 -0.92278844 -0.56892961
-3.3556855 -0.97514927 -0.57135111
-3.5385225 -1.028281 -0.57107931
-3.7490144 -1.0894492 -0.5718658
-3.9859242 -1.1582942 -0.57280761
-4.2487564 -1.2346722 -0.57314783
-4.556076 -1.3239781 -0.57455277
-4.8896418 -1.4209111 -0.57372004
-5.3116164 -1.5435352 -0.57671928
-5.7740474 -1.6779159 -0.57645428
-6.3399739 -1.8423721 -0.57762051
-7.0334177 -2.043884 -0.57950234
-7.8861232 -2.291677 -0.58112186
-8.9750824 -2.6081245 -0.58334315
-10.417978 -3.0274243 -0.58665258
-12.43121 -3.6124616 -0.59216142
-15.336708 -4.4567881 -0.5975973
-20.060991 -5.8296466 -0.6078611
-28.999622 -8.4271784 -0.62756145
-52.272449 -15.190172 -0.67865342
-21.194536 -6.1590505 0.64220828
-17.006819 -4.9421163 0.66267347
-16.046677 -4.6631026 0.76438445
-15.38307 -4.4702606 0.86624461
-13.486156 -3.9190252 0.8765443
-11.268033 -3.274447 0.83033198
-9.8757458 -2.8698537 0.81368947
-8.8458271 -2.5705631 0.80592304
-8.0544834 -2.3406017 0.80412245
-7.4058475 -2.1521108 0.80410463
-6.8932323 -2.0031466 0.80880886
-6.4167442 -1.8646811 0.80919594
-6.0292788 -1.7520851 0.81333637
-5.6797791 -1.6505219 0.81622744
-5.4058256 -1.5709121 0.82459188
-5.1619115 -1.5000316 0.83307678
-4.9497905 -1.4383901 0.84276921
-4.7362967 -1.3763496 0.84856516
-4.5681229 -1.3274789 0.85920078
-4.4035726 -1.2796612 0.86766696
-4.2675138 -1.2401232 0.87917662
-4.1326547 -1.2009336 0.88862306
-3.9966695 -1.1614168 0.89551121
-3.8683808 -1.1241366 0.90186024
-3.760309 -1.0927312 0.91090548
-3.6610763 -1.0638946 0.92033339
-3.5526221 -1.0323783 0.92567527
-3.4640899 -1.0066512 0.93453258
-3.3783278 -0.98172909 0.9426654
-2.0235875 -0.61512774 -0.56671572
-2.0975261 -0.63760346 -0.56793696
-2.1808009 -0.66291732 -0.5703128
-2.2466912 -0.68294656 -0.56684887
-2.3340402 -0.70949882 -0.56747353
-2.4313035 -0.73906475 -0.56890094
-2.5323899 -0.76979291 -0.56949621
-2.6485946 -0.80511665 -0.57159895
-2.7678592 -0.84137058 -0.57231176
-2.8920214 -0.87911332 -0.57192212
-3.0283318 -0.92054874 -0.57167321
-3.1640766 -0.96181226 -0.56895864
-3.3429008 -1.016171 -0.5712586
-3.5278678 -1.0723971 -0.57144481
-3.731725 -1.1343654 -0.57131302
-3.9542377 -1.2020046 -0.57033497
-4.2253447 -1.2844154 -0.57207698
-4.5355806 -1.3787205 -0.57406276
-4.8757763 -1.4821328 -0.57418817
-5.2767887 -1.604032 -0.57503593
-5.7688289 -1.7536019 -0.57804239
-6.318119 -1.9205744 -0.57773733
-7.0077848 -2.1302183 -0.57950479
-7.8391886 -2.3829474 -0.57977867
-8.9395008 -2.7174189 -0.5831582
-10.377234 -3.1544597 -0.58649814
-12.365753 -3.7589273 -0.59120053
-15.262896 -4.6395969 -0.59689909
-19.984552 -6.0748811 -0.60776252
-28.893625 -8.7830505 -0.6275574
-52.042358 -15.819775 -0.6781404
-20.612616 -6.265799 0.62686288
-16.936373 -5.1482987 0.66234517
-15.965607 -4.8532066 0.76330769
-15.329717 -4.6599092 0.86640137
-12.655692 -3.8470623 0.82557976
-10.941738 -3.3260567 0.80924016
-9.719039 -2.9543822 0.80371046
-8.7931042 -2.6729174 0.80405325
-8.0605192 -2.4502273 0.80767196
-7.4117217 -2.2530065 0.80768937
-6.9000669 -2.0974741 0.81257552
-6.4543381 -1.9619821 0.81691742
-6.0610361 -1.8424265 0.82061446
-5.7017798 -1.7332203 0.82238972
-5.4196501 -1.6474589 0.82972801
-5.1834216 -1.5756503 0.83961171
-4.9713292 -1.5111789 0.84953606
-4.7712646 -1.4503634 0.8579604
-4.6018739 -1.3988723 0.86871856
-4.4340935 -1.3478706 0.87688011
-4.2889805 -1.3037592 0.8868348
-4.1404085 -1.2585965 0.89355052
-4.0154104 -1.2205998 0.90300512
-3.8928893 -1.1833559 0.91089755
-3.7707958 -1.146242 0.91679084
-3.6816649 -1.1191481 0.92889822
-3.5808232 -1.0884944 0.93644005
-3.4873352 -1.060076 0.94424891
-3.4073951 -1.035776 0.95425785
-2.0192766 -0.64104342 -0.56767303
-2.0971334 -0.66576004 -0.57000422
-2.1604168 -0.68585008 -0.56714475
-2.2382305 -0.71055299 -0.56687582
-2.3298893 -0.73965114 -0.5686326
-2.4208949 -0.76854193 -0.56863374
-2.520015 -0.80000883 -0.56888258
-2.6237209 -0.83293152 -0.5683983
-2.7473764 -0.87218744 -0.57025099
-2.8751891 -0.91276306 -0.57076979
-3.0175021 -0.95794201 -0.57180923
-3.1622524 -1.0038948 -0.57080728
-3.343365 -1.0613911 -0.57352489
-3.5206349 -1.1176676 -0.57245606
-3.7208455 -1.1812268 -0.57182789
-3.953232 -1.2550007 -0.57237244
-4.2169089 -1.338708 -0.57312024
-4.5120873 -1.432416 -0.57327521
-4.8492064 -1.5394385 -0.57324511
-5.25179 -1.6672434 -0.57450241
-5.7313347 -1.8194805 -0.57648361
-6.3014822 -2.0004807 -0.57842165
-6.9692569 -2.2124736 -0.57852477
-7.8213315 -2.482975 -0.5806722
-8.9042406 -2.8267574 -0.58308148
-10.347206 -3.2848439 -0.58703947
-12.310868 -3.908232 -0.59082943
-15.226576 -4.833858 -0.59775805
-19.894949 -6.3158889 -0.60735345
-28.741533 -9.1243429 -0.62664354
-51.794201 -16.442688 -0.67749017
-20.505854 -6.5098281 0.62600321
-16.878115 -5.3581586 0.66259336
-15.884912 -5.0428548 0.76235676
-14.456988 -4.5895433 0.82020432
-12.31004 -3.9079688 0.80610532
-10.83555 -3.4398746 0.80445421
-9.7066641 -3.0814962 0.80575955
-8.8029995 -2.7946172 0.80803931
-8.0739059 -2.5631576 0.81211001
-7.4638691 -2.3694942 0.81648552
-6.9601398 -2.2095795 0.82278734
-6.4916348 -2.060847 0.82478309
-6.1059842 -1.9384176 0.82986456
-5.7672391 -1.8308787 0.83501518
-5.4782472 -1.7391349 0.84190929
-5.222671 -1.6579992 0.84920752
-5.0105767 -1.5906674 0.85952044
-4.8073153 -1.5261396 0.8677519
-4.6211452 -1.4670378 0.87569571
-4.444881 -1.4110805 0.8823781
-4.3093734 -1.368062 0.89446223
-4.170732 -1.3240486 0.90354007
-4.0324097 -1.2801365 0.91029906
-3.9283741 -1.2471092 0.92271918
-3.7991943 -1.2060996 0.92723107
-3.7040169 -1.1758844 0.93811494
-3.6029055 -1.1437854 0.94582152
-3.4971294 -1.1102054 0.95052534
-3.4144797 -1.0839673 0.95990223
-2.0177608 -0.66798115 -0.56951296
-2.0879896 -0.69123042 -0.56978607
-2.1578774 -0.71436679 -0.56874102
-2.2328427 -0.73918414 -0.5677703
-2.3198864 -0.76800007 -0.56845319
-2.4173143 -0.80025363 -0.57006097
-2.5137341 -0.83217347 -0.56973159
-2.6107349 -0.86428571 -0.56784451
-2.7374239 -0.9062261 -0.57045501
-2.8624229 -0.94760716 -0.57050556
-2.9915953 -0.99036974 -0.56916463
-3.1564724 -1.0449524 -0.57204002
-3.3211331 -1.0994635 -0.57198715
-3.5151722 -1.1637002 -0.57385117
-3.7011738 -1.2252762 -0.57107699
-3.9259439 -1.2996866 -0.5706923
-4.2015309 -1.3909197 -0.57331139
-4.4954348 -1.4882169 -0.57344115
-4.8206987 -1.5958958 -0.5721516
-5.2431092 -1.7357351 -0.57584405
-5.70222 -1.8877239 -0.57584637
-6.2643085 -2.0738037 -0.57730645
-6.9385438 -2.2970097 -0.57827616
-7.8077216 -2.5847516 -0.58197743
-8.8774395 -2.9388826 -0.58364874
-10.295921 -3.4084721 -0.58646345
-12.254707 -4.0569296 -0.59048367
-15.143553 -5.0132842 -0.5968737
-19.817606 -6.5606327 -0.60740918
-28.62641 -9.4767933 -0.62662679
-51.543228 -17.063421 -0.67690068
-20.42823 -6.7627802 0.6261248
-16.79356 -5.5595198 0.66190767
-15.810282 -5.234005 0.76180625
-14.130061 -4.6777668 0.80485892
-12.229111 -4.0484557 0.80400497
-10.853517 -3.5930643 0.80900699
-9.7687807 -3.2339618 0.8141554
-8.8844271 -2.941196 0.81877154
-8.1638899 -2.7026618 0.82444149
-7.5536847 -2.5006528 0.8296116
-7.030426 -2.3274274 0.83441627
-6.5743713 -2.1764503 0.83863187
-6.1811423 -2.0462716 0.84343529
-5.8377619 -1.9325953 0.84860247
-5.5402145 -1.8340919 0.85483396
-5.284936 -1.7495818 0.86276478
-5.0545306 -1.6733059 0.87052411
-4.8421617 -1.603001 0.8775335
-4.6681204 -1.5453845 0.88813114
-4.4971232 -1.4887757 0.89631534
-4.3552027 -1.441793 0.90758586
-4.197916 -1.3897231 0.91306216
-4.0747371 -1.3489445 0.92352903
-3.938612 -1.3038803 0.92881966
-3.8444886 -1.2727207 0.94203395
-3.7299914 -1.2348163 0.94846743
-3.6083195 -1.1945368 0.95102692
-3.5260649 -1.1673063 0.9622187
-3.4293509 -1.1352891 0.96793425
-1.9984838 -0.68897843 -0.56642044
-2.086798 -0.71942478 -0.5718317
-2.1457295 -0.73974144 -0.5678938
-2.228934 -0.7684263 -0.56913614
-2.3076031 -0.79554749 -0.56779736
-2.4044719 -0.82894301 -0.56939316
-2.5021815 -0.86262852 -0.56947428
-2.6030757 -0.89741182 -0.56853575
-2.713753 -0.93556792 -0.56787664
-2.8583369 -0.98541325 -0.57206297
-2.9671354 -1.0229217 -0.56686127
-3.1349013 -1.080759 -0.57049608
-3.3073533 -1.1402119 -0.57198536
-3.4834621 -1.2009256 -0.57104206
-3.6904414 -1.2722818 -0.57179171
-3.9207909 -1.3516949 -0.57231605
-4.1871881 -1.4435356 -0.57373303
-4.4839115 -1.5458311 -0.5743525
-4.822196 -1.662455 -0.57471216
-5.2223525 -1.800409 -0.57595229
-5.6911278 -1.9620194 -0.57711899
-6.2220249 -2.1450467 -0.57579702
-6.9226284 -2.3865802 -0.57935178
-7.7575364 -2.6744151 -0.58064407
-8.8314333 -3.0446417 -0.58304137
-10.247765 -3.5329227 -0.58615059
-12.20329 -4.2070913 -0.59045416
-15.075835 -5.197403 -0.5966785
-19.722866 -6.7994695 -0.60702217
-28.480228 -9.8185749 -0.62602246
-51.305271 -17.687523 -0.67658085
-20.336517 -7.0110264 0.62590885
-16.736469 -5.7699075 0.66240388
-15.755914 -5.4318604 0.76234728
-14.13026 -4.8714151 0.8082211
-12.335541 -4.2526846 0.81437862
-10.988226 -3.7881973 0.82245809
-9.9015541 -3.4135664 0.82865673
-9.0268135 -3.111999 0.83535701
-8.2964497 -2.8602057 0.84131628
-7.6821222 -2.648416 0.84723037
-7.1510248 -2.4653199 0.85226327
-6.6830549 -2.303987 0.85604483
-6.2834897 -2.1662366 0.8609705
-5.916101 -2.0395792 0.86357057
-5.6161418 -1.9361682 0.870157
-5.3430552 -1.8420213 0.87588418
-5.1063552 -1.7604188 0.88311106
-4.9095254 -1.6925616 0.89344591
-4.7218041 -1.6278447 0.90208483
-4.5333118 -1.5628619 0.9072898
-4.3796406 -1.5098836 0.91647828
-4.2351389 -1.4600666 0.9249934
-4.1015654 -1.414017 0.93347985
-3.97662 -1.370942 0.94168711
-3.8611276 -1.331126 0.95005
-3.736469 -1.2881498 0.95407015
-3.6358697 -1.2534682 0.96227783
-3.5487487 -1.2234331 0.9724406
-3.4599066 -1.1928048 0.98062432
-1.9955471 -0.71553749 -0.56803888
-2.0573087 -0.73768318 -0.56619382
-2.1427758 -0.76832885 -0.56956947
-2.2193899 -0.79580021 -0.56915474
-2.2959464 -0.82325083 -0.56737715
-2.398294 -0.85994929 -0.57039112
-2.4909823 -0.89318424 -0.56938201
-2.5955789 -0.93068916 -0.56935483
-2.6999159 -0.96810102 -0.5674293
-2.8265886 -1.0135217 -0.56816024
-2.9685783 -1.0644345 -0.56959444
-3.126658 -1.1211166 -0.5714615
-3.2902291 -1.1797678 -0.57148951
-3.4679143 -1.24348 -0.57095671
-3.6806998 -1.3197777 -0.57275349
-3.8937764 -1.39618 -0.57083565
-4.1694183 -1.4950162 -0.57377368
-4.4601984 -1.5992802 -0.57379061
-4.8027029 -1.7220912 -0.57486916
-5.1843715 -1.858945 -0.57424104
-5.6461134 -2.0245106 -0.57503521
-6.2094851 -2.226517 -0.5771265
-6.8797131 -2.4668386 -0.57825506
-7.7124758 -2.76544 -0.57977271
-8.7804661 -3.148386 -0.58218843
-10.219388 -3.6643362 -0.58706039
-12.15467 -4.3582644 -0.59065008
-15.014812 -5.3838177 -0.59683836
-19.632874 -7.0397024 -0.60687077
-28.354719 -10.167068 -0.62596434
-51.046535 -18.303608 -0.67608577
-20.256332 -7.2632542 0.62614238
-16.645977 -5.9686995 0.66167706
-15.658714 -5.6146998 0.76092732
-14.413572 -5.1682329 0.8279984
-12.632082 -4.5294485 0.83756965
-11.249493 -4.0336981 0.84566224
-10.144449 -3.6374657 0.8526634
-9.2345371 -3.3112013 0.85828322
-8.48876 -3.0437901 0.86454797
-7.8511844 -2.8151762 0.86962759
-7.2985234 -2.6170104 0.87361139
-6.8220353 -2.4461575 0.87763363
-6.4065714 -2.2971857 0.88163912
-6.0389867 -2.1653819 0.88532782
-5.7076998 -2.0465934 0.88817483
-5.4325857 -1.9479464 0.89441973
-5.1935668 -1.8622421 0.90208584
-4.984098 -1.7871336 0.91094714
-4.7865639 -1.7163043 0.91841948
-4.6035442 -1.6506795 0.92533833
-4.4380894 -1.5913528 0.93273348
-4.2823997 -1.5355275 0.93936843
-4.1582208 -1.491001 0.95047486
-4.0218692 -1.4421099 0.95652932
-3.8939919 -1.3962573 0.96228814
-3.7829294 -1.356434 0.97011888
-3.6915388 -1.3236643 0.98124492
-3.5909436 -1.2875942 0.98826689
-3.4906123 -1.2516187 0.99361402
-1.9870166 -0.74017555 -0.56815851
-2.0610223 -0.76774311 -0.56977087
-2.1294439 -0.79323053 -0.56857544
-2.2061398 -0.82180029 -0.56830525
-2.2855394 -0.85137707 -0.56734955
-2.3779311 -0.88579357 -0.56809574
-2.4716051 -0.92068768 -0.56749773
-2.5870948 -0.96370828 -0.57005012
-2.6974301 -1.0048089 -0.56946057
-2.8184984 -1.0499074 -0.56908602
-2.9555507 -1.1009603 -0.56964928
-3.1103745 -1.1586331 -0.57104611
-3.2709143 -1.218435 -0.57069385
-3.4611607 -1.2893031 -0.57241166
-3.6695974 -1.3669469 -0.57359809
-3.8846874 -1.4470693 -0.57206851
