# .PCD v0.7 - Point Cloud Data file format
VERSION 0.7
FIELDS x y z
SIZE 4 4 4
TYPE F F F
COUNT 1 1 1
WIDTH 1441
HEIGHT 1
VIEWPOINT 0 0 0 1 0 0 0
POINTS 1441
DATA ascii
-2.2524874 1.3913096 -0.56965321
-2.3490133 1.4509314 -0.57009768
-2.4404955 1.5074378 -0.56748521
-2.5652046 1.5844676 -0.57048631
-2.6801012 1.6554366 -0.56896222
-2.8110616 1.736328 -0.56844962
-2.9662039 1.8321558 -0.57003063
-3.1325505 1.9349042 -0.57062119
-3.3194025 2.0503185 -0.57149482
-3.522892 2.1760092 -0.57141864
-3.7539113 2.3187044 -0.57156312
-4.0189414 2.4824076 -0.57203948
-4.3265109 2.6723862 -0.57297564
-4.6897421 2.8967457 -0.57472765
-5.098794 3.1494076 -0.57454938
-5.6130981 3.4670813 -0.57720906
-6.2146492 3.8386455 -0.57793736
-6.9686041 4.3043461 -0.57959527
-7.9292765 4.8977313 -0.58169401
-9.1881533 5.6753106 -0.58398426
-10.943662 6.7596478 -0.58838928
-13.5127 8.3464832 -0.59428394
-17.656462 10.90599 -0.60385275
-25.442938 15.715516 -0.62145054
-45.47377 28.0881 -0.66636395
-1.822014 1.0946972 -0.569547
-1.8777187 1.1281655 -0.56748962
-1.9463718 1.1694134 -0.56814283
-2.0159969 1.2112455 -0.56773853
-2.0903385 1.2559111 -0.56726825
-2.1781547 1.3086727 -0.5688802
-2.2668869 1.3619845 -0.56901634
-2.3529742 1.4137071 -0.5667972
-2.4710073 1.4846236 -0.57029206
-2.5859189 1.5536643 -0.5708012
-2.6946068 1.6189659 -0.56777251
-2.8432913 1.7082982 -0.57067615
-3.0003595 1.8026674 -0.57229137
-3.1404572 1.8868405 -0.56779224
-3.3418136 2.0078189 -0.57105947
-3.5434754 2.1289806 -0.57046795
-3.791599 2.2780576 -0.57299298
-4.0636668 2.4415207 -0.57408887
-4.3675942 2.6241255 -0.57409972
-4.7158852 2.8333848 -0.57361847
-5.1355867 3.0855484 -0.57437652
-5.6516199 3.3955898 -0.57683307
-6.271584 3.7680752 -0.57887942
-7.0294356 4.2234054 -0.58029145
-7.9930263 4.8023472 -0.58199465
-9.2673664 5.5679927 -0.5846231
-11.036963 6.6311965 -0.5889771
-13.622806 8.1848145 -0.59465504
-17.787607 10.687099 -0.60379791
-25.640087 15.405004 -0.6215921
-45.872215 27.560812 -0.66718602
-1.8331566 1.0709385 -0.5688706
-1.8896412 1.103937 -0.56694752
-1.9593364 1.1446533 -0.56777573
-2.0231426 1.1819292 -0.56561518
-2.1026762 1.2283931 -0.56647444
-2.1953516 1.2825344 -0.56920964
-2.2762492 1.3297952 -0.56721896
-2.3811255 1.3910644 -0.56941497
-2.4846926 1.4515688 -0.56928796
-2.5979939 1.5177599 -0.56930393
-2.7142327 1.5856671 -0.56775647
-2.8549097 1.6678513 -0.56884873
-3.006449 1.7563814 -0.56929034
-3.1785176 1.8569046 -0.57050216
-3.3865979 1.9784659 -0.57451159
-3.5690141 2.0850344 -0.5704087
-3.8143406 2.2283554 -0.5722456
-4.0883374 2.3884254 -0.57338172
-4.4081845 2.5752816 -0.57522917
-4.7532301 2.7768588 -0.57396418
-5.1772642 3.0245814 -0.5748347
-5.6990461 3.3294089 -0.57745141
-6.3109965 3.6869133 -0.57828897
-7.072495 4.131784 -0.57960814
-8.0508976 4.7033715 -0.58195335
-9.3297071 5.4504576 -0.58428365
-11.107956 6.4893188 -0.58846283
-13.729684 8.0209446 -0.59497017
-17.932764 10.476403 -0.6043067
-25.857399 15.10601 -0.62231022
-46.284336 27.039522 -0.66829371
-1.8518136 1.0515134 -0.57060468
-1.9151859 1.0874982 -0.5705564
-1.9728507 1.1202419 -0.56765723
-2.0603278 1.1699139 -0.57194602
-2.1222706 1.2050868 -0.56771827
-2.2146871 1.2575636 -0.57017046
-2.2963676 1.3039441 -0.56819385
-2.4074206 1.3670033 -0.57164019
-2.5005763 1.4198998 -0.5688839
-2.6253605 1.4907559 -0.57124072
-2.7375302 1.5544492 -0.56858861
-2.8781173 1.6342785 -0.5694257
-3.032222 1.7217838 -0.57011855
-3.1950784 1.8142582 -0.56942737
-3.386188 1.9227759 -0.57038802
-3.6148696 2.0526278 -0.57366014
-3.8416827 2.1814189 -0.57228011
-4.1275468 2.3437409 -0.57479542
-4.4362445 2.5190284 -0.57480532
-4.7819529 2.7153318 -0.5733574
-5.2224755 2.9654732 -0.57576233
-5.7299452 3.2536294 -0.57648492
-6.3433685 3.601949 -0.57715315
-7.132174 4.0498552 -0.58037394
-8.1209841 4.6113305 -0.58287662
-9.393115 5.3336835 -0.58410311
-11.197201 6.3580956 -0.5890044
-13.824958 7.8502126 -0.59487081
-18.071737 10.261657 -0.60469198
-26.068592 14.802504 -0.62296528
-46.672813 26.502178 -0.66914696
-1.8581148 1.0250858 -0.56861937
-1.9333047 1.0665666 -0.57200384
-1.9772396 1.0908047 -0.565018
-2.0481172 1.1299064 -0.56465673
-2.1410022 1.1811492 -0.56880081
-2.2132964 1.2210326 -0.5659042
-2.3085234 1.2735676 -0.56728381
-2.4259052 1.3383248 -0.57207847
-2.519748 1.3900959 -0.5693137
-2.6312153 1.4515904 -0.5685879
-2.7685921 1.5273784 -0.57109612
-2.8935242 1.5963011 -0.56854743
-3.0540071 1.6848363 -0.57027608
-3.2238865 1.7785555 -0.57062072
-3.4106061 1.8815651 -0.57056075
-3.6176112 1.9957658 -0.57015765
-3.870352 2.1351981 -0.57259643
-4.1408949 2.2844512 -0.57269913
-4.4574232 2.4590738 -0.57358813
-4.8308921 2.6651092 -0.57525241
-5.2542095 2.8986452 -0.57528788
-5.7796268 3.1885078 -0.57749504
-6.3954339 3.5282366 -0.57789928
-7.166822 3.9537964 -0.57919335
-8.1625547 4.5031228 -0.58184201
-9.4628954 5.2204957 -0.58440632
-11.270232 6.2175684 -0.58877987
-13.931408 7.6856871 -0.59533966
-18.200687 10.040966 -0.60482973
-26.258692 14.48641 -0.62320417
-47.056797 25.96032 -0.67002475
-1.8628455 0.99801898 -0.56626874
-1.9360685 1.0372481 -0.56900489
-1.9998919 1.0714415 -0.56768334
-2.0712848 1.1096903 -0.56723917
-2.1536474 1.153816 -0.56834799
-2.2430074 1.2016907 -0.56967968
-2.3224766 1.2442662 -0.56690997
-2.4242883 1.2988118 -0.56788802
-2.5395477 1.3605618 -0.56996411
-2.668366 1.4295763 -0.57277393
-2.7724209 1.4853238 -0.56807548
-2.918797 1.5637447 -0.56969202
-3.0743225 1.6470673 -0.57024461
-3.2657907 1.7496464 -0.57418627
-3.4424295 1.8442807 -0.57204747
-3.6605353 1.9611309 -0.57307875
-3.892189 2.0852392 -0.57199037
-4.1847582 2.2419832 -0.57490927
-4.490705 2.4058938 -0.57402056
-4.8609138 2.6042333 -0.57497066
-5.2928505 2.8356433 -0.57565743
-5.8063703 3.1107612 -0.57630157
-6.447278 3.4541273 -0.57870221
-7.2274065 3.872081 -0.58019781
-8.2258043 4.4069724 -0.58244377
-9.5424738 5.1123776 -0.58539432
-11.355893 6.0839167 -0.58930212
-14.0346 7.519033 -0.59575337
-18.320314 9.8151035 -0.60474861
-26.436674 14.163441 -0.62324774
-47.44091 25.416454 -0.67099327
-1.8753016 0.97520816 -0.56636709
-1.9379296 1.0077765 -0.56586713
-2.0101049 1.0453095 -0.5668909
-2.0885401 1.0860981 -0.56826425
-2.160202 1.1233643 -0.56638962
-2.2621508 1.1763803 -0.57082456
-2.3449061 1.2194154 -0.56868184
-2.4498854 1.2740076 -0.5701713
-2.5521514 1.3271887 -0.56908715
-2.6822226 1.3948293 -0.57202345
-2.8020928 1.457165 -0.57044071
-2.9298112 1.5235821 -0.56814218
-3.0971582 1.610607 -0.57076365
-3.2831819 1.7073445 -0.5735094
-3.4652948 1.8020482 -0.57212162
-3.6737125 1.9104311 -0.57142079
-3.9294791 2.0434368 -0.57373446
-4.2011318 2.1847036 -0.5734247
-4.5134134 2.3470986 -0.57319081
-4.8993516 2.547797 -0.57576799
-5.3328919 2.7732499 -0.57625991
-5.850812 3.0425825 -0.57695562
-6.4882183 3.3740513 -0.57860923
-7.269258 3.7802134 -0.57978219
-8.2857237 4.3088036 -0.58289087
-9.5963135 4.9903455 -0.58488846
-11.431591 5.9447408 -0.58939242
-14.125128 7.3454533 -0.59571701
-18.466961 9.6033249 -0.60564554
-26.640358 13.853716 -0.62398636
-47.810852 24.862951 -0.67185068
-1.8794889 0.94821131 -0.56406772
-1.9596875 0.98867184 -0.56862748
-2.0264721 1.0223651 -0.56791848
-2.103636 1.0612946 -0.56877786
-2.1712003 1.095381 -0.56569892
-2.2752907 1.1478953 -0.57053542
-2.3524284 1.1868116 -0.56692404
-2.4640622 1.2431314 -0.56987
-2.5548165 1.2889173 -0.56610447
-2.6852472 1.3547202 -0.56907284
-2.815208 1.4202862 -0.56951225
-2.9619908 1.4943388 -0.57077599
-3.1207857 1.5744516 -0.57150686
-3.2928326 1.66125 -0.57158369
-3.4919369 1.7616992 -0.57290035
-3.6982856 1.8658031 -0.57163113
-3.9420671 1.9887921 -0.57195854
-4.2295456 2.1338263 -0.57367826
-4.542397 2.2916615 -0.57324964
-4.9307361 2.4875803 -0.575818
-5.350626 2.6994169 -0.57454604
-5.8875771 2.9703114 -0.57693571
-6.5405416 3.2997351 -0.57961315
-7.3192921 3.6926184 -0.58010745
-8.3434219 4.2092967 -0.58326453
-9.6673088 4.8772044 -0.5855161
-11.505993 5.8048296 -0.58950371
-14.217223 7.1726584 -0.59583634
-18.595268 9.381403 -0.60602444
-26.833303 13.537533 -0.62455946
-48.159069 24.296484 -0.67249483
-1.8974891 0.92820185 -0.56600165
-1.9657238 0.96158046 -0.5669052
-2.0344412 0.99519521 -0.56667942
-2.1165297 1.0353507 -0.56877881
-2.2066698 1.0794449 -0.57143885
-2.2783973 1.1145321 -0.56783491
-2.382477 1.1654452 -0.57066888
-2.4668534 1.20672 -0.56704098
-2.5863855 1.2651918 -0.56960934
-2.7088864 1.3251162 -0.57058632
-2.8485489 1.3934352 -0.57274753
-2.9795144 1.4575002 -0.570656
-3.1409507 1.5364707 -0.57169658
-3.3038614 1.6161623 -0.57000536
-3.5015926 1.7128872 -0.57098573
-3.7214947 1.8204576 -0.5717153
-3.9698062 1.9419249 -0.57247537
-4.2495971 2.0787911 -0.57288754
-4.5872312 2.243953 -0.57538193
-4.9483142 2.4205852 -0.57435143
-5.399374 2.641232 -0.57624954
-5.9287567 2.9001923 -0.57743275
-6.5708089 3.2142673 -0.57874906
-7.3734188 3.6068828 -0.58083826
-8.3913879 4.1048465 -0.58304507
-9.7332926 4.761271 -0.58592218
-11.584868 5.6670136 -0.58993
-14.298283 6.9943447 -0.59558403
-18.699303 9.1472082 -0.60570347
-27.014013 13.214545 -0.62493622
-48.530041 23.73962 -0.67354786
-1.9216063 0.91089123 -0.5698114
-1.9826304 0.9398182 -0.56840521
-2.0438504 0.96883816 -0.56593919
-2.1420572 1.0153906 -0.57224029
-2.2138925 1.0494425 -0.56992441
-2.2806063 1.0810666 -0.56502974
-2.4037478 1.1394387 -0.57236445
-2.4941673 1.1823001 -0.56993461
-2.5896504 1.2275615 -0.56696117
-2.7250357 1.2917377 -0.57059908
-2.8584018 1.3549566 -0.57133538
-2.9886792 1.4167114 -0.56903177
-3.1502469 1.4932988 -0.57000333
-3.3295953 1.5783145 -0.57105362
-3.5308125 1.6736968 -0.57235128
-3.7611749 1.7828945 -0.57439971
-3.9897666 1.891253 -0.57195693
-4.2887034 2.0329566 -0.57474595
-4.6033754 2.1821194 -0.57399791
-4.9866228 2.3637886 -0.57538068
-5.4392328 2.5783374 -0.57707614
-5.9515243 2.821177 -0.5762279
-6.6237459 3.1398273 -0.5799672
-7.4118872 3.5134268 -0.58042139
-8.4430752 4.0022368 -0.58317286
-9.7875013 4.6395297 -0.58570695
-11.666513 5.5302305 -0.59058011
-14.389499 6.8209958 -0.59584475
-18.840408 8.9308424 -0.60667104
-27.193628 12.890485 -0.62537724
-48.879097 23.16996 -0.67438722
-1.9155462 0.87933862 -0.56476545
-1.9837878 0.91066521 -0.56548393
-2.0618441 0.94649726 -0.56765598
-2.139039 0.98193389 -0.56816548
-2.2224131 1.020207 -0.56884545
-2.3051136 1.0581709 -0.56783485
-2.4072349 1.1050502 -0.56991619
-2.5160091 1.1549833 -0.57163703
-2.6148865 1.2003734 -0.56921166
-2.7258334 1.251304 -0.56750143
-2.8690395 1.3170433 -0.57018155
-3.0032308 1.3786442 -0.56853169
-3.1747332 1.457373 -0.5711481
-3.3438025 1.5349851 -0.57020998
-3.5451558 1.627417 -0.57138926
-3.7775698 1.7341075 -0.57360369
-4.0187731 1.8448328 -0.57281983
-4.3000078 1.9739345 -0.57296479
-4.6306739 2.1257281 -0.57409912
-5.0230708 2.3058593 -0.57627106
-5.4669747 2.509635 -0.57670176
-5.9889269 2.7492392 -0.57653254
-6.6508245 3.0530858 -0.57900727
-7.4653077 3.4269774 -0.58126086
-8.4924374 3.8984849 -0.58322716
-9.8587894 4.5257139 -0.5865984
-11.73148 5.3853793 -0.59047192
-14.489989 6.6516838 -0.59657395
-18.956116 8.7018757 -0.60690546
-27.351048 12.5556 -0.62539965
-49.20718 22.588739 -0.67503047
-1.9306514 0.85769105 -0.56606668
-2.0090182 0.89250547 -0.5695045
-2.0887716 0.92793584 -0.57188481
-2.147609 0.95407438 -0.56728274
-2.2214067 0.98685902 -0.56543911
-2.3177955 1.0296797 -0.56779701
-2.4173596 1.073911 -0.56914377
-2.5127594 1.1162924 -0.56773716
-2.6419017 1.1736637 -0.57190752
-2.7573974 1.2249727 -0.5708937
-2.8669066 1.273622 -0.56660241
-3.0240257 1.3434222 -0.56929803
-3.1992714 1.421275 -0.5723753
-3.3640699 1.4944867 -0.57048929
-3.5744445 1.5879455 -0.57291943
-3.7917755 1.6844946 -0.57257223
-4.0495205 1.7989978 -0.57400596
-4.3234076 1.9206721 -0.57289249
-4.672236 2.0756388 -0.57604408
-5.0473981 2.2423046 -0.57585526
-5.4859624 2.4371364 -0.57549995
-6.0282435 2.6780448 -0.57710373
-6.685286 2.9699354 -0.57878429
-7.501328 3.3324618 -0.58083099
-8.5284605 3.788765 -0.58245754
-9.8924723 4.3947268 -0.58534288
-11.78524 5.2355876 -0.58989286
-14.576125 6.4754372 -0.59679687
-19.057821 8.4664288 -0.60678267
-27.527987 12.229297 -0.62595963
-49.539436 22.007874 -0.67582494
-1.9532461 0.83912688 -0.56962311
-2.0255365 0.87018329 -0.57111067
-2.0835419 0.89510268 -0.56739658
-2.1742337 0.93406451 -0.57123852
-2.2470851 0.96536195 -0.56891072
-2.3268356 0.99962324 -0.56695753
-2.4260552 1.0422486 -0.56813073
-2.5291295 1.08653 -0.56837422
-2.6504047 1.1386305 -0.57067418
-2.7561173 1.1840453 -0.56757128
-2.9085584 1.249535 -0.5717544
-3.0363643 1.3044412 -0.56855828
-3.2186816 1.3827659 -0.57276261
-3.4025388 1.4617521 -0.57392132
-3.5814061 1.5385946 -0.57095969
-3.8183002 1.6403658 -0.57348841
-4.0626755 1.745351 -0.5727852
-4.3388991 1.8640184 -0.57186478
-4.6776433 2.0095451 -0.5736208
-5.0670733 2.1768467 -0.57500261
-5.5317707 2.3764837 -0.5771963
-6.0529108 2.6003685 -0.57636052
-6.7364674 2.8940289 -0.58009058
-7.5418992 3.2400475 -0.58084357
-8.6016874 3.6953392 -0.58431113
-9.9571095 4.277637 -0.58601087
-11.852668 5.0919805 -0.5900892
-14.653405 6.2951951 -0.5967465
-19.175039 8.2377176 -0.60724378
-27.699265 11.899778 -0.62647969
-49.864624 21.422155 -0.67661643
-1.9500458 0.809497 -0.56574416
-2.0152118 0.83654851 -0.56525642
-2.0892508 0.86728334 -0.56600428
-2.1722984 0.90175778 -0.56777382
-2.2745776 0.94421566 -0.57288837
-2.3496437 0.97537684 -0.56954956
-2.4336395 1.0102448 -0.56695491
-2.5447013 1.0563486 -0.56891155
-2.6613002 1.1047508 -0.57005209
-2.7738721 1.1514813 -0.56826884
-2.9160709 1.2105104 -0.57026201
-3.0747039 1.2763616 -0.57275522
-3.2333937 1.3422364 -0.57240033
-3.4100749 1.4155798 -0.57221323
-3.6159382 1.5010371 -0.573479
-3.8260124 1.5882425 -0.57167023
-4.0802393 1.6937762 -0.57228178
-4.3786912 1.8176687 -0.5741201
-4.7107301 1.9555038 -0.57468611
-5.1075583 2.1202338 -0.57659465
-5.5436406 2.301259 -0.57543874
-6.0866356 2.5266652 -0.5765698
-6.7496328 2.8018868 -0.57821375
-7.5769744 3.1453302 -0.58052236
-8.6389465 3.5861728 -0.58380246
-9.9992838 4.1508718 -0.58544475
-11.923053 4.949461 -0.59051877
-14.744048 6.1205039 -0.59732777
-19.287863 8.0067177 -0.6076529
-27.855677 11.563363 -0.62675405
-50.185577 20.832882 -0.67744428
-1.96061 0.78576291 -0.56596309
-2.0291395 0.81322783 -0.56631535
-2.0999408 0.8416031 -0.56605387
-2.186065 0.87611955 -0.56851321
-2.2661574 0.90821856 -0.56791192
-2.3619554 0.94661194 -0.56966931
-2.4421289 0.97874343 -0.56608605
-2.5635839 1.0274196 -0.57026553
-2.6798408 1.0740124 -0.57115144
-2.8019586 1.1229541 -0.57115072
-2.9425852 1.1793137 -0.57256794
-3.0873537 1.2373332 -0.57223409
-3.2422304 1.2994039 -0.5710929
-3.4178612 1.3697922 -0.57065022
-3.6214962 1.4514041 -0.57148671
-3.844492 1.5407752 -0.57155734
-4.1174002 1.6501498 -0.57460451
-4.3977551 1.762509 -0.5737347
-4.7325768 1.896697 -0.57446259
-5.129735 2.0558679 -0.57620078
-5.5881395 2.2395849 -0.57715553
-6.1253695 2.4548931 -0.57733583
-6.8035069 2.7266734 -0.57991284
-7.6102986 3.0500152 -0.58015823
-8.681098 3.4791646 -0.5837158
-10.072898 4.0369625 -0.58680403
-11.992723 4.8063798 -0.59099752
-14.824432 5.9412575 -0.59757948
-19.389091 7.7706575 -0.60778582
-28.029167 11.233381 -0.62750214
-50.486816 20.233839 -0.67810082
-1.9820325 0.76620054 -0.56938428
-2.0486929 0.79196972 -0.56901163
-2.1177304 0.81865776 -0.56809276
-2.2045913 0.85223585 -0.57056278
-2.2909369 0.88561469 -0.5713495
-2.3708735 0.91651601 -0.56905901
-2.4604478 0.95114303 -0.56757843
-2.5712366 0.99397105 -0.56920594
-2.6878223 1.03904 -0.57008642
-2.8053467 1.0844717 -0.56908005
-2.9446037 1.1383047 -0.57019401
-3.0848873 1.1925346 -0.56901604
-3.2653451 1.2622948 -0.5723871
-3.4431787 1.3310404 -0.57210135
-3.6479459 1.410198 -0.57288086
-3.8736012 1.4974302 -0.5731042
-4.127461 1.5955656 -0.57322711
-4.4189529 1.7082486 -0.57371646
-4.7599211 1.8400576 -0.57499176
-5.1574626 1.9937366 -0.57651794
-5.6042371 2.1664474 -0.57602316
-6.1480913 2.376687 -0.57667929
-6.8229971 2.6375873 -0.57876587
-7.650919 2.9576399 -0.58043844
-8.7260838 3.3732696 -0.58390737
-10.132533 3.9169652 -0.58742779
-12.048012 4.6574378 -0.59085518
-14.892716 5.7571244 -0.59743321
-19.494274 7.5359631 -0.60813218
-28.161636 10.886533 -0.62742347
-50.781021 19.630579 -0.67875892
-1.9821551 0.73836464 -0.56676841
-2.0595214 0.76718408 -0.56935596
-2.1251109 0.7916165 -0.56741846
-2.219142 0.82664365 -0.57165468
-2.2813785 0.84982717 -0.56631672
-2.3707125 0.88310456 -0.5663712
-2.499851 0.93120939 -0.57398313
-2.575865 0.95952517 -0.56757575
-2.7013187 1.0062574 -0.57028151
-2.8162568 1.0490725 -0.56863344
-2.9617136 1.103256 -0.57083714
-3.0912952 1.151526 -0.56754327
-3.2655647 1.2164423 -0.5697605
-3.4469171 1.2839973 -0.57005608
-3.6700392 1.3671116 -0.57366711
-3.8864977 1.4477437 -0.57233512
-4.1557169 1.5480294 -0.57446426
-4.4445066 1.6556052 -0.5743475
-4.7858467 1.7827564 -0.57543194
-5.1586204 1.9216169 -0.57396263
-5.6328216 2.0982597 -0.57626569
-6.1764226 2.3007543 -0.57663947
-6.8697066 2.5590067 -0.580015
-7.6990466 2.8679409 -0.58137029
-8.7618132 3.2638278 -0.58356857
-10.174644 3.7901156 -0.58712286
-12.103018 4.5084467 -0.59078938
-14.978278 5.5794983 -0.59806812
-19.589111 7.297061 -0.60824555
-28.311588 10.546236 -0.62782764
-51.071766 19.024538 -0.6794669
-1.9886756 0.71307361 -0.56608289
-2.072412 0.74309868 -0.57035035
-2.147748 0.77011168 -0.57089114
-2.2021239 0.78960913 -0.56472689
-2.2978966 0.82395011 -0.56785911
-2.3896604 0.85685354 -0.56833774
-2.5027037 0.89738721 -0.5720613
-2.5988114 0.93184829 -0.57006395
-2.7105572 0.97191662 -0.56966573
-2.8298686 1.0146978 -0.56881952
-2.9817712 1.069165 -0.57212579
-3.1255653 1.1207248 -0.57126176
-3.2924402 1.1805607 -0.57187355
-3.4685593 1.2437112 -0.57106286
-3.6667387 1.3147718 -0.57058102
-3.903652 1.3997211 -0.57228345
-4.1615796 1.4922055 -0.57269496
-4.4595084 1.5990329 -0.57370186
-4.7916932 1.7181433 -0.5735513
-5.202292 1.8653708 -0.576226
-5.6463795 2.0246058 -0.57506233
-6.2120914 2.2274516 -0.5773688
-6.8880267 2.4698198 -0.57895386
-7.7255154 2.7701156 -0.58075297
-8.8198709 3.1625156 -0.5848012
-10.213582 3.6622543 -0.58672684
-12.173748 4.3651056 -0.59157711
-15.049815 5.3963685 -0.59822971
-19.685575 7.0585995 -0.60849977
-28.462368 10.205668 -0.62834084
-51.355633 18.41444 -0.6801796
-1.9990075 0.68915898 -0.56656885
-2.0794599 0.71689498 -0.56982088
-2.1503758 0.74134332 -0.56912357
-2.2198281 0.76528704 -0.56681103
-2.3056974 0.79489052 -0.56732851
-2.405894 0.82943338 -0.56972992
-2.4847322 0.8566128 -0.56550294
-2.5980139 0.89566678 -0.5674302
-2.7238193 0.93903828 -0.56998312
-2.8529997 0.98357326 -0.57099479
-2.9875391 1.0299559 -0.5707593
-3.1395919 1.0823761 -0.57134968
-3.2973516 1.1367639 -0.57025564
-3.4988439 1.2062284 -0.57356358
-3.699234 1.275313 -0.57315403
-3.9143944 1.3494897 -0.57138234
-4.1926446 1.4454167 -0.57448065
-4.4776139 1.5436599 -0.57354581
-4.8362598 1.6673034 -0.57638824
-5.2169008 1.7985296 -0.57535106
-5.6905398 1.9618169 -0.57705939
-6.2420225 2.1519408 -0.57764763
-6.9252758 2.3874929 -0.57957333
-7.7592449 2.6750042 -0.58077192
-8.8528805 3.0520358 -0.58445734
-10.2715 3.5411053 -0.58750814
-12.228331 4.215724 -0.59166574
-15.099993 5.2057309 -0.59763461
-19.768284 6.8151269 -0.60841995
-28.605852 9.8618841 -0.62878382
-51.628017 17.798788 -0.68083698
-2.0204918 0.66888529 -0.57028383
-2.086868 0.69085914 -0.56948
-2.1670141 0.71739161 -0.57114923
-2.2368813 0.74052113 -0.56879729
-2.3113649 0.76517898 -0.56636506
-2.4004757 0.79467922 -0.56609005
-2.5004716 0.82778293 -0.56672567
-2.6138873 0.86532927 -0.56853014
-2.7387781 0.90667444 -0.57073724
-2.8661232 0.94883215 -0.57124305
-2.9856472 0.98840064 -0.56803298
-3.1278934 1.0354913 -0.56686074
-3.3056812 1.0943481 -0.56932592
-3.4930785 1.1563861 -0.57024431
-3.7121055 1.2288952 -0.57276374
-3.94452 1.3058361 -0.57339257
-4.2020645 1.3910965 -0.57338423
-4.4955721 1.4882623 -0.57345861
-4.8304133 1.5991117 -0.57330459
-5.2342925 1.7328162 -0.57487571
-5.7090945 1.8899997 -0.57654065
-6.2696714 2.0755792 -0.57780069
-6.9415731 2.2980127 -0.57852864
-7.8024158 2.5829954 -0.58158195
-8.8769236 2.9387116 -0.58361483
-10.312683 3.414021 -0.58741814
-12.280074 4.0653272 -0.59170586
-15.179718 5.0252562 -0.59829909
-19.856256 6.5734277 -0.60859382
-28.735964 9.5130615 -0.62902492
-51.885319 17.17667 -0.68139327
-2.0212896 0.64168245 -0.56823891
-2.0833855 0.66139555 -0.56626749
-2.1640208 0.68699419 -0.5680908
-2.2452347 0.71277654 -0.56864971
-2.3339231 0.74093175 -0.56961709
-2.4245749 0.76971018 -0.56949812
-2.524658 0.8014828 -0.56993067
-2.6237874 0.83295262 -0.56841272
-2.7454386 0.8715722 -0.56984872
-2.8600218 0.90794808 -0.56775892
-3.0002398 0.9524619 -0.56853807
-3.1586235 1.0027426 -0.57015222
-3.3252718 1.0556473 -0.57042122
-3.5138748 1.1155214 -0.57135689
-3.7226133 1.181788 -0.57209957
-3.9572923 1.2562896 -0.57296032
-4.2204909 1.3398452 -0.57360709
-4.5210047 1.4352469 -0.57440817
-4.8646622 1.544345 -0.57507217
-5.2709236 1.6733176 -0.57659543
-5.7200828 1.8159084 -0.57535183
-6.2921882 1.9975302 -0.57756853
-6.9870558 2.2181242 -0.58000231
-7.8448739 2.4904487 -0.58242005
-8.9031076 2.8263977 -0.58300728
-10.354978 3.2873111 -0.58748043
-12.330281 3.9143949 -0.59176111
-15.235517 4.8366966 -0.59810901
-19.94244 6.3309655 -0.60880327
-28.865223 9.1636095 -0.62934029
-52.135601 16.551067 -0.68195581
-2.024343 0.6153574 -0.56692725
-2.1053329 0.63997662 -0.57005084
-2.1697557 0.65955979 -0.5674243
-2.258693 0.68659484 -0.56987697
-2.345439 0.71296376 -0.57024485
-2.4440086 0.7429269 -0.57187384
-2.5397499 0.77203023 -0.57115138
-2.6429777 0.80340922 -0.57038677
-2.7603316 0.83908236 -0.57075524
-2.8769014 0.87451714 -0.568932
-3.0328164 0.92191195 -0.57251978
-3.1733062 0.96461791 -0.57061833
-3.3454254 1.0169384 -0.57169008
-3.5217383 1.0705339 -0.57045192
-3.7514129 1.1403501 -0.57432717
-3.9681821 1.2062433 -0.57234621
-4.2275076 1.2850728 -0.57236981
-4.5393696 1.3798722 -0.57454228
-4.8853345 1.4850383 -0.57531375
-5.2895885 1.6079229 -0.5764308
-5.7726698 1.7547694 -0.57842726
-6.3159585 1.9199177 -0.57753974
-7.0108576 2.1311524 -0.57975888
-7.8694057 2.3921328 -0.58201349
-8.9578629 2.7230008 -0.58435607
-10.401989 3.1619842 -0.58789718
-12.388984 3.7659888 -0.59231114
-15.296329 4.6497602 -0.59820658
-20.039572 6.0916057 -0.60943574
-28.984758 8.8107529 -0.62953675
-52.386272 15.924317 -0.68262178
-2.0415082 0.59325439 -0.56964839
-2.1170702 0.61521244 -0.57113737
-2.1823418 0.63418007 -0.56863344
-2.2559512 0.65557075 -0.56710845
-2.3466651 0.68193179 -0.56846124
-2.4433706 0.71003407 -0.56963849
-2.531754 0.73571795 -0.56727588
-2.6437085 0.76825148 -0.56846273
-2.7613623 0.80244124 -0.56888515
-2.8935997 0.84086895 -0.57014638
-3.0215189 0.87804174 -0.56830597
-3.1906848 0.92720073 -0.57164997
-3.3377378 0.96993375 -0.56829524
-3.5499516 1.0316023 -0.57292384
-3.7474051 1.0889815 -0.57162035
-3.9802723 1.1566517 -0.57199538
-4.2549305 1.2364664 -0.57398075
-4.5436683 1.3203725 -0.57298809
-4.8990426 1.4236429 -0.57482302
-5.2957835 1.5389344 -0.57500023
-5.7904568 1.6826843 -0.57809252
-6.3544073 1.8465662 -0.5789355
-7.0448122 2.0471952 -0.58044118
-7.900454 2.2958415 -0.58217788
-8.9940186 2.613627 -0.58457392
-10.429237 3.0306962 -0.58728659
-12.424479 3.6105061 -0.59184086
-15.358027 4.4629836 -0.59842801
-20.115356 5.8454447 -0.6095084
-29.101742 8.4568539 -0.62977135
-52.616085 15.290031 -0.68311483
-2.0548522 0.56982857 -0.57137352
-2.1105986 0.58528751 -0.56740701
-2.1855643 0.60607612 -0.56748837
-2.2748945 0.63084817 -0.56987733
-2.3393269 0.64871585 -0.56470859
-2.444051 0.67775679 -0.56781125
-2.5540147 0.7082507 -0.57026923
-2.6610518 0.73793298 -0.57019776
-2.7889915 0.77341175 -0.57257462
-2.9156637 0.80853909 -0.57249153
-3.0525744 0.84650558 -0.572146
-3.2088611 0.88984531 -0.5729028
-3.3696597 0.93443614 -0.57173079
-3.5583868 0.98677188 -0.57228369
-3.7643914 1.0438987 -0.57221007
-4.0073271 1.1112669 -0.57387626
-4.2708478 1.1843435 -0.57411999
-4.5635471 1.2655116 -0.57348919
-4.9234004 1.3653021 -0.57566768
-5.3113127 1.4728736 -0.57467645
-5.8063664 1.6101563 -0.5776605
-6.371644 1.7669127 -0.57848269
-7.048099 1.9544996 -0.57868803
-7.915904 2.1951497 -0.58128339
-9.0177622 2.5007045 -0.58407444
-10.481148 2.9065142 -0.58815271
-12.470051 3.4580543 -0.59194136
-15.410154 4.2733707 -0.59836638
-20.190075 5.5988846 -0.60964024
-29.220743 8.1031685 -0.63014275
-52.847897 14.655185 -0.68373311
-2.0505412 0.54157186 -0.56828004
-2.1136799 0.55824757 -0.56634718
-2.1838136 0.57677066 -0.56514949
-2.274374 0.60068876 -0.56785369
-2.3631771 0.62414271 -0.56857038
-2.4632876 0.65058303 -0.57037872
-2.550987 0.67374551 -0.56770045
-2.6767964 0.7069732 -0.57166547
-2.7824521 0.73487812 -0.56933391
-2.9180205 0.77068329 -0.57105035
-3.0540977 0.80662292 -0.57052934
-3.2054267 0.8465907 -0.5703879
-3.3782816 0.89224368 -0.57128894
-3.570617 0.94304174 -0.5723424
-3.774061 0.9967736 -0.57177359
-4.0027757 1.0571799 -0.57131964
-4.2733154 1.1286325 -0.57254279
-4.5688882 1.2066969 -0.57225245
-4.9371161 1.3039501 -0.57535315
-5.3476768 1.412384 -0.57668829
-5.8109422 1.5347377 -0.57619464
-6.3939319 1.6887122 -0.57857716
-7.0885987 1.8721818 -0.58007926
-7.9471231 2.0989282 -0.58163667
-9.0517416 2.3906708 -0.58432704
-10.511016 2.7760823 -0.58786881
-12.515322 3.3054428 -0.59211618
-15.481413 4.0888219 -0.59913576
-20.257111 5.3501401 -0.6096319
-29.339771 7.7489767 -0.63060707
-53.038052 14.007969 -0.68391305
-2.0492949 0.51437318 -0.56613904
-2.1259942 0.53362465 -0.56784558
-2.2054005 0.55355567 -0.56893152
-2.2967319 0.57647985 -0.57162279
-2.3690348 0.59462786 -0.56817752
-2.4698122 0.619923 -0.57008129
-2.5707273 0.64525276 -0.57028461
-2.6872144 0.67449099 -0.57207584
-2.7914178 0.7006461 -0.56936258
-2.9240484 0.73393637 -0.57042074
-3.0734098 0.77142608 -0.57232171
-3.2288249 0.81043524 -0.57273483
-3.4056273 0.85481262 -0.57409239
-3.5726376 0.89673227 -0.57085568
-3.7874856 0.9506591 -0.57199317
-4.0262175 1.0105809 -0.57284856
-4.297092 1.0785704 -0.57390809
-4.5993872 1.1544465 -0.57425106
-4.9553685 1.2437978 -0.57565433
-5.3586984 1.3450336 -0.57604969
-5.8427701 1.4665357 -0.57751888
-6.4114499 1.6092744 -0.57832801
-7.0969477 1.7813344 -0.57892627
-7.9814777 2.0033514 -0.58230406
-9.0824118 2.279686 -0.58445317
-10.538505 2.6451652 -0.58754259
-12.554757 3.1512449 -0.5921039
-15.531352 3.8983705 -0.599168
-20.339428 5.1051974 -0.61017382
-29.439552 7.3893294 -0.63075107
-53.279808 13.373236 -0.68485826
-2.0734313 0.49341258 -0.5710876
-2.1363208 0.50837839 -0.56889105
-2.2062085 0.52500945 -0.56743163
-2.2817481 0.54298562 -0.56618899
-2.3848324 0.56751651 -0.57024962
-2.4768515 0.58941412 -0.5699901
-2.5822682 0.61450011 -0.57112539
-2.6857109 0.63911629 -0.57003963
-2.7920861 0.66443032 -0.56778949
-2.9400802 0.69964832 -0.5718267
-3.0666006 0.72975624 -0.56933969
-3.2199671 0.76625276 -0.56944925
-3.3875031 0.80612117 -0.56932318
-3.5872192 0.85364741 -0.57146513
-3.7997265 0.9042176 -0.57211941
-4.0418115 0.96182638 -0.57334119
-4.3063841 1.0247865 -0.57342279
-4.6033707 1.0954601 -0.57302326
-4.9649553 1.1815062 -0.57503682
-5.3724895 1.2784866 -0.57579869
-5.8516712 1.392517 -0.57666254
-6.4330702 1.530872 -0.57853645
-7.1210265 1.6945844 -0.57914686
-7.9991603 1.9035531 -0.58184242
-9.0952568 2.1643903 -0.58352298
-10.575576 2.5166605 -0.58783966
-12.596276 2.997525 -0.5922789
-15.582424 3.7081358 -0.59933394
-20.393848 4.8531065 -0.60997009
-29.544081 7.0305786 -0.63109064
-53.464859 12.722985 -0.68517411
-2.0655754 0.46478382 -0.56730682
-2.1402009 0.48157561 -0.56830442
-2.2215869 0.49988863 -0.56976289
-2.3072846 0.51917183 -0.57089835
-2.3908408 0.53797317 -0.57006139
-2.4853957 0.5592494 -0.57033074
-2.5924568 0.58333963 -0.57174909
-2.6875823 0.60474426 -0.56881547
-2.8115113 0.63263005 -0.57011467
-2.9426455 0.66213709 -0.57069892
-3.0836933 0.69387484 -0.57088584
-3.2434592 0.72982442 -0.5719735
-3.4081614 0.7668848 -0.57116711
-3.6091881 0.81211865 -0.5733307
-3.8176379 0.85902286 -0.57318258
-4.0533519 0.91206175 -0.57334393
-4.322247 0.97256708 -0.57389921
-4.6365051 1.0432795 -0.5755074
-4.9822679 1.1210811 -0.57540184
-5.4058795 1.2163998 -0.5777306
-5.8803973 1.323173 -0.57784635
-6.4378519 1.4486083 -0.57732093
-7.1525769 1.6094315 -0.58005947
-8.0215483 1.8049624 -0.5818125
-9.1342001 2.0553248 -0.58435583
-10.591189 2.3831682 -0.58703429
-12.629155 2.8417394 -0.59213704
-15.618995 3.5144958 -0.599033
-20.449465 4.6014204 -0.60989505
-29.635448 6.6683969 -0.63124305
-53.647961 12.071554 -0.68556648
-2.070776 0.43927538 -0.56720877
-2.1499867 0.45607844 -0.56937075
-2.2268853 0.47239101 -0.56958896
-2.285697 0.48486671 -0.56403893
-2.3989937 0.50890046 -0.57047015
-2.4985881 0.53002751 -0.57181919
-2.594254 0.55032122 -0.57060993
-2.7020779 0.57319397 -0.57034856
-2.8224883 0.59873676 -0.57080454
-2.947607 0.62527823 -0.57012689
-3.0860405 0.65464425 -0.56978703
-3.2603724 0.69162542 -0.57341295
-3.4138484 0.72418243 -0.57058465
-3.610795 0.76596087 -0.57204658
-3.8327563 0.81304568 -0.57390797
-4.0642276 0.86214781 -0.5733394
-4.3332577 0.91921747 -0.57381701
-4.6463242 0.98562855 -0.57517838
-4.9855266 1.0575838 -0.57423288
-5.3983541 1.1451572 -0.57537794
-5.8876219 1.2489461 -0.57700354
-6.478395 1.3742672 -0.5793975
-7.1756463 1.5221757 -0.58036852
-8.0324535 1.7039307 -0.58103985
-9.177393 1.9468079 -0.58554333
-10.647234 2.2586064 -0.58855683
-12.667534 2.6871741 -0.59234244
-15.672556 3.3246319 -0.59947401
-20.519674 4.3528552 -0.61034656
-29.714828 6.3034306 -0.63123518
-53.841843 11.421514 -0.68619752
-2.0849018 0.41555104 -0.56963527
-2.1575773 0.43003631 -0.56993747
-2.2261589 0.44370559 -0.56796467
-2.3209605 0.46260092 -0.57129401
-2.4034588 0.47904402 -0.57008809
-2.4995036 0.49818715 -0.57058364
-2.5952795 0.51727664 -0.5693934
-2.7083888 0.53982097 -0.57023644
-2.8377554 0.56560558 -0.57244223
-2.9583228 0.58963645 -0.57075399
-3.0993817 0.61775154 -0.5708046
-3.2606997 0.64990455 -0.57202184
-3.4209924 0.68185312 -0.5703342
-3.626888 0.72289115 -0.5731445
-3.8262434 0.76262552 -0.5714854
-4.0748706 0.81218058 -0.57338864
-4.3339696 0.86382264 -0.57246137
-4.6682229 0.93044418 -0.57642931
-5.0036998 0.99730957 -0.57487011
-5.408607 1.0780134 -0.57501441
-5.9162545 1.1791949 -0.57834482
-6.4925475 1.2940584 -0.57919627
-7.1844368 1.431962 -0.5796116
-8.0686808 1.6082045 -0.58218592
-9.1865368 1.8310094 -0.58464605
-10.663989 2.1254869 -0.5879938
-12.683107 2.5279264 -0.5915724
-15.70434 3.1301017 -0.59917229
-20.576782 4.1012497 -0.61049896
-29.791142 5.9378042 -0.63125753
-54.010445 10.765061 -0.68660736
-2.080425 0.38812563 -0.56706536
-2.1608822 0.40313575 -0.56945795
-2.2300541 0.41604054 -0.56761038
-2.3170264 0.43226615 -0.56897426
-2.3941638 0.44665697 -0.5665378
-2.5056171 0.46744975 -0.57062393
-2.5982146 0.48472482 -0.56868666
-2.7039826 0.50445694 -0.56795979
-2.8419731 0.5302006 -0.57193464
-2.9734454 0.55472809 -0.57231236
-3.1074526 0.5797286 -0.57093501
-3.259454 0.60808611 -0.5704484
-3.4302666 0.63995302 -0.57052535
-3.6471531 0.68041551 -0.57498127
-3.8425972 0.71687776 -0.57256812
-4.0965066 0.76424724 -0.57506728
-4.3530364 0.8121056 -0.57361746
-4.6569276 0.86879981 -0.57367206
-5.0292635 0.93826306 -0.57643801
-5.4227724 1.0116763 -0.57515436
-5.9246249 1.1053023 -0.5777908
-6.5071845 1.2139851 -0.5791266
-7.2222905 1.3473958 -0.58128482
-8.0830307 1.5079762 -0.58183944
-9.216753 1.7194841 -0.58517915
-10.700487 1.9962907 -0.58860826
-12.75105 2.3788452 -0.59333223
-15.751491 2.9386096 -0.59954721
-20.626741 3.8481398 -0.61053115
-29.885315 5.5754261 -0.63175255
-54.155891 10.103363 -0.6868251
-2.0845768 0.36243582 -0.56693941
-2.1552267 0.37471935 -0.56671041
-2.2417722 0.3897666 -0.56932998
-2.3333805 0.40569413 -0.57172197
-2.4185438 0.42050111 -0.57104021
-2.5100691 0.43641418 -0.57037258
-2.6273994 0.45681384 -0.5738017
-2.7184987 0.47265288 -0.569745
-2.8466802 0.49493918 -0.57161391
-2.9793849 0.51801199 -0.57218629
-3.0978265 0.53860486 -0.56790662
-3.2528818 0.56556356 -0.56803811
-3.4429488 0.59860969 -0.5713672
-3.6409974 0.63304347 -0.57274032
-3.8430209 0.66816837 -0.57136375
-4.0917807 0.71141905 -0.57313246
-4.3669405 0.75925988 -0.57417601
-4.6721692 0.81232864 -0.57427573
-5.0334153 0.87513679 -0.57563692
-5.440589 0.94593018 -0.57576686
-5.9298706 1.0309993 -0.57702237
-6.5253186 1.1345272 -0.57945508
-7.2219057 1.2556396 -0.57996732
-8.1110964 1.410239 -0.58256733
-9.2404938 1.6066022 -0.585388
-10.699706 1.8603088 -0.58726257
-12.774918 2.2211163 -0.59312713
-15.787908 2.744971 -0.5996033
-20.683857 3.5962071 -0.61086667
-29.951532 5.2075353 -0.63175094
-54.302879 9.4413919 -0.6871649
-2.0988114 0.33837926 -0.56963599
-2.165076 0.34906274 -0.56812871
-2.2439923 0.36178598 -0.56872106
-2.3189342 0.37386841 -0.56701308
-2.4192467 0.39004123 -0.57003063
-2.5241373 0.40695211 -0.57238895
-2.630883 0.42416212 -0.57338005
-2.7165847 0.43797931 -0.56817216
-2.8482468 0.45920643 -0.57075149
-2.979373 0.48034716 -0.57100648
-3.1303101 0.50468189 -0.57268065
-3.2701614 0.52722931 -0.56988037
-3.4538801 0.55684924 -0.5720017
-3.6306159 0.5853433 -0.56993198
-3.8508973 0.62085801 -0.57135653
-4.1009417 0.6611712 -0.57323349
-4.3767629 0.70564026 -0.57428318
-4.6741972 0.75359386 -0.57334262
-5.0432529 0.81309462 -0.57557505
-5.4695883 0.88183022 -0.57764459
-5.9435067 0.95823741 -0.57715911
-6.5470686 1.0555462 -0.58019006
-7.2328253 1.1661068 -0.57964891
-8.1166124 1.3085948 -0.58176386
-9.2482452 1.4910413 -0.58467329
-10.732457 1.7303324 -0.58784789
-12.806981 2.064796 -0.59339213
-15.82666 2.5516415 -0.59983808
-20.740635 3.3438933 -0.61128294
-30.029234 4.8414407 -0.6320864
-54.437679 8.7766743 -0.68745303
-2.1044359 0.31278887 -0.57007563
-2.1636338 0.32158762 -0.56666976
-2.254966 0.33516264 -0.5704146
-2.3410821 0.34796232 -0.57133919
-2.4159281 0.3590869 -0.56816536
-2.5240185 0.37515274 -0.57127279
-2.6148808 0.38865787 -0.56880796
-2.7393267 0.40715462 -0.57183826
-2.8432472 0.42260069 -0.56866539
-2.9926083 0.44480067 -0.57245153
-3.1190114 0.46358836 -0.56952763
-3.2871084 0.48857316 -0.57174355
-3.4610386 0.51442492 -0.57209641
-3.633389 0.54004192 -0.56928182
-3.8647022 0.57442272 -0.57231355
-4.1109815 0.61102796 -0.57354331
-4.3764668 0.65048784 -0.57315147
-4.6839662 0.69619244 -0.57344753
-5.0533385 0.75109345 -0.57562858
-5.458869 0.8113687 -0.57541537
-5.959991 0.88585198 -0.57765836
-6.5364408 0.97153157 -0.57814586
-7.2547908 1.0783021 -0.58030277
-8.1346455 1.2090776 -0.58194673
-9.2701817 1.3778559 -0.58494478
-10.768532 1.6005604 -0.58870131
-12.812053 1.9042953 -0.59249735
-15.848975 2.3556826 -0.59954065
-20.776468 3.0880709 -0.61117369
-30.088169 4.4720984 -0.63212162
-54.574139 8.1115236 -0.68786472
-2.0956349 0.28519058 -0.56669861
-2.1876688 0.29771528 -0.57196265
-2.2552474 0.30691189 -0.56948799
-2.3333502 0.31754076 -0.56845629
-2.435199 0.33140117 -0.5716958
-2.5281534 0.34405115 -0.57120794
-2.6321812 0.35820806 -0.57156992
-2.7442408 0.37345803 -0.57186228
-2.8556173 0.38861501 -0.5701406
-2.9927244 0.40727365 -0.57147259
-3.1374419 0.42696792 -0.57189113
-3.2855141 0.44711876 -0.57046682
-3.4625146 0.4712064 -0.57133943
-3.6542704 0.49730206 -0.57155222
-3.8739853 0.52720255 -0.57268494
-4.0980234 0.55769145 -0.57073557
-4.3870807 0.59702867 -0.57353675
-4.7102313 0.64100558 -0.57565463
-5.0517273 0.68747902 -0.57443863
-5.4691019 0.74427867 -0.57548577
-5.9789834 0.81366736 -0.57848573
-6.5502687 0.89141244 -0.57835573
-7.2696462 0.98931104 -0.58047408
-8.1460981 1.1085856 -0.58174688
-9.283782 1.2634106 -0.58477849
-10.772902 1.4660617 -0.58791018
-12.84356 1.7478533 -0.59291565
-15.89064 2.1625242 -0.60006553
-20.805952 2.8314388 -0.61097068
-30.139759 4.1016569 -0.63209808
-54.690235 7.4426804 -0.68812251
-31.126982 4.2360063 3.0116348
-29.666975 4.0373168 3.1217048
-2.1031296 0.25991452 -0.56781816
-2.1854744 0.27009106 -0.57047749
-2.2703798 0.28058407 -0.57239473
-2.339761 0.28915852 -0.5691089
-2.4358284 0.30103099 -0.57093143
-2.5271966 0.31232271 -0.57008094
-2.6345987 0.32559595 -0.57118231
-2.7400868 0.33863261 -0.57008576
-2.8697937 0.35466242 -0.57205701
-2.9904625 0.36957523 -0.57012975
-3.1407907 0.38815349 -0.57158834
-3.301033 0.40795699 -0.57224709
-3.471638 0.42904112 -0.57193106
-3.654737 0.45166937 -0.5707134
-3.8870656 0.48038161 -0.57370198
-4.1275854 0.51010615 -0.57393575
-4.3902979 0.54257339 -0.5730418
-4.7259316 0.58405256 -0.57665211
-5.0741568 0.62708783 -0.57606876
-5.4922075 0.67875248 -0.57699519
-5.9678068 0.73752922 -0.57648331
-6.5695524 0.81189573 -0.57913309
-7.2747049 0.89904177 -0.57995141
-8.1609201 1.0085644 -0.58187574
-9.294219 1.1486226 -0.58450204
-10.797006 1.334344 -0.58828574
-12.862382 1.5895928 -0.59283739
-15.91627 1.9670064 -0.60007459
-20.851757 2.576957 -0.61133897
-30.199335 3.7321739 -0.63233727
-54.785786 6.7706814 -0.68822515
-29.130564 3.6000903 3.0603716
-2.1050875 0.23391585 -0.56752723
-2.1807578 0.24232429 -0.56842554
-2.2544379 0.25051159 -0.56755608
-2.3517992 0.26133031 -0.57121217
-2.4269416 0.26968005 -0.56802821
-2.5350726 0.28169551 -0.57103306
-2.6306415 0.29231504 -0.569502
-2.746515 0.30519083 -0.57059932
-2.8623762 0.31806526 -0.56975573
-3.0096533 0.33443061 -0.57296115
-3.1487153 0.34988305 -0.57220429
-3.3048525 0.36723292 -0.57208318
-3.4769406 0.38635522 -0.57197875
-3.6747928 0.40834039 -0.57301784
-3.8926671 0.43255046 -0.57370031
-4.1336503 0.45932835 -0.57395029
-4.3965111 0.48853722 -0.57302529
-4.7083311 0.52318645 -0.57367611
-5.073266 0.56373781 -0.57513714
-5.4817624 0.60912961 -0.57506746
-5.9981394 0.66650909 -0.578578
-6.5673032 0.72975415 -0.57810009
-7.2866664 0.80968928 -0.58006746
-8.1927052 0.91036767 -0.58329976
-9.2970676 1.0330837 -0.58383816
-10.812518 1.2014794 -0.58828151
-12.894143 1.4327881 -0.59344441
-15.93827 1.7710495 -0.60003763
-20.879921 2.3201623 -0.61128205
-30.264259 3.3629434 -0.632783
-54.90778 6.1013141 -0.68876308
-28.612129 3.1793599 3.0015721
-2.1039026 0.2076299 -0.56647664
-2.1925468 0.21637803 -0.57076174
-2.2606115 0.22309521 -0.56837666
-2.3398969 0.23091972 -0.56758875
-2.4336908 0.24017605 -0.56887364
-2.5240602 0.24909443 -0.5678196
-2.6341672 0.25996065 -0.56953019
-2.7425907 0.27066076 -0.56904954
-2.8699346 0.28322807 -0.57052386
-3.0033419 0.29639378 -0.57102263
-3.1412005 0.30999875 -0.57010281
-3.3022976 0.32589713 -0.57090408
-3.4783337 0.34326977 -0.57147038
-3.6665092 0.36184043 -0.57098919
-3.8886628 0.38376433 -0.57237142
-4.1352496 0.4080995 -0.57343227
-4.4196315 0.43616453 -0.57529622
-4.7199411 0.46580151 -0.57434946
-5.0755472 0.50089556 -0.57465404
-5.49297 0.54209018 -0.57550049
-5.993917 0.59152758 -0.57742536
-6.576118 0.6489839 -0.57812983
-7.3081412 0.72122574 -0.58102709
-8.181922 0.80745739 -0.58178109
-9.3272514 0.9204877 -0.58497864
-10.821102 1.0679128 -0.58798963
-12.907025 1.2737684 -0.59327161
-15.965213 1.5755748 -0.60027719
-20.910677 2.0636327 -0.61139339
-30.303514 2.990593 -0.63278705
-54.99099 5.42695 -0.6889177
-28.090597 2.7722046 2.9430621
-2.1180696 0.18276148 -0.56964302
-2.1864326 0.18866029 -0.56852323
-2.2661963 0.19554284 -0.56913322
-2.3481691 0.20261602 -0.56894797
-2.4292691 0.20961387 -0.5671947
-2.5404103 0.2192039 -0.57084823
-2.647944 0.22848263 -0.57185823
-2.7399206 0.23641901 -0.56784946
-2.8861034 0.24903266 -0.57308608
-3.0201235 0.26059681 -0.57356066
-3.154978 0.27223298 -0.57195252
-3.3088157 0.28550714 -0.57138073
-3.4771917 0.30003577 -0.57063341
-3.6800945 0.3175436 -0.5724535
-3.9120984 0.3375625 -0.57516646
-4.1468363 0.35781726 -0.5743854
-4.4129696 0.38078105 -0.57377625
-4.725246 0.40772641 -0.57434148
-5.0914121 0.4393217 -0.57579517
-5.515769 0.47593811 -0.57723236
-5.9983249 0.51757628 -0.57719326
-6.6119199 0.57052147 -0.58061665
-7.2985702 0.62977034 -0.57960665
-8.1935797 0.70699781 -0.58194786
-9.3308802 0.80513185 -0.58454108
-10.835769 0.93498391 -0.58811742
-12.910682 1.1140215 -0.59276521
-15.965416 1.3776047 -0.59960258
-20.939219 1.8067783 -0.61153203
-30.350805 2.6188741 -0.63305426
-55.062237 4.7511449 -0.6890263
-27.577143 2.3795435 2.8859835
-2.1173496 0.15649736 -0.56888878
-2.1761413 0.16084278 -0.56529021
-2.2676847 0.16760892 -0.56894642
-2.3608742 0.17449673 -0.57146323
-2.422821 0.17907533 -0.56513232
-2.5317929 0.18712966 -0.56835181
-2.6398435 0.19511589 -0.56954759
-2.7547879 0.20361166 -0.57036871
-2.8725185 0.21231335 -0.56982708
-3.0077305 0.22230713 -0.5706448
-3.1521919 0.23298453 -0.57088494
-3.3102179 0.24466453 -0.57106018
-3.4836626 0.25748417 -0.5711326
-3.6878307 0.27257463 -0.57309222
-3.8866882 0.28727257 -0.57086807
-4.1426582 0.3061918 -0.57324183
-4.4243255 0.32701039 -0.57468647
-4.7378521 0.35018373 -0.57530683
-5.0957537 0.37663692 -0.57571882
-5.5230355 0.40821812 -0.57742381
-6.0098343 0.44419837 -0.57773155
-6.5825357 0.48652783 -0.57746732
-7.3191652 0.54097354 -0.58067
-8.210103 0.60682446 -0.58254749
-9.3441696 0.69064546 -0.58479738
-10.855135 0.80232382 -0.5885886
-12.943725 0.9566955 -0.59369725
-16.00128 1.1826851 -0.60035789
-20.95323 1.5486934 -0.61133891
-30.379755 2.2454259 -0.63303429
-55.136795 4.0752659 -0.68928009
-27.062466 2.0002387 2.829334
-26.226295 1.9384357 2.9630499
-2.1122894 0.13003147 -0.56705678
-2.1989422 0.13536577 -0.5707376
-2.2736008 0.13996172 -0.56995589
-2.3328826 0.14361107 -0.56421763
-2.4537928 0.15105425 -0.57188016
-2.5504851 0.15700658 -0.57207131
-2.6284347 0.16180511 -0.56661403
-2.7639945 0.1701501 -0.57179844
-2.8737197 0.17690474 -0.56959075
-3.0047255 0.18496938 -0.56960011
-3.1679373 0.19501662 -0.57325894
-3.3201029 0.20438386 -0.57228869
-3.4913993 0.21492878 -0.57192451
-3.677654 0.22639452 -0.57103497
-3.8992028 0.24003296 -0.57222944
-4.1498137 0.25546044 -0.57375395
-4.4182353 0.27198434 -0.5734176
-4.7542162 0.29266715 -0.57681328
-5.1065898 0.3143591 -0.57646281
-5.5173831 0.33964732 -0.57635266
-6.01373 0.37020218 -0.57762474
-6.6076941 0.4067663 -0.5791918
-7.3323236 0.45137414 -0.58122963
-8.2292461 0.50658822 -0.58341968
-9.3462486 0.57535034 -0.58444053
-10.852221 0.66805726 -0.58794069
-12.950423 0.79722154 -0.59351003
-16.013264 0.9857685 -0.6003074
-20.979849 1.2915089 -0.61160594
-30.397465 1.8712527 -0.63287604
-55.193939 3.397711 -0.6894201
-26.578615 1.6361661 2.7764349
-25.638306 1.5782812 2.8942072
-2.1240001 0.10455552 -0.56981236
-2.1989918 0.10824705 -0.57036185
-2.2636716 0.11143097 -0.56708044
-2.3530989 0.11583309 -0.56871951
-2.4438939 0.12030254 -0.56918532
-2.5520673 0.12562746 -0.57203645
-2.6425188 0.13008 -0.56926227
-2.7514064 0.13544008 -0.56880683
-2.8863208 0.14208135 -0.5716989
-3.0151107 0.14842112 -0.57117963
-3.1557555 0.15534447 -0.57066572
-3.3170218 0.16328292 -0.57136828
-3.4907916 0.17183688 -0.57143563
-3.6837244 0.18133414 -0.5715881
-3.9052424 0.19223854 -0.57272559
-4.1700339 0.20527311 -0.57615709
-4.4105735 0.21711384 -0.57203352
-4.7367363 0.23316944 -0.57430118
-5.0993481 0.2510193 -0.57525343
-5.5236101 0.2719039 -0.57661027
-6.011797 0.2959353 -0.57704592
-6.6070676 0.32523796 -0.57874262
-7.3272762 0.36069074 -0.58043408
-8.2216301 0.40471601 -0.58248287
-9.3592625 0.46071681 -0.58485585
-10.854112 0.53430188 -0.58764273
-12.964268 0.63817596 -0.59373999
-16.021772 0.78868395 -0.60021746
-20.985493 1.0330268 -0.61135393
-30.426872 1.4977859 -0.633057
-55.246365 2.7195444 -0.68960506
-26.10844 1.2852079 2.7254632
-25.142391 1.2376534 2.836293
-2.1126606 0.077971861 -0.56647021
-2.1927364 0.080927216 -0.56843829
-2.2816129 0.084207371 -0.57127231
-2.3526368 0.086828649 -0.5683068
-2.438122 0.089983657 -0.56754047
-2.5452547 0.093937591 -0.57020742
-2.6469481 0.097690783 -0.56991464
-2.7633772 0.10198783 -0.57097912
-2.8842945 0.10645052 -0.57099509
-3.0054924 0.11092357 -0.56905615
-3.1555698 0.11646246 -0.57033008
-3.3193285 0.1225063 -0.57146299
-3.493243 0.12892495 -0.57153416
-3.6856287 0.13602532 -0.57158083
-3.8981204 0.14386773 -0.57137847
-4.1588058 0.15348884 -0.57430148
-4.4062953 0.16262293 -0.57117611
-4.7290311 0.17453413 -0.57306349
-5.1125426 0.18868835 -0.57643652
-5.5232668 0.20384695 -0.57626921
-6.0117359 0.22187483 -0.5767346
-6.608077 0.24388398 -0.57852459
-7.3318763 0.27059719 -0.58049101
-8.2175627 0.30328518 -0.58188647
-9.3663855 0.34568474 -0.58499116
-10.873255 0.4012987 -0.58836752
-12.956223 0.47817469 -0.59305745
-16.030781 0.59164727 -0.60023701
-20.997381 0.77494931 -0.61137646
-30.447714 1.1237323 -0.63315529
-55.299862 2.0409493 -0.68990743
-26.238934 0.96839905 2.5172265
-25.650654 0.9466874 2.6762571
-24.667543 0.91040379 2.7812526
-2.1179137 0.052099228 -0.56766403
-2.1889718 0.053847205 -0.56724781
-2.2725415 0.055902969 -0.56878597
-2.3573327 0.057988774 -0.56922591
-2.4362633 0.05993041 -0.56689334
-2.5400624 0.062483795 -0.56882906
-2.6639047 0.065530233 -0.5733487
-2.7540736 0.067748331 -0.56884164
-2.8815291 0.070883647 -0.57023197
-3.0216694 0.074331 -0.57190281
-3.1600573 0.077735253 -0.57092524
-3.32494 0.081791252 -0.57221264
-3.4845958 0.085718669 -0.56990385
-3.7086999 0.09123148 -0.57494134
-3.9012856 0.095968962 -0.57162625
-4.1515608 0.10212556 -0.57308429
-4.4177179 0.10867283 -0.57244027
-4.7488346 0.11681808 -0.57524568
-5.1031771 0.12553465 -0.57516301
-5.5233364 0.13587031 -0.57605863
-6.035615 0.14847201 -0.57880652
-6.6139655 0.16269903 -0.57882118
-7.321116 0.18009445 -0.57941997
-8.2332544 0.20253243 -0.5827772
-9.3691225 0.23047401 -0.58494085
-10.881355 0.26767388 -0.58858323
-12.962895 0.31887835 -0.59313852
-16.046156 0.39472446 -0.60058552
-21.012127 0.51688397 -0.61157453
-30.456892 0.7492187 -0.63310665
-55.315807 1.360731 -0.68984544
-26.838003 0.66019648 2.3487277
-26.67639 0.65622097 2.5582261
-25.195133 0.61978304 2.6277366
-24.207693 0.59549266 2.7283731
-2.1114945 0.025969537 -0.56581521
-2.1915467 0.026954107 -0.56778634
-2.2688787 0.027905224 -0.56774038
-2.3541529 0.028954022 -0.56832916
-2.448916 0.030119522 -0.56970823
-2.5460734 0.031314474 -0.57004583
-2.6394413 0.03246282 -0.56795466
-2.761822 0.033967994 -0.57031262
-2.8910534 0.035557427 -0.57198697
-3.0131717 0.037059374 -0.5701651
-3.1594791 0.038858831 -0.57069129
-3.3126318 0.040742476 -0.56996512
-3.4954746 0.042991281 -0.57155341
-3.6924338 0.045413706 -0.57228988
-3.9038661 0.048014138 -0.57187456
-4.1585135 0.051146075 -0.57391381
-4.4317918 0.054507162 -0.57413369
-4.7394714 0.05829135 -0.57398129
-5.1184859 0.062952898 -0.57675761
-5.5167031 0.06785062 -0.57523626
-6.0280271 0.074139453 -0.57794774
-6.6131186 0.081335574 -0.57861578
-7.3298573 0.090150833 -0.57998019
-8.237113 0.10130928 -0.58291805
-9.3656731 0.11518958 -0.58459288
-10.892217 0.13396473 -0.58903712
-12.973363 0.15956101 -0.59348285
-16.032696 0.19718812 -0.5999456
-21.014843 0.25846416 -0.61151481
-30.476614 0.3748357 -0.63337296
-55.33416 0.68056172 -0.6899178
-27.356766 0.33646429 2.3935843
-27.298828 0.33575171 2.6173234
-24.764109 0.30457687 2.582197
-23.760466 0.29223296 2.6773601
-2.1245668 5.6377289e-06 -0.56927508
-2.1891327 5.8090604e-06 -0.56711799
-2.2794087 6.0486154e-06 -0.57033217
-2.3549843 6.2491622e-06 -0.56848681
-2.4454761 6.4892902e-06 -0.568865
-2.5564952 6.7838891e-06 -0.5723359
-2.6542537 7.0433002e-06 -0.57109874
-2.7652636 7.3378751e-06 -0.57098013
-2.8791907 7.6401911e-06 -0.56959689
-3.0252411 8.0277496e-06 -0.57240564
-3.1650298 8.3986906e-06 -0.57165068
-3.3294547 8.8350071e-06 -0.57281631
-3.502141 9.2932451e-06 -0.57260013
-3.7050633 9.8317178e-06 -0.57420385
-3.9164736 1.0392715e-05 -0.57367808
-4.1609039 1.1041331e-05 -0.57420027
-4.4483986 1.1804225e-05 -0.57624155
-4.7482629 1.2599941e-05 -0.57500249
-5.1159115 1.3575531e-05 -0.57642394
-5.5267553 1.4665741e-05 -0.57624084
-6.0307832 1.6003225e-05 -0.57816827
-6.6119385 1.7545373e-05 -0.5784688
-7.324347 1.9435813e-05 -0.57950038
-8.2229395 2.1820308e-05 -0.58187103
-9.3822107 2.4896537e-05 -0.58558083
-10.894259 2.8908895e-05 -0.58910304
-12.960793 3.4392629e-05 -0.59286302
-16.059557 4.2615477e-05 -0.60090536
-21.020525 5.5779852e-05 -0.6116339
