# .PCD v0.7 - Point Cloud Data file format
VERSION 0.7
FIELDS x y z
SIZE 4 4 4
TYPE F F F
COUNT 1 1 1
WIDTH 1457
HEIGHT 1
VIEWPOINT 0 0 0 1 0 0 0
POINTS 1457
DATA ascii
1.6965545 -1.7228304 -0.56245995
1.7529322 -1.7800813 -0.55930555
1.830181 -1.8585266 -0.56122994
1.9015039 -1.930954 -0.55957675
1.98886 -2.0196631 -0.56076306
2.076798 -2.108963 -0.56003624
2.1681681 -2.2017481 -0.55811518
2.2776086 -2.3128839 -0.55846941
2.3998163 -2.4369843 -0.55920857
2.5280743 -2.5672286 -0.55839086
2.6764412 -2.7178934 -0.55873865
2.8420291 -2.8860459 -0.55896199
3.0208766 -3.0676634 -0.55771434
3.2292056 -3.2792189 -0.55732518
3.4695454 -3.5232811 -0.55714667
3.7407546 -3.7986908 -0.5558672
4.0604076 -4.1232948 -0.55478942
4.4558282 -4.5248389 -0.55559403
4.910326 -4.9863763 -0.55369824
5.4709291 -5.5556622 -0.55174547
6.1841922 -6.2799716 -0.55010128
7.1237755 -7.234107 -0.54901189
8.3790073 -8.5087795 -0.54625231
10.168082 -10.325563 -0.54223752
12.930562 -13.130828 -0.53622049
17.759003 -18.03405 -0.52596462
28.329494 -28.768257 -0.50337082
1.4791178 -1.4655381 -0.55792516
1.5378417 -1.5237228 -0.56083405
1.5910312 -1.576424 -0.56040984
1.6450927 -1.6299893 -0.55904174
1.6956097 -1.6800424 -0.55525577
1.7816628 -1.7653055 -0.56150413
1.8482409 -1.8312722 -0.55982047
1.9252714 -1.9075955 -0.55962592
2.0036836 -1.9852879 -0.55801743
2.0997372 -2.0804596 -0.55928123
2.2051647 -2.1849194 -0.56068039
2.3071597 -2.2859778 -0.55878061
2.426801 -2.4045208 -0.5585646
2.5560927 -2.5326254 -0.55765873
2.7070124 -2.6821594 -0.55819339
2.8594341 -2.8331819 -0.55549127
3.058579 -3.0304985 -0.55775309
3.2633524 -3.2333915 -0.55631447
3.5161517 -3.48387 -0.55770946
3.7847261 -3.7499788 -0.55550718
4.1060467 -4.0683494 -0.55414808
4.5057406 -4.4643736 -0.55493069
4.9591322 -4.9136028 -0.55234689
5.5359392 -5.4851141 -0.55145794
6.2775354 -6.2199016 -0.55155933
7.1980801 -7.1319952 -0.54793829
8.4737844 -8.3959866 -0.5456593
10.286712 -10.19227 -0.5418393
13.085143 -12.96501 -0.53597915
17.975031 -17.810003 -0.52583683
28.644802 -28.381817 -0.50273418
1.5100554 -1.4598373 -0.56278121
1.559235 -1.5073813 -0.5618338
1.6048328 -1.5514628 -0.55850929
1.6724309 -1.6168128 -0.56153333
1.7329689 -1.6753376 -0.56070125
1.8003761 -1.7405031 -0.56061435
1.88059 -1.8180494 -0.56280488
1.9474952 -1.8827298 -0.55931419
2.0309265 -1.9633863 -0.55883849
2.1340399 -2.0630708 -0.56161851
2.2252781 -2.1512747 -0.55902618
2.328686 -2.2512436 -0.55724752
2.4719605 -2.3897533 -0.56215268
2.596195 -2.5098565 -0.5596323
2.736186 -2.6451921 -0.55745989
2.8967109 -2.8003783 -0.55600137
3.0851605 -2.9825609 -0.55587041
3.3137534 -3.2035518 -0.55814892
3.5662227 -3.4476252 -0.55888492
3.8329425 -3.7054749 -0.55585444
4.1526775 -4.0145769 -0.55373716
4.5528741 -4.4014645 -0.55402797
5.0196385 -4.8527064 -0.55239815
5.6124334 -5.4257874 -0.55239004
6.3432508 -6.1323009 -0.55066633
7.2755427 -7.0335884 -0.54720986
8.5661325 -8.2812586 -0.54500753
10.415522 -10.069144 -0.54206139
13.226023 -12.78618 -0.53526914
18.170532 -17.566256 -0.52519739
28.940174 -27.977745 -0.50184232
1.5163746 -1.4302975 -0.55853939
1.5741922 -1.4848331 -0.56060195
1.6345325 -1.5417482 -0.56220508
1.686478 -1.590745 -0.55963987
1.754944 -1.6553246 -0.56118309
1.818063 -1.7148606 -0.55951339
1.8914548 -1.7840863 -0.55944872
1.9790578 -1.8667165 -0.56174403
2.0535021 -1.9369349 -0.55845463
2.1518524 -2.0297024 -0.55969566
2.2574377 -2.1292942 -0.5604853
2.3579366 -2.2240882 -0.55766058
2.4828093 -2.3418727 -0.55802894
2.6218152 -2.4729879 -0.55855775
2.7761567 -2.6185679 -0.55900091
2.9407022 -2.773773 -0.55785626
3.1228452 -2.9455767 -0.55609226
3.3474669 -3.1574478 -0.55724579
3.5965064 -3.3923507 -0.55705154
3.8745341 -3.6545961 -0.55532706
4.2220459 -3.9823813 -0.55641526
4.5948482 -4.3340216 -0.55260885
5.0817022 -4.7932391 -0.5527001
5.6649728 -5.3434 -0.55105251
6.4135094 -6.0494461 -0.55026633
7.3792868 -6.9604015 -0.54853392
8.6699505 -8.1778011 -0.5451737
10.52859 -9.930934 -0.54154962
13.374118 -12.614936 -0.53494442
18.363886 -17.321459 -0.52459008
29.249086 -27.588762 -0.50127846
1.5424666 -1.4194778 -0.56167847
1.6041051 -1.4762015 -0.56474757
1.6384532 -1.5078108 -0.55713433
1.7104894 -1.5741032 -0.56114227
1.7734357 -1.6320305 -0.56063658
1.8507361 -1.7031674 -0.56308085
1.9231778 -1.769833 -0.56235224
1.9864172 -1.8280299 -0.55741048
2.0808609 -1.9149431 -0.5594489
2.1795979 -2.0058072 -0.56045467
2.2691407 -2.0882103 -0.55697346
2.3886654 -2.198205 -0.55849314
2.5111313 -2.3109057 -0.55796564
2.6430159 -2.4322746 -0.55666059
2.7940953 -2.5713077 -0.55620444
2.9735839 -2.7364848 -0.55766857
3.1689434 -2.9162672 -0.55787325
3.3720627 -3.1031907 -0.55494612
3.6385765 -3.3484542 -0.55714816
3.9169698 -3.6046495 -0.55501437
4.2583294 -3.9187906 -0.5548045
4.6647277 -4.2927852 -0.55462271
5.1375685 -4.7279239 -0.55241144
5.7323985 -5.2753248 -0.5512597
6.4810925 -5.9643216 -0.54973084
7.460537 -6.8656697 -0.54825658
8.7703142 -8.0710125 -0.54520285
10.639186 -9.7908688 -0.54100478
13.532187 -12.453197 -0.53510153
18.566191 -17.085814 -0.52432793
29.549408 -27.193281 -0.50065684
1.559426 -1.4000663 -0.56154257
1.6024039 -1.4386523 -0.55787832
1.6687269 -1.4981977 -0.56112176
1.7340584 -1.5568528 -0.5625515
1.7928935 -1.6096755 -0.56048816
1.857656 -1.6678197 -0.55890435
1.9289302 -1.7318105 -0.55776525
2.0335498 -1.8257387 -0.56429398
2.1043131 -1.8892708 -0.55946606
2.1937621 -1.9695787 -0.55782706
2.3012035 -2.0660408 -0.5585655
2.4198222 -2.1725376 -0.55948943
2.5427036 -2.2828615 -0.55870134
2.675545 -2.4021277 -0.55724847
2.8387704 -2.5486729 -0.55881679
3.0039246 -2.6969497 -0.55709714
3.1986518 -2.8717775 -0.55684453
3.4098151 -3.0613618 -0.55492198
3.660717 -3.2866237 -0.55430818
3.962925 -3.5579488 -0.55528486
4.3041821 -3.8643324 -0.5545457
4.7148476 -4.2330313 -0.55435115
5.1967888 -4.6657224 -0.55256838
5.8057933 -5.2124925 -0.55211228
6.5480137 -5.8788638 -0.54923397
7.526567 -6.7574177 -0.54696137
8.8621159 -7.9564853 -0.54478651
10.750875 -9.6522293 -0.54060793
13.676056 -12.278482 -0.53477985
18.76515 -16.847515 -0.52405655
29.86363 -26.811829 -0.50035697
1.5755736 -1.3799552 -0.56120455
1.6300013 -1.4276253 -0.56133223
1.6779602 -1.4696298 -0.55810767
1.75476 -1.5368944 -0.5630939
1.8141388 -1.5889009 -0.56097949
1.8731531 -1.6405882 -0.55745524
1.9592131 -1.7159632 -0.56037813
2.0509233 -1.7962871 -0.56294322
2.1243722 -1.8606168 -0.5586741
2.2278531 -1.9512497 -0.56035227
2.317112 -2.0294266 -0.55632764
2.4396558 -2.1367557 -0.55795801
2.5553286 -2.2380669 -0.55538648
2.7141829 -2.3771982 -0.55916536
2.8607757 -2.5055907 -0.55704153
3.0264108 -2.650661 -0.55518067
3.2299511 -2.8289304 -0.55619556
3.4523165 -3.0236874 -0.5557459
3.7089963 -3.2484989 -0.55552816
3.9995041 -3.502938 -0.55433291
4.3429518 -3.8037441 -0.5534727
4.7589831 -4.1681223 -0.55347246
5.2595358 -4.6065278 -0.55317545
5.8502545 -5.1239052 -0.5503071
6.6223669 -5.8001542 -0.54944676
7.61584 -6.6702805 -0.54744697
8.9490557 -7.8379683 -0.54416507
10.881401 -9.5304003 -0.54123771
13.812747 -12.097798 -0.53426749
18.941837 -16.590078 -0.52325422
30.136877 -26.395176 -0.49945933
1.6001596 -1.3670892 -0.56393152
1.641148 -1.4021074 -0.55919123
1.7030524 -1.4549952 -0.56046039
1.7618288 -1.5052104 -0.55938059
1.8258721 -1.5599256 -0.55863404
1.899806 -1.6230907 -0.55940533
1.9713455 -1.6842102 -0.55788261
2.0620925 -1.7617395 -0.56002051
2.149193 -1.8361535 -0.55922157
2.240118 -1.9138348 -0.55747592
2.349056 -2.0069056 -0.55803001
2.4701118 -2.1103289 -0.55894637
2.6002445 -2.2215073 -0.55916929
2.7398624 -2.3407891 -0.55848372
2.8877571 -2.4671423 -0.556346
3.0642493 -2.6179276 -0.55617458
3.2756693 -2.7985535 -0.55810022
3.4883478 -2.9802542 -0.55560488
3.7547877 -3.207886 -0.55643654
4.0543766 -3.4638386 -0.55599284
4.4007292 -3.7597435 -0.55490226
4.8166952 -4.1151218 -0.55425745
5.313621 -4.5396686 -0.55295104
5.9207778 -5.0583901 -0.55104834
6.6943069 -5.7192507 -0.54953903
7.7040205 -6.5818954 -0.54792649
9.0506763 -7.7324047 -0.54452157
10.9702 -9.3723412 -0.53988135
13.942833 -11.911997 -0.53359324
19.129364 -16.343086 -0.52284354
30.421282 -25.990284 -0.49883851
1.5977539 -1.3314002 -0.55727184
1.6540009 -1.3782705 -0.5577538
1.7297912 -1.4414262 -0.56338435
1.7774991 -1.4811809 -0.55853093
1.8528094 -1.5439367 -0.56102473
1.9228622 -1.6023113 -0.56035036
1.9982359 -1.6651198 -0.55965579
2.078114 -1.7316818 -0.55854648
2.1731019 -1.8108348 -0.55960649
2.2698793 -1.8914788 -0.55905187
2.3666599 -1.9721255 -0.55640906
2.4939761 -2.0782175 -0.55852169
2.620909 -2.1839902 -0.55779582
2.7693312 -2.3076696 -0.5586642
2.9219434 -2.4348404 -0.55712199
3.094255 -2.5784271 -0.55582404
3.3028326 -2.7522337 -0.55692011
3.5278792 -2.9397638 -0.55610162
3.7862687 -3.1550784 -0.55531049
4.0944648 -3.4118965 -0.55569488
4.4443526 -3.7034564 -0.55461866
4.8626547 -4.0520253 -0.55377078
5.3636808 -4.4695277 -0.5523994
5.9774079 -4.9809432 -0.55057693
6.760385 -5.6333947 -0.54923546
7.7800007 -6.4830351 -0.54761916
9.1439438 -7.6196012 -0.54445469
11.095804 -9.2460766 -0.54042661
14.098566 -11.748263 -0.53398418
19.323317 -16.102022 -0.52269346
30.708338 -25.589102 -0.49834827
1.629238 -1.324035 -0.56253195
1.6689413 -1.3563007 -0.55712581
1.7472093 -1.4199069 -0.56332821
1.8039138 -1.465989 -0.56112432
1.8808407 -1.5285053 -0.56377876
1.9516797 -1.5860741 -0.56302214
2.0167179 -1.6389289 -0.55914557
2.0972917 -1.7044089 -0.55802572
2.1920903 -1.781449 -0.55881304
2.2893548 -1.8604931 -0.55817181
2.4006324 -1.950925 -0.55871385
2.5241361 -2.0512931 -0.55958486
2.645541 -2.1499553 -0.55736947
2.7922103 -2.2691493 -0.55760866
2.9513626 -2.3984878 -0.55706578
3.1324539 -2.5456555 -0.55702066
3.3393927 -2.7138286 -0.55741572
3.5732563 -2.903883 -0.55758363
3.8369157 -3.1181514 -0.557073
4.131753 -3.3577571 -0.55510998
4.4892993 -3.6483247 -0.55458736
4.9151773 -3.9944236 -0.55411667
5.4227257 -4.4068937 -0.5528577
6.0332017 -4.9030099 -0.55012125
6.8307967 -5.5511928 -0.54936874
7.8575945 -6.3856421 -0.54751253
9.2317505 -7.5023785 -0.5441488
11.18746 -9.0917282 -0.53940493
14.238337 -11.571088 -0.53384864
19.494524 -15.842642 -0.52201563
30.992321 -25.186571 -0.49789318
1.6263032 -1.2887735 -0.55600494
1.6976366 -1.345302 -0.56114024
1.7501643 -1.386928 -0.55874014
1.8268396 -1.4476898 -0.56267577
1.892735 -1.4999089 -0.56177318
1.9568133 -1.5506881 -0.55896008
2.0351777 -1.6127886 -0.55872297
2.1243131 -1.6834244 -0.55966526
2.2215705 -1.7604966 -0.56076729
2.3149974 -1.8345333 -0.55888158
2.4168179 -1.9152215 -0.55695766
2.5277302 -2.0031147 -0.55487913
2.6760771 -2.1206729 -0.55826682
2.8261919 -2.2396321 -0.55885285
2.9769847 -2.359129 -0.55638444
3.1568494 -2.5016637 -0.55584663
3.3652177 -2.6667864 -0.55621076
3.6005499 -2.853277 -0.55632579
3.8694849 -3.066396 -0.5562852
4.1720548 -3.3061693 -0.55502069
4.5284495 -3.5885963 -0.5539307
4.9563584 -3.9276953 -0.55327266
5.4549246 -4.3227868 -0.5506795
6.1009893 -4.834765 -0.55083978
6.8912783 -5.4610338 -0.54879081
7.9340882 -6.2874146 -0.54741406
9.3160849 -7.3825855 -0.54372782
11.30585 -8.9593868 -0.53976047
14.367392 -11.385524 -0.53339791
19.685768 -15.600101 -0.52196056
31.268084 -24.778576 -0.49739087
1.6515342 -1.2760258 -0.55922437
1.7062743 -1.3183197 -0.55859488
1.7762332 -1.372372 -0.56163269
1.839803 -1.421488 -0.5612424
1.8955249 -1.4645405 -0.55721402
1.9748672 -1.5258428 -0.5587154
2.0550189 -1.5877703 -0.5587678
2.1417909 -1.6548131 -0.55886674
2.2318244 -1.7243757 -0.55796117
2.3398681 -1.8078535 -0.55947667
2.4426222 -1.8872446 -0.55751425
2.5656383 -1.9822905 -0.55780762
2.7075856 -2.0919633 -0.55943125
2.851831 -2.2034118 -0.55852294
3.0266569 -2.3384876 -0.56025141
3.1984725 -2.4712374 -0.55778277
3.3923435 -2.6210282 -0.55532527
3.6390028 -2.8116047 -0.55688322
3.9056981 -3.0176616 -0.55611473
4.2152524 -3.2568328 -0.55539775
4.579061 -3.5379224 -0.55475819
5.0119629 -3.8723958 -0.55412245
5.5208092 -4.2655458 -0.55199391
6.1593847 -4.7589288 -0.55078703
6.9627433 -5.3796282 -0.54917252
7.9978933 -6.1794167 -0.54653239
9.4121895 -7.2721448 -0.54407674
11.411466 -8.8168468 -0.53958601
14.491426 -11.196519 -0.5328511
19.864525 -15.347939 -0.52165681
31.52747 -24.359087 -0.49671474
1.6648915 -1.2539603 -0.55848396
1.729753 -1.3028126 -0.56099427
1.781163 -1.3415334 -0.55793333
1.8546057 -1.3968489 -0.56047595
1.9237694 -1.4489416 -0.56023699
2.0067 -1.5114032 -0.56242096
2.072644 -1.5610707 -0.55829853
2.172282 -1.6361158 -0.56153083
2.2611895 -1.7030791 -0.56002462
2.3715739 -1.7862184 -0.56176358
2.468976 -1.8595794 -0.55826801
2.5925827 -1.9526774 -0.55840319
2.7220678 -2.0502028 -0.5571726
2.8673921 -2.1596577 -0.55632752
3.0322204 -2.283803 -0.55604094
3.2259805 -2.429739 -0.55732751
3.4378526 -2.5893164 -0.55752081
3.6551089 -2.7529492 -0.55412573
3.9341648 -2.9631281 -0.55493808
4.2553153 -3.2050116 -0.55544174
4.6279097 -3.4856415 -0.55544156
5.0621548 -3.8127058 -0.55444634
5.5704041 -4.195508 -0.55175269
6.2159572 -4.6817245 -0.55065638
7.0308995 -5.2955217 -0.54937077
8.0732918 -6.0806289 -0.546534
9.4911146 -7.1485028 -0.54351681
11.501984 -8.6630459 -0.53878838
14.625673 -11.015741 -0.5327664
20.037518 -15.091825 -0.5212869
31.796932 -23.948763 -0.49628299
1.6828263 -1.2353346 -0.55936229
1.7473441 -1.2826961 -0.56154156
1.8120506 -1.330196 -0.56244248
1.8711644 -1.3735905 -0.56033337
1.929314 -1.4162772 -0.55673796
2.0157595 -1.4797353 -0.55981803
2.0961983 -1.538784 -0.55950409
2.18172 -1.601564 -0.55883759
2.2905707 -1.6814697 -0.56213808
2.3887329 -1.753529 -0.56067818
2.4987617 -1.8342991 -0.55986053
2.6124916 -1.9177864 -0.55756986
2.7578866 -2.0245185 -0.55936635
2.8941712 -2.1245627 -0.55641246
3.0689366 -2.2528551 -0.55765176
3.2479088 -2.3842356 -0.55600888
3.4610348 -2.5406878 -0.55617177
3.7053645 -2.720046 -0.55663186
3.9801784 -2.9217823 -0.55631864
4.2845755 -3.1452351 -0.55417091
4.6499825 -3.4134743 -0.55301124
5.0925875 -3.7383833 -0.55270296
5.6186171 -4.1245327 -0.55146301
6.2703533 -4.6029615 -0.55041945
7.0849509 -5.2009439 -0.54855561
8.1411095 -5.9762521 -0.5461089
9.573431 -7.0276957 -0.54324096
11.616911 -8.5277805 -0.53921914
14.740965 -10.821095 -0.53207886
20.210247 -14.836004 -0.52099514
32.054005 -23.53031 -0.4957419
1.6957523 -1.2130221 -0.5586586
1.7545924 -1.2551122 -0.55886889
1.825666 -1.3059533 -0.56164163
1.8965026 -1.3566248 -0.56288308
1.9499973 -1.3948911 -0.55771476
2.0279083 -1.4506232 -0.55819595
2.1250198 -1.52009 -0.56216544
2.2054961 -1.577657 -0.55991626
2.302846 -1.6472943 -0.56013721
2.3949466 -1.7131766 -0.55714995
2.519165 -1.8020339 -0.559425
2.6334159 -1.8837608 -0.55704987
2.7790675 -1.9879497 -0.55866218
2.9242358 -2.0917931 -0.55720526
3.0798099 -2.2030797 -0.55466312
3.2831836 -2.3485589 -0.55706161
3.4943254 -2.4995949 -0.55654019
3.7325413 -2.6699979 -0.55574036
4.0051188 -2.8649809 -0.55483866
4.330451 -3.0977006 -0.55513585
4.6960735 -3.3592412 -0.55353838
5.1437721 -3.6794934 -0.55330575
5.6734262 -4.0583706 -0.55190271
6.3217874 -4.5221629 -0.55001163
7.1477394 -5.1129909 -0.54850769
8.2177353 -5.8783913 -0.54635894
9.6536951 -6.9055758 -0.54293603
11.703629 -8.3719549 -0.53842521
14.879793 -10.643959 -0.53232545
20.366961 -14.569093 -0.52037746
32.301022 -23.105883 -0.4951306
1.7092699 -1.1911958 -0.55824417
1.7641503 -1.2294422 -0.55705583
1.8369002 -1.2801419 -0.56021279
1.9055492 -1.3279836 -0.56067914
1.9599663 -1.3659071 -0.55572021
2.0451238 -1.4252536 -0.55806845
2.1304619 -1.484726 -0.55873305
2.2254388 -1.5509158 -0.56009531
2.3231597 -1.6190177 -0.56019348
2.4202065 -1.68665 -0.55815929
2.5313694 -1.7641199 -0.55727589
2.6660969 -1.8580118 -0.55908781
2.8008943 -1.9519526 -0.55818266
2.9449918 -2.0523746 -0.5563094
3.1226866 -2.1762106 -0.55752355
3.3120129 -2.3081529 -0.55709541
3.5308146 -2.4606366 -0.55749065
3.7582397 -2.6191297 -0.55472946
4.0459447 -2.8196325 -0.55564922
4.3684936 -3.0444179 -0.55517173
4.7382407 -3.3020957 -0.55368078
5.1748648 -3.6063805 -0.5518384
5.7247968 -3.9896297 -0.55208594
6.3809371 -4.4468961 -0.55035877
7.1966991 -5.0154037 -0.54749078
8.2868481 -5.7751322 -0.54619122
9.7392635 -6.7873254 -0.54301357
11.80982 -8.2303028 -0.53861392
15.000834 -10.454131 -0.53201658
20.542259 -14.315969 -0.52031934
32.546909 -22.682049 -0.49458703
1.7433288 -1.1833541 -0.56457275
1.7829834 -1.2102714 -0.55826122
1.8515904 -1.2568411 -0.5599373
1.9272065 -1.3081685 -0.56227595
2.0030384 -1.3596424 -0.56314969
2.0562785 -1.3957812 -0.55638671
2.1530213 -1.4614493 -0.55989414
2.2455473 -1.524255 -0.56039661
2.3310828 -1.5823157 -0.55737019
2.4354191 -1.653138 -0.55693746
2.5548604 -1.7342136 -0.55771059
2.6857698 -1.8230737 -0.55847007
2.813132 -1.9095259 -0.5559001
2.9747064 -2.019201 -0.55719018
3.1395423 -2.1310899 -0.55581236
3.3322821 -2.2619197 -0.55578434
3.557848 -2.4150317 -0.55702806
3.799623 -2.5791461 -0.55611461
4.0775738 -2.7678163 -0.55527693
4.3859296 -2.9771252 -0.55269343
4.7738185 -3.2404203 -0.55314022
5.2270589 -3.5480752 -0.55271
5.7566857 -3.9075806 -0.55048585
6.434576 -4.3677258 -0.55031127
7.2645197 -4.9310832 -0.54799598
8.3548079 -5.6711597 -0.54603291
9.8147316 -6.6621418 -0.54261273
11.90543 -8.0812864 -0.53840166
15.120122 -10.263388 -0.53173113
20.685251 -14.040942 -0.51952875
32.792965 -22.259537 -0.49412939
1.7463075 -1.1542683 -0.56089848
1.8024373 -1.1913687 -0.55972314
1.8719909 -1.2373421 -0.56146306
1.9332869 -1.2778573 -0.55942321
2.0075188 -1.3269228 -0.5597797
2.0787756 -1.3740219 -0.5578602
2.1683748 -1.4332448 -0.5592615
2.2661233 -1.4978544 -0.5608927
2.3532052 -1.5554135 -0.55804443
2.4532511 -1.6215415 -0.55641353
2.5829129 -1.7072448 -0.55920935
2.7135859 -1.7936167 -0.55962569
2.8520546 -1.8851413 -0.5589686
2.9802878 -1.9699003 -0.55365658
3.1646941 -2.0917885 -0.55566943
3.3585217 -2.2199042 -0.55556601
3.5877726 -2.3714335 -0.5571056
3.8331804 -2.5336423 -0.5564242
4.1205645 -2.7235963 -0.55652857
4.4443593 -2.9376173 -0.55546248
4.8171425 -3.1840181 -0.55358177
5.268888 -3.4826114 -0.55256307
5.8085356 -3.8393056 -0.55088788
6.4728189 -4.2783813 -0.54904115
7.3234 -4.8405957 -0.54790616
8.4125233 -5.5604811 -0.54529512
9.9024353 -6.5452771 -0.54297084
11.993731 -7.9275742 -0.53794581
15.22632 -10.06424 -0.53107357
20.859516 -13.787651 -0.51960814
33.030617 -21.832462 -0.49362782
1.7449356 -1.1227794 -0.5559814
1.819647 -1.1708524 -0.56055409
1.8745509 -1.2061803 -0.55774021
1.9391223 -1.2477288 -0.55663007
2.0148489 -1.2964551 -0.55733627
2.1116967 -1.3587719 -0.56216866
2.1838908 -1.4052252 -0.5587644
2.2804999 -1.4673884 -0.55994272
2.3666523 -1.5228231 -0.5567506
2.4918587 -1.6033872 -0.56065583
2.5992684 -1.6725001 -0.55825561
2.7182362 -1.74905 -0.55610722
2.8656662 -1.8439138 -0.55715042
3.0262451 -1.9472384 -0.55770385
3.2024839 -2.0606394 -0.55781353
3.3806059 -2.175252 -0.55475259
3.6009107 -2.3170071 -0.55467969
3.856164 -2.4812498 -0.55528957
4.1546021 -2.67328 -0.5566439
4.4631882 -2.87184 -0.5533604
4.8517132 -3.1218364 -0.5531013
5.3111987 -3.4174924 -0.55255145
5.8717136 -3.7781558 -0.55243182
6.5453353 -4.2115979 -0.55075777
7.3856001 -4.7522664 -0.54814631
8.4881582 -5.4617081 -0.54580319
9.9679403 -6.4138741 -0.54219711
12.091046 -7.7799878 -0.53797913
15.361403 -9.8842993 -0.5315057
21.002205 -13.513876 -0.5189839
33.264133 -21.403818 -0.49314708
1.7675154 -1.1068168 -0.55879712
1.8353727 -1.149309 -0.56100249
1.8972865 -1.1880794 -0.56011575
1.9775391 -1.2383335 -0.5632441
2.0329404 -1.2730258 -0.55796844
2.1161597 -1.3251377 -0.55897665
2.1981802 -1.3764987 -0.55804765
2.3006651 -1.4406748 -0.56050187
2.3957005 -1.5001858 -0.55920225
2.5075295 -1.5702131 -0.5597952
2.6177998 -1.6392642 -0.55786425
2.7535846 -1.7242926 -0.55895895
2.8878841 -1.8083909 -0.55710465
3.0586343 -1.9153146 -0.55929023
3.2251086 -2.0195606 -0.55738664
3.4079857 -2.1340783 -0.55489743
3.641192 -2.2801116 -0.55652362
3.880259 -2.4298153 -0.55441487
4.1633258 -2.6070714 -0.55347568
4.5101786 -2.8242705 -0.55483872
4.9057574 -3.0719817 -0.55491412
5.3633103 -3.358501 -0.55363464
5.8972716 -3.6928673 -0.55052257
6.5893679 -4.1262574 -0.55015188
7.4455733 -4.6624126 -0.54830098
8.551302 -5.3548188 -0.5455882
10.050913 -6.2938738 -0.54245967
12.181876 -7.6282821 -0.53780633
15.467903 -9.6859894 -0.53102946
21.168943 -13.255977 -0.51903701
33.492622 -20.973055 -0.49267384
1.7895712 -1.0902278 -0.56148928
1.8476752 -1.1256256 -0.56048983
1.9171085 -1.1679252 -0.56168538
1.9853363 -1.2094903 -0.56118655
2.0624924 -1.2564948 -0.56179631
2.1336434 -1.2998408 -0.55933064
2.2140863 -1.3488476 -0.5578329
2.3065321 -1.4051667 -0.55767959
2.4035392 -1.4642645 -0.55678707
2.5163498 -1.5329901 -0.55751389
2.6508234 -1.614913 -0.56062758
2.7747402 -1.6904045 -0.55899167
2.9039247 -1.7691053 -0.55596048
3.0723569 -1.8717161 -0.55754882
3.2411389 -1.9745402 -0.55591893
3.4489787 -2.1011586 -0.55732304
3.6583767 -2.2287264 -0.55491954
3.924969 -2.3911376 -0.55655998
4.2123022 -2.5661845 -0.55574971
4.5351062 -2.7628403 -0.55368406
4.9317355 -3.0044715 -0.55363184
5.385848 -3.2811222 -0.55175459
5.9391565 -3.6182044 -0.55023766
6.6373582 -4.0435572 -0.5499658
7.4940023 -4.5654349 -0.54769182
8.6225271 -5.2529454 -0.54597014
10.121838 -6.1663432 -0.54215425
12.282503 -7.482646 -0.53814602
15.563036 -9.4811859 -0.53025293
21.307384 -12.980711 -0.51847857
33.722446 -20.544113 -0.49230134
1.7949666 -1.0634764 -0.55903691
1.865567 -1.1053056 -0.56175184
1.9288282 -1.1427864 -0.56095952
1.9932113 -1.1809319 -0.55926555
2.0678041 -1.2251265 -0.55909747
2.1386549 -1.2671039 -0.55651784
2.2235434 -1.3173984 -0.55609214
2.3277891 -1.3791616 -0.55867654
2.4318614 -1.440822 -0.55920154
2.5356729 -1.5023279 -0.55765998
2.6571426 -1.5742959 -0.55782771
2.7926214 -1.654564 -0.55845308
2.9363477 -1.7397186 -0.55803013
3.0983443 -1.8356978 -0.55812633
3.2732639 -1.9393337 -0.55729657
3.4622004 -2.0512743 -0.55534172
3.6932118 -2.1881433 -0.55608016
3.9514441 -2.3411398 -0.55619001
4.2349482 -2.5091095 -0.55462497
4.5653729 -2.7048786 -0.55327678
4.9566407 -2.9366958 -0.55233216
5.4174833 -3.2097344 -0.55091053
6.0043435 -3.5574355 -0.55218256
6.6801424 -3.9578309 -0.54943681
7.5490465 -4.4726367 -0.54765379
8.6731634 -5.1386499 -0.54513419
10.20426 -6.0457897 -0.54254603
12.357524 -7.3215489 -0.53744781
15.671182 -9.2848148 -0.5300076
21.465212 -12.717645 -0.51847458
33.928474 -20.101841 -0.49166337
1.8177717 -1.0470079 -0.56208724
1.8699843 -1.0770816 -0.55905163
1.9467797 -1.1213145 -0.56212789
2.0067887 -1.1558788 -0.5590449
2.0808291 -1.1985248 -0.55859214
2.1762114 -1.2534635 -0.56223738
2.2527716 -1.297561 -0.55936927
2.3484986 -1.3526983 -0.55961251
2.4392407 -1.4049643 -0.55688369
2.5605793 -1.4748534 -0.55910677
2.6670883 -1.5362009 -0.55590802
2.8283105 -1.6290623 -0.56154168
2.978122 -1.7153515 -0.56191802
3.111753 -1.7923208 -0.55652958
3.2956951 -1.8982685 -0.5570994
3.4890587 -2.0096431 -0.55564404
3.7205303 -2.142967 -0.55618382
3.9781055 -2.2913263 -0.55593491
4.2691751 -2.4589779 -0.55510557
4.6134977 -2.6573021 -0.55510706
4.9881268 -2.8730826 -0.55186224
5.4721546 -3.151875 -0.55248708
6.0268655 -3.4713798 -0.55028659
6.7305088 -3.8766673 -0.54961705
7.6018109 -4.3785238 -0.54753435
8.7524824 -5.0412922 -0.54618204
10.277864 -5.9198885 -0.54254818
12.446123 -7.1687713 -0.53742665
15.783176 -9.0908613 -0.52997458
21.605213 -12.444263 -0.51812094
34.147152 -19.668222 -0.49129042
1.8225 -1.0200962 -0.55962837
1.8758565 -1.0499611 -0.55690527
1.9412227 -1.086548 -0.55662334
2.0176849 -1.1293457 -0.55816954
2.092093 -1.1709937 -0.55770838
2.1683514 -1.2136773 -0.55630898
2.2603765 -1.2651858 -0.55735248
2.3592014 -1.3205006 -0.5582515
2.4706607 -1.3828869 -0.56013238
2.5609813 -1.4334414 -0.55530387
2.6965187 -1.5093049 -0.55813175
2.8316305 -1.5849303 -0.55828923
2.9800687 -1.6680145 -0.55837309
3.1484742 -1.7622751 -0.55917919
3.3141866 -1.8550283 -0.55632728
3.5075381 -1.9632516 -0.55470049
3.7400768 -2.0934088 -0.55521572
4.0177903 -2.2488518 -0.55757415
4.2910786 -2.4018176 -0.55407149
4.6339726 -2.5937436 -0.55369127
5.0368481 -2.8192425 -0.5533753
5.5094733 -3.083782 -0.55238467
6.0848389 -3.4058273 -0.5517143
6.7803082 -3.7950981 -0.54983133
7.6550498 -4.2847114 -0.54753274
8.8023882 -4.9269037 -0.54547447
10.336724 -5.7857075 -0.54185873
12.523712 -7.0098162 -0.53701442
15.908899 -8.9045849 -0.53047937
21.748392 -12.173087 -0.51792574
34.351749 -19.227482 -0.49079531
1.8386592 -0.99965155 -0.56077337
1.8904964 -1.0278347 -0.55745721
1.9612472 -1.0663007 -0.55856323
2.0381203 -1.1080955 -0.56001103
2.1117604 -1.1481327 -0.55914545
2.1987205 -1.1954114 -0.56028682
2.2836251 -1.2415729 -0.55927831
2.3644183 -1.2854989 -0.55570352
2.49418 -1.3560483 -0.56164169
2.5864825 -1.406232 -0.55704182
2.7134516 -1.4752631 -0.55783963
2.8458569 -1.5472499 -0.55730087
3.0011559 -1.6316837 -0.55852258
3.1658082 -1.7212026 -0.55845666
3.3611977 -1.827433 -0.5604043
3.5356507 -1.9222804 -0.55536622
3.7695339 -2.0494392 -0.55580556
4.0225368 -2.1869931 -0.55445892
4.3294277 -2.3538451 -0.55524397
4.6779151 -2.5433128 -0.55516303
5.0716338 -2.7573714 -0.55343008
5.5422144 -3.0132191 -0.5519107
6.1202703 -3.3274996 -0.5511753
6.8141031 -3.7047262 -0.54883617
7.6991544 -4.1859155 -0.54696441
8.8689041 -4.8218908 -0.54588085
10.406022 -5.657599 -0.54180354
12.606641 -6.8540425 -0.5369159
15.997078 -8.6973724 -0.52981353
21.878893 -11.895227 -0.51751107
34.564129 -18.792002 -0.49049118
1.8431671 -0.97293353 -0.55845726
1.9086907 -1.0075208 -0.55912679
1.9834447 -1.0469804 -0.56117612
2.0518203 -1.0830731 -0.56007367
2.1304648 -1.1245865 -0.56039417
2.2086494 -1.1658568 -0.55912155
2.2982566 -1.2131569 -0.55916595
2.3988967 -1.2662808 -0.56010497
2.4916942 -1.3152648 -0.55739796
2.6020637 -1.3735244 -0.55671799
2.7273664 -1.4396667 -0.55701876
2.8591013 -1.5092041 -0.55621827
3.0061171 -1.5868078 -0.5557726
3.1794422 -1.6782993 -0.55717915
3.3692832 -1.7785087 -0.55806398
3.5611694 -1.8797977 -0.55570179
3.8020835 -2.0069664 -0.55692399
4.0599074 -2.1430614 -0.55593568
4.341239 -2.2915649 -0.55310309
4.7004709 -2.481189 -0.55417717
5.111598 -2.6982062 -0.55412871
5.5776949 -2.9442401 -0.55179697
6.1606073 -3.251936 -0.55116516
6.8696957 -3.6262352 -0.54968083
7.7623096 -4.0974102 -0.54783034
8.9111195 -4.7038202 -0.54487795
10.477397 -5.5305948 -0.54193795
12.687672 -6.69731 -0.53681898
16.095318 -8.496069 -0.52956706
21.998901 -11.612332 -0.51693314
34.760063 -18.348434 -0.49003282
1.8558996 -0.95066291 -0.5587309
1.9208931 -0.98395503 -0.55911475
1.9878227 -1.0182389 -0.55883002
2.0479467 -1.0490367 -0.55545324
2.1390984 -1.0957283 -0.55907881
2.2188079 -1.1365585 -0.55811304
2.332278 -1.1946821 -0.56382656
2.3971891 -1.2279322 -0.55613881
2.5096686 -1.2855486 -0.55784047
2.6235693 -1.3438928 -0.5577414
2.7489502 -1.4081177 -0.55784845
2.8821685 -1.4763572 -0.55713201
3.0322926 -1.5532566 -0.55703872
3.1898944 -1.6339862 -0.55544776
3.3811371 -1.731948 -0.55645782
3.5865467 -1.8371668 -0.55609459
3.8111887 -1.952237 -0.55469948
4.098516 -2.0994172 -0.55764532
4.3878722 -2.2476363 -0.5554812
4.7294636 -2.4226124 -0.55404127
5.1373286 -2.6315365 -0.55336833
5.6073928 -2.8723216 -0.5511992
6.1912851 -3.1714137 -0.55037928
6.9271197 -3.5483363 -0.55074281
7.8010592 -3.9960017 -0.5470559
8.9675293 -4.5935125 -0.54483229
10.533733 -5.395782 -0.54137915
12.768894 -6.5407171 -0.53681201
16.183744 -8.2899342 -0.52908254
22.142641 -11.34231 -0.51699436
34.953423 -17.904482 -0.48961797
1.8740175 -0.9310354 -0.56069636
1.9331936 -0.96043485 -0.55921525
2.0024478 -0.99484134 -0.55946028
2.0748155 -1.0307945 -0.55926067
2.1612573 -1.0737398 -0.56137699
2.2392876 -1.1125063 -0.55978113
2.3344245 -1.1597716 -0.56085551
2.4172149 -1.2009027 -0.55731672
2.5536098 -1.2686654 -0.56409734
2.6399183 -1.3115447 -0.55774635
2.7711298 -1.3767321 -0.55887175
2.9026654 -1.4420807 -0.55762422
3.0626819 -1.5215789 -0.55914193
3.2117612 -1.5956434 -0.55579686
3.4022682 -1.6902896 -0.55647278
3.6065207 -1.7917649 -0.55573344
3.8490341 -1.9122485 -0.55674326
4.0919442 -2.0329294 -0.55330813
4.3989196 -2.1854384 -0.55343592
4.7486424 -2.3591852 -0.55284786
5.16254 -2.5648148 -0.55264509
5.6517634 -2.8078671 -0.55212504
6.2268567 -3.0935807 -0.55011821
6.9455848 -3.450654 -0.54879588
7.8567863 -3.9033501 -0.54755652
9.0181141 -4.4803123 -0.54451722
10.582389 -5.2574639 -0.54051632
12.843657 -6.3808908 -0.53661597
16.279593 -8.0879059 -0.5289247
22.261497 -11.059792 -0.51655513
35.145832 -17.460892 -0.48926866
1.8817019 -0.90617901 -0.55961937
1.9497035 -0.93892676 -0.56060892
2.0141008 -0.96993881 -0.55934143
2.0851266 -1.0041431 -0.55866951
2.170604 -1.0453068 -0.56042373
2.2565222 -1.0866828 -0.56070673
2.3491387 -1.1312845 -0.56100613
2.4486728 -1.1792175 -0.56118405
2.537782 -1.2221302 -0.55723917
2.6603069 -1.2811351 -0.55868345
2.7907302 -1.3439436 -0.55944949
2.9152973 -1.4039319 -0.55669236
3.0549974 -1.4712079 -0.55439436
3.2378795 -1.5592791 -0.55695653
3.4220953 -1.6479926 -0.55635917
3.6263452 -1.7463541 -0.55543727
3.8656762 -1.8616097 -0.55579734
4.1359344 -1.9917592 -0.55590266
4.4392915 -2.1378479 -0.55516589
4.7971759 -2.3101959 -0.55514902
5.1977773 -2.5031152 -0.55308044
5.6798544 -2.7352712 -0.55154186
6.2689652 -3.0189717 -0.55051708
6.9979768 -3.3700447 -0.54961967
7.8949404 -3.8019991 -0.54691601
9.0720272 -4.3688536 -0.54448766
10.668859 -5.1378465 -0.54166508
12.91361 -6.2188611 -0.5363031
16.375891 -7.8862062 -0.52886289
22.370903 -10.773249 -0.51598084
35.320789 -17.009579 -0.48875555
1.8985224 -0.88568944 -0.56134039
1.9555779 -0.91230667 -0.55903018
2.0392601 -0.95134568 -0.56303722
2.0994239 -0.97941303 -0.55923116
2.185673 -1.0196496 -0.5610348
2.2785172 -1.0629628 -0.56288171
2.3536654 -1.0980206 -0.55882049
2.4563262 -1.1459134 -0.55966651
2.5581794 -1.1934294 -0.55845344
2.6606779 -1.2412466 -0.55551404
2.7916076 -1.3023272 -0.55637306
2.9411294 -1.3720814 -0.55836117
3.0859821 -1.4396573 -0.55676258
3.2591124 -1.5204252 -0.55735081
3.4447408 -1.6070237 -0.55678612
3.6615384 -1.708163 -0.55756837
3.8823478 -1.811174 -0.5549503
4.1575308 -1.939551 -0.55555779
4.4540844 -2.0778978 -0.55377865
4.8214149 -2.249263 -0.55471146
5.2165089 -2.4335804 -0.55184776
5.7002544 -2.659255 -0.5503059
6.2973199 -2.9377952 -0.54979324
7.0349317 -3.2819021 -0.54931104
7.9366899 -3.7025859 -0.54661292
9.1323404 -4.260375 -0.54492217
10.734603 -5.0078549 -0.54183561
12.993266 -6.0615554 -0.53647518
16.478891 -7.6876526 -0.52909642
22.506899 -10.499809 -0.51610065
35.518959 -16.570133 -0.48864138
1.9008452 -0.85847473 -0.55886376
1.9734201 -0.89125162 -0.56095541
2.0329244 -0.91812539 -0.55812865
2.1167543 -0.95598531 -0.56067383
2.1985331 -0.99291885 -0.56115937
2.2681475 -1.0243586 -0.55716616
2.3615382 -1.0665365 -0.5575338
2.4707105 -1.1158417 -0.55977529
2.5683753 -1.15995 -0.55752343
2.6934853 -1.2164531 -0.55919844
2.8121767 -1.2700574 -0.55731785
2.9521682 -1.3332815 -0.55730224
3.1007888 -1.4004028 -0.55628514
3.2790749 -1.4809217 -0.55760837
3.4637735 -1.5643368 -0.5567112
3.6872323 -1.665257 -0.55832064
3.9076791 -1.7648169 -0.55542725
4.1711078 -1.8837887 -0.55423486
4.476923 -2.0219035 -0.55348527
4.8346057 -2.1834428 -0.55309826
5.2502313 -2.371151 -0.55228901
5.7618942 -2.6022322 -0.55312568
6.3395786 -2.8631306 -0.5503673
7.0537939 -3.1856902 -0.54768372
7.9849143 -3.6062102 -0.54683888
9.1637068 -4.1385856 -0.54371607
10.774665 -4.8661394 -0.54079658
13.072083 -5.9037175 -0.53669155
16.557144 -7.4776683 -0.52861667
22.62182 -10.216645 -0.51581615
35.689236 -16.118254 -0.4882203
1.9183617 -0.83814198 -0.56094122
1.9786736 -0.8644926 -0.5593847
2.0544364 -0.89759374 -0.56096202
2.1221712 -0.9271875 -0.55904651
2.1969926 -0.95987737 -0.55771136
2.2875049 -0.99942255 -0.55886018
2.3744831 -1.0374238 -0.55753607
2.4795303 -1.0833194 -0.55871326
2.5718982 -1.1236755 -0.55524683
2.6958907 -1.1778485 -0.55664885
2.84499 -1.2429906 -0.56074929
2.9688606 -1.2971104 -0.55740029
3.1210315 -1.3635947 -0.55686647
3.2945063 -1.4393867 -0.55718052
3.4840548 -1.5222014 -0.55692041
3.6994114 -1.6162918 -0.55711329
3.9297266 -1.7169176 -0.55551821
4.207737 -1.8383819 -0.5560562
4.5145583 -1.9724336 -0.55509758
4.8716722 -2.1284585 -0.55430263
5.2868075 -2.309833 -0.55310696
5.774981 -2.5231187 -0.55136198
6.3697448 -2.7829742 -0.54997373
7.1091175 -3.1060097 -0.54897231
8.0258608 -3.5065398 -0.54664886
9.235714 -4.0351305 -0.54500329
10.840472 -4.736258 -0.54113555
13.115262 -5.730125 -0.53553092
16.64509 -7.272325 -0.52852952
22.744051 -9.9369926 -0.51577806
35.871361 -15.672381 -0.4880386
1.9231682 -0.81223023 -0.55938399
2.0029976 -0.84594536 -0.56327796
2.0556147 -0.86816758 -0.55832666
2.127073 -0.89834732 -0.55738568
2.2133155 -0.93477094 -0.55889487
2.2910047 -0.96758211 -0.55676633
2.4015763 -1.0142809 -0.5609268
2.4946213 -1.0535774 -0.55915225
2.5995953 -1.0979122 -0.5582695
2.7208374 -1.1491176 -0.55883998
2.842823 -1.200637 -0.55737019
3.0012553 -1.2675492 -0.56051368
3.1385114 -1.3255179 -0.55703503
3.3004169 -1.3938971 -0.55523944
3.4860001 -1.4722762 -0.5542956
3.7214117 -1.5716997 -0.55747378
3.9367712 -1.6626546 -0.55358207
4.2244716 -1.7841619 -0.55532646
4.5332384 -1.9145664 -0.55445784
4.879487 -2.0608008 -0.55226684
5.3103113 -2.2427552 -0.55263895
5.8067842 -2.4524353 -0.55147755
6.4071121 -2.7059774 -0.55028552
7.1452098 -3.0177054 -0.5488525
8.0633821 -3.4054861 -0.54631096
9.2695799 -3.9149113 -0.54411983
10.892159 -4.6001906 -0.54085106
13.193749 -5.5722437 -0.53589749
16.734058 -7.0674567 -0.5285551
22.835894 -9.6445036 -0.51513249
36.012108 -15.209342 -0.48737216
1.9246609 -0.78511673 -0.55696797
1.9997162 -0.81573367 -0.55949205
2.0771003 -0.84730059 -0.56129009
2.1497171 -0.87692279 -0.56045139
2.2319305 -0.91045964 -0.56072599
2.3044088 -0.94002539 -0.55717266
2.3970559 -0.97781837 -0.55702049
2.4921997 -1.0166298 -0.55576545
2.6155272 -1.0669382 -0.55883121
2.7196796 -1.1094246 -0.55575824
2.8726001 -1.1718045 -0.56034088
2.9921947 -1.2205902 -0.55597639
3.1523421 -1.2859182 -0.55664128
3.3355 -1.360633 -0.55828464
3.5142999 -1.4335698 -0.55595046
3.7214735 -1.5180811 -0.55464476
3.9561646 -1.6138173 -0.55347681
4.2384701 -1.7289767 -0.55432993
4.563581 -1.8615975 -0.55532724
4.9180012 -2.0061743 -0.553792
5.3404288 -2.178493 -0.55294371
5.824832 -2.3760929 -0.5503751
6.4302359 -2.6230524 -0.54945982
7.1809678 -2.9292943 -0.54879087
8.1202641 -3.3124564 -0.54736376
9.305398 -3.795902 -0.54344141
10.937928 -4.4618516 -0.5403586
13.272519 -5.4141884 -0.53635222
16.797827 -6.8522487 -0.52786797
22.953188 -9.3631725 -0.51514226
36.171631 -14.755302 -0.48703873
1.9412637 -0.76418561 -0.55901104
2.0084193 -0.7906217 -0.55916476
2.074054 -0.816459 -0.55771178
2.1484218 -0.84573412 -0.55736029
2.2223971 -0.87485474 -0.55558628
2.3167548 -0.91199905 -0.5574041
2.4193151 -0.95237231 -0.55942941
2.5176189 -0.99106997 -0.5586741
2.6334798 -1.036679 -0.55990106
2.7417781 -1.079311 -0.55751979
2.8794589 -1.1335096 -0.5589177
3.0074108 -1.1838783 -0.55605674
3.1672413 -1.2467963 -0.55652291
3.3457816 -1.3170792 -0.55725265
3.5299766 -1.3895882 -0.55568534
3.7483392 -1.4755474 -0.5559026
3.9908023 -1.5709939 -0.55557811
4.2685385 -1.6803257 -0.55551815
4.584434 -1.8046793 -0.55512244
4.9300337 -1.9407258 -0.55241793
5.3681755 -2.1132021 -0.55308425
5.8637724 -2.3082955 -0.55133086
6.4710445 -2.5473504 -0.55022871
7.2270889 -2.84497 -0.54960054
8.1649227 -3.2141519 -0.54766858
9.3572636 -3.683521 -0.54378408
10.993402 -4.3275933 -0.54042935
13.319827 -5.2433987 -0.53561801
16.881254 -6.6453676 -0.52788192
23.051798 -9.0744247 -0.51481217
36.339607 -14.305221 -0.48689523
1.9567965 -0.74264365 -0.56081188
2.0190523 -0.76627094 -0.55945951
2.0835085 -0.7907334 -0.55759734
2.1710799 -0.82396853 -0.56056762
2.2476995 -0.85304719 -0.55924714
2.3367202 -0.88683236 -0.55954176
2.4313891 -0.92276114 -0.55955535
2.5283728 -0.95956832 -0.55839986
2.6424303 -1.0028555 -0.55913991
2.7613819 -1.048 -0.55884337
2.8829279 -1.0941292 -0.55693752
3.0341461 -1.1515194 -0.55833972
3.1902964 -1.2107817 -0.55791575
3.363539 -1.2765306 -0.55755371
3.5498343 -1.3472335 -0.5561614
3.7712781 -1.431276 -0.55665237
4.0068464 -1.5206789 -0.5551666
4.284245 -1.6259571 -0.55491829
4.5843883 -1.7398676 -0.55248451
4.9557228 -1.8807964 -0.55266321
5.39151 -2.0461864 -0.5528543
5.8866463 -2.2341006 -0.55085695
6.497345 -2.4658732 -0.54984528
7.2463479 -2.7501347 -0.54845196
8.1879549 -3.1074936 -0.5466091
9.4044752 -3.5691874 -0.54393607
11.041315 -4.1904016 -0.5402109
13.383291 -5.0792279 -0.53561801
16.969276 -6.4401817 -0.52811813
23.162228 -8.7905321 -0.51482546
36.48534 -13.846921 -0.48652968
1.9523513 -0.71361929 -0.55698091
2.0403881 -0.74579829 -0.56278777
2.092653 -0.76490206 -0.55748528
2.178477 -0.79627228 -0.55990708
2.2591724 -0.82576793 -0.55953306
2.3459868 -0.85750014 -0.55919355
2.4429939 -0.89295787 -0.55965674
2.5333221 -0.92597443 -0.55693614
2.657418 -0.97133374 -0.55974162
2.7594807 -1.0086395 -0.55590659
2.9032464 -1.0611885 -0.55829966
3.0383306 -1.1105641 -0.55655473
3.1992602 -1.1693867 -0.55692655
3.3699455 -1.2317753 -0.55606288
3.557508 -1.3003327 -0.5548166
3.7802649 -1.3817543 -0.55542898
4.0289021 -1.4726356 -0.55567151
4.2945976 -1.5697522 -0.5537172
4.6266294 -1.6911157 -0.55502719
4.9848347 -1.8220462 -0.5533694
5.4149666 -1.979267 -0.5527221
5.9184928 -2.1633148 -0.55130607
6.5472617 -2.3931413 -0.55153751
7.2713079 -2.6577928 -0.54782611
8.2220459 -3.0053048 -0.54637665
9.4471045 -3.4530852 -0.54390466
11.099794 -4.0571733 -0.54059029
13.441469 -4.9130969 -0.53548807
17.020224 -6.2211957 -0.52728301
23.249607 -8.498147 -0.51440609
36.631115 -13.389326 -0.48624131
1.9823892 -0.69708914 -0.56306231
2.0440054 -0.71875596 -0.56130534
2.1121206 -0.74270809 -0.56019622
2.1858969 -0.76865077 -0.55934256
2.2774389 -0.80084068 -0.56157571
2.3536031 -0.82762313 -0.558541
2.4522569 -0.86231387 -0.5593074
2.5506985 -0.89692998 -0.55828941
2.6556449 -0.93383342 -0.55690742
2.7815976 -0.97812355 -0.55789697
2.9056284 -1.0217378 -0.55629963
3.0486557 -1.0720321 -0.55598933
3.2134655 -1.1299859 -0.55693847
3.4071124 -1.1980802 -0.55972248
3.5915036 -1.2629195 -0.55765438
3.7895031 -1.3325443 -0.55433691
4.0374851 -1.4197448 -0.55440551
4.311852 -1.5162237 -0.55349618
4.6334352 -1.6293055 -0.55339837
4.9949512 -1.7564292 -0.55205309
5.4295669 -1.9092579 -0.55177432
5.9432545 -2.0898914 -0.5511772
6.547441 -2.3023481 -0.54912621
7.3166323 -2.5728273 -0.54881591
8.2545767 -2.9026468 -0.54612523
9.4803743 -3.3336875 -0.543419
11.128338 -3.9131789 -0.53959614
13.494522 -4.7452259 -0.5352366
17.120375 -6.0202241 -0.52805245
23.347118 -8.2098026 -0.51429111
36.783295 -12.934511 -0.4861134
1.9871192 -0.67141467 -0.56201833
2.0419946 -0.68995619 -0.55838108
2.1136899 -0.71418083 -0.55824101
2.1981771 -0.74272764 -0.56010556
2.2752073 -0.7687549 -0.55865228
2.3729455 -0.80177903 -0.56074911
2.4616432 -0.83174849 -0.55907321
2.5537519 -0.86287057 -0.5565933
2.6744242 -0.90364367 -0.55847311
2.7799242 -0.93929034 -0.55520278
2.9283531 -0.98944199 -0.5582788
3.0588646 -1.0335397 -0.55549139
3.2281935 -1.0907532 -0.55712438
3.4009252 -1.1491164 -0.55634266
3.597069 -1.2153901 -0.55615598
3.8147597 -1.2889441 -0.55567098
4.0605216 -1.3719831 -0.55521023
4.3313942 -1.4635065 -0.55365282
4.6720238 -1.5785996 -0.55564678
5.0315695 -1.700084 -0.55374789
5.4615936 -1.8453822 -0.55268127
5.9697499 -2.0170798 -0.55129248
6.5835834 -2.2244837 -0.54982179
7.3451023 -2.4817886 -0.54862088
8.282546 -2.7985351 -0.54565775
9.5282803 -3.2194483 -0.54385471
11.179629 -3.7774117 -0.53979015
13.544946 -4.5766134 -0.53496403
17.167929 -5.8007593 -0.52727926
23.432478 -7.9174466 -0.51398802
36.917896 -12.473947 -0.48582846
1.9937339 -0.64644796 -0.56159848
2.0520949 -0.66537094 -0.55886352
2.1306601 -0.69084489 -0.56043702
2.1943424 -0.71149319 -0.55685711
2.2895923 -0.74237704 -0.55990058
2.3791687 -0.77142131 -0.55993581
2.4691586 -0.80059958 -0.55850202
2.5658822 -0.83196121 -0.55696529
2.6896257 -0.87208378 -0.55936593
2.8084846 -0.91062254 -0.55862826
2.9195044 -0.94661963 -0.55433083
3.0879135 -1.0012246 -0.55848867
3.2342825 -1.0486833 -0.55590779
3.411015 -1.105987 -0.55572647
3.6085575 -1.1700381 -0.55566573
3.8361061 -1.2438184 -0.55651045
4.0727134 -1.320536 -0.55461514
4.3489308 -1.4100966 -0.55363619
4.6710434 -1.5145384 -0.5532735
5.0344296 -1.6323626 -0.55181187
5.4884462 -1.779573 -0.55314237
5.9887986 -1.9418072 -0.55080491
6.6162648 -2.1452565 -0.5503065
7.3677411 -2.3889151 -0.54807627
8.3214998 -2.6981618 -0.54599702
9.5730534 -3.1039653 -0.54419059
11.247143 -3.6467719 -0.5408439
13.604017 -4.4109645 -0.53511441
17.232498 -5.5874624 -0.52711236
23.539402 -7.632412 -0.51423585
37.063251 -12.017384 -0.48575994
1.996992 -0.62047458 -0.56032479
2.0724194 -0.64391023 -0.56219983
2.1386995 -0.66450375 -0.56036001
2.2105711 -0.68683457 -0.55878997
2.3009434 -0.71491361 -0.56048423
2.3894629 -0.7424171 -0.56016767
2.4716022 -0.76793814 -0.55687678
2.5917788 -0.80527753 -0.56039482
2.700357 -0.83901328 -0.5594098
2.8217862 -0.87674189 -0.5590874
2.9456682 -0.91523266 -0.55711961
3.0952396 -0.96170521 -0.55763274
3.2545114 -1.0111916 -0.55720538
3.4267642 -1.0647113 -0.5561173
3.6196358 -1.1246375 -0.55520022
3.8569305 -1.198366 -0.55735165
4.0799012 -1.267644 -0.55342937
4.3719206 -1.3583758 -0.55439454
4.6889162 -1.4568677 -0.55322671
5.0700412 -1.575285 -0.55355018
5.5046701 -1.7103263 -0.55261612
6.0145526 -1.8687491 -0.55101848
6.6446352 -2.0645187 -0.55051309
7.4034991 -2.3003013 -0.54859066
8.3567686 -2.5964866 -0.54617494
9.6121578 -2.9865415 -0.5442847
11.27555 -3.503365 -0.54009753
13.651622 -4.2416215 -0.53489488
17.30064 -5.3753881 -0.52713501
23.612604 -7.3365445 -0.51382536
37.170509 -11.549048 -0.48526776
2.0018821 -0.59510422 -0.55960131
2.0669732 -0.61445403 -0.55863047
2.146148 -0.63799047 -0.56021374
2.2261214 -0.66176438 -0.56062144
2.3106728 -0.68689919 -0.56075442
2.3952634 -0.71204567 -0.55943263
2.4816992 -0.73774058 -0.55706567
2.5873165 -0.76913774 -0.55734295
2.7083585 -0.80512011 -0.55897427
2.820739 -0.83852774 -0.55679488
2.9549282 -0.87841845 -0.55678594
3.1071434 -0.92366785 -0.55768895
3.2786198 -0.97464305 -0.55923885
3.4563529 -1.0274782 -0.55882657
3.6367252 -1.0810978 -0.55574036
3.8693223 -1.1502426 -0.55705631
4.1167898 -1.2238078 -0.55634987
4.398046 -1.3074176 -0.55562681
4.7125182 -1.4009014 -0.55393714
5.0853004 -1.5117193 -0.55314487
5.5009036 -1.6352667 -0.55017775
6.0494866 -1.7983452 -0.55215132
6.6642027 -1.9810834 -0.55007446
7.4230876 -2.2066789 -0.54799008
8.3880844 -2.4935458 -0.54617637
9.6304216 -2.8628583 -0.54328454
11.309756 -3.362078 -0.53971493
13.699765 -4.0725617 -0.53477865
17.358572 -5.160224 -0.52692699
23.694387 -7.0436869 -0.51368147
37.299835 -11.088211 -0.48513943
2.0073912 -0.5699746 -0.55913985
2.0626545 -0.58566594 -0.55547494
2.1476223 -0.60979158 -0.55859911
2.2273314 -0.632424 -0.55892551
2.3085201 -0.65547657 -0.55823374
2.3970184 -0.68060464 -0.55784565
2.4928524 -0.70781553 -0.55757338
2.5942278 -0.7365998 -0.55683845
2.711201 -0.769813 -0.55756509
2.8371758 -0.80558205 -0.55804193
2.9695642 -0.84317213 -0.55754805
3.1071603 -0.88224083 -0.55570281
3.2767367 -0.93039006 -0.5569241
3.4541998 -0.98077857 -0.55648649
3.651458 -1.0367876 -0.55600154
3.8711059 -1.099154 -0.55532527
4.1228304 -1.1706281 -0.55517888
4.3912826 -1.2468519 -0.55279362
4.7294488 -1.3428702 -0.55394441
5.1015406 -1.4485211 -0.55293208
5.5330496 -1.5710429 -0.55141902
6.0565548 -1.719686 -0.55082476
6.6952143 -1.9010258 -0.55066305
7.4559822 -2.1170366 -0.54845524
8.4123802 -2.3885942 -0.54580462
9.6661043 -2.7445741 -0.54335248
11.348063 -3.222146 -0.5396114
13.740755 -3.9015224 -0.53446561
17.417206 -4.9454064 -0.52682108
23.78582 -6.7536979 -0.5138244
37.407101 -10.621297 -0.48479921
2.0203726 -0.5469076 -0.56084013
2.0855494 -0.5645507 -0.55972874
2.1626966 -0.58543414 -0.56060511
2.2308552 -0.60388446 -0.55790418
2.3225646 -0.62870985 -0.55971813
2.4089434 -0.65209228 -0.55871254
2.5086296 -0.67907703 -0.5591923
2.6237242 -0.71023273 -0.56125277
2.7112818 -0.73393422 -0.55568373
2.8520234 -0.77203244 -0.55905277
2.9825532 -0.80736643 -0.55808061
3.1195519 -0.84445149 -0.5560199
3.2989936 -0.8930257 -0.55879837
3.44591 -0.93279546 -0.55326122
3.6810195 -0.99643874 -0.55859494
3.8878393 -1.0524241 -0.55582726
4.1314049 -1.1183565 -0.55443984
4.4157305 -1.1953224 -0.55397904
4.744585 -1.2843421 -0.55382562
5.11304 -1.3840815 -0.55229211
5.5524592 -1.5030307 -0.55146974
6.0753894 -1.644586 -0.55065686
6.7091417 -1.8161405 -0.54993021
7.4785476 -2.024416 -0.54824257
8.4533472 -2.2882907 -0.54659569
9.7064438 -2.6274993 -0.54376286
11.390195 -3.0832849 -0.53977126
13.798079 -3.7350903 -0.53486842
17.472782 -4.7298193 -0.52670312
23.851711 -6.4565725 -0.51349396
37.513016 -10.154639 -0.48451698
2.020335 -0.52032244 -0.55901134
2.0902517 -0.53832901 -0.55917197
2.1569848 -0.55551559 -0.55731171
2.2394397 -0.57675129 -0.55823523
2.3334286 -0.60095745 -0.56051314
2.4175415 -0.62262011 -0.55888879
2.5192225 -0.64880729 -0.55973279
2.6210828 -0.67504066 -0.55886984
2.7321248 -0.70363873 -0.55814004
2.8470864 -0.73324627 -0.55627561
2.9995096 -0.77250171 -0.55943364
3.1460173 -0.81023365 -0.55891895
3.3122041 -0.8530339 -0.55921698
3.4797046 -0.8961724 -0.55687577
3.6785831 -0.94739211 -0.55641532
3.8827059 -0.99996245 -0.55329365
4.1609097 -1.0716118 -0.55658895
4.4333773 -1.1417838 -0.55438966
4.7620921 -1.226442 -0.55406696
5.1179829 -1.318099 -0.55103362
5.5971065 -1.4414937 -0.55410177
6.0860248 -1.5674111 -0.54983234
6.7289953 -1.7330034 -0.54976928
7.5049477 -1.9328443 -0.54839414
8.4706383 -2.1815507 -0.5459379
9.7280979 -2.5054004 -0.54320896
11.420645 -2.9413033 -0.53945947
13.838947 -3.5641193 -0.53471333
17.543434 -4.5181828 -0.52711827
23.925398 -6.1618104 -0.51341027
37.618877 -9.6884661 -0.48430896
2.0366726 -0.4979094 -0.56179529
2.1004717 -0.51350647 -0.56017441
2.1773727 -0.53230661 -0.56084585
2.2489996 -0.54981738 -0.5588907
2.3253393 -0.56848031 -0.5568487
2.4232855 -0.59242541 -0.5584904
2.519403 -0.61592346 -0.55804795
2.6220462 -0.64101684 -0.55735242
2.7401874 -0.66989905 -0.55806214
2.8682034 -0.70119542 -0.55867463
2.9992285 -0.73322737 -0.55765754
3.13379 -0.76612389 -0.55503106
3.3036597 -0.80765229 -0.55605561
3.4796042 -0.85066575 -0.55514371
3.6802247 -0.89971185 -0.55494821
3.9247618 -0.95949429 -0.55756325
4.1621604 -1.0175316 -0.5550406
4.4608388 -1.0905502 -0.55610478
4.7682858 -1.1657124 -0.553078
5.154572 -1.2601484 -0.55326289
5.5918565 -1.3670523 -0.55187619
6.1191649 -1.4959644 -0.55112284
6.7459316 -1.6491913 -0.54945463
7.523469 -1.8392775 -0.54805344
8.4945269 -2.0766737 -0.54579049
9.7652006 -2.3873181 -0.5436005
11.459559 -2.8015411 -0.53962958
13.867315 -3.3901701 -0.53415835
17.590282 -4.3003311 -0.52689719
23.986265 -5.8639698 -0.51313031
37.725723 -9.2228823 -0.48418784
2.0379634 -0.47174707 -0.56050891
2.1064851 -0.48760846 -0.5601368
2.1750457 -0.50347883 -0.5586096
2.2513576 -0.5211435 -0.55784208
2.3354974 -0.54062015 -0.55764717
2.4243989 -0.56119901 -0.55711448
2.5204237 -0.58342683 -0.55664295
2.6383069 -0.61071438 -0.55917031
2.7368383 -0.63352239 -0.55575156
2.8735917 -0.665178 -0.55808878
3.0120087 -0.69721872 -0.55839747
3.1621995 -0.73198485 -0.55842632
3.3194318 -0.76838094 -0.55707788
3.4901495 -0.80789858 -0.55519927
3.6912436 -0.85444778 -0.5549835
3.9196148 -0.90731108 -0.55520511
4.1745319 -0.9663192 -0.5550639
4.4515066 -1.0304332 -0.55331993
4.7930565 -1.109495 -0.55432677
5.1721587 -1.1972495 -0.55352849
5.6109748 -1.2988265 -0.55214506
6.1353831 -1.4202163 -0.550969
6.7645664 -1.5658594 -0.5493626
7.5452003 -1.7465605 -0.54803056
8.524003 -1.9731333 -0.54608417
9.7928562 -2.2668469 -0.54354721
11.497832 -2.6615143 -0.53984994
13.916278 -3.2213352 -0.53447813
17.632938 -4.0816669 -0.52663177
24.043608 -5.5656061 -0.51285422
37.809788 -8.7521973 -0.48384893
2.0431814 -0.44655997 -0.56039143
2.1183558 -0.46299013 -0.56173694
2.1798847 -0.47643796 -0.55830556
2.2600255 -0.49395359 -0.55844253
