# .PCD v0.7 - Point Cloud Data file format
VERSION 0.7
FIELDS x y z
SIZE 4 4 4
TYPE F F F
COUNT 1 1 1
WIDTH 1451
HEIGHT 1
VIEWPOINT 0 0 0 1 0 0 0
POINTS 1451
DATA ascii
0.38880506 -3.819622 -0.56238252
0.41243681 -4.0517802 -0.56203067
0.4397797 -4.3203969 -0.56255227
0.46981165 -4.6154308 -0.56180507
0.50678194 -4.9786272 -0.5638544
0.5470525 -5.3742452 -0.56323504
0.59300655 -5.8256984 -0.5613929
0.65075368 -6.3930058 -0.5622049
0.7203424 -7.0766459 -0.56279558
0.80527759 -7.9110494 -0.56269383
0.91052204 -8.9449711 -0.56117594
1.0514731 -10.329676 -0.56145972
1.2431746 -12.212951 -0.56154132
1.5183295 -14.916073 -0.56100327
1.9473847 -19.131113 -0.55953419
2.7205825 -26.727009 -0.5582757
4.5050402 -44.25753 -0.55462158
0.2389897 -2.0921624 -0.56423801
0.24711612 -2.1633027 -0.564071
0.25448257 -2.2277899 -0.56104159
0.26521403 -2.3217354 -0.56410545
0.27531239 -2.4101384 -0.56429076
0.28538036 -2.4982753 -0.56293917
0.29676419 -2.5979314 -0.56261545
0.31043765 -2.7176316 -0.56479418
0.32162222 -2.8155437 -0.56062782
0.3385005 -2.9632993 -0.56433189
0.35360762 -3.0955501 -0.56273758
0.37129632 -3.2504003 -0.56285208
0.39144334 -3.4267712 -0.5639208
0.41203973 -3.6070759 -0.56265336
0.43613902 -3.8180459 -0.5628975
0.46245638 -4.0484328 -0.56231266
0.49430534 -4.3272452 -0.56419277
0.52730095 -4.6160955 -0.56263262
0.56730789 -4.9663239 -0.56320846
0.61260682 -5.3628798 -0.56279081
0.66323137 -5.8060565 -0.56024367
0.72790134 -6.37219 -0.56111908
0.80589288 -7.0549436 -0.5618152
0.90191662 -7.8955536 -0.56233799
1.0212553 -8.9402676 -0.5616262
1.1788024 -10.319466 -0.56165022
1.392294 -12.188413 -0.56115788
1.7011734 -14.892403 -0.56085736
2.1830904 -19.111198 -0.55969459
3.0468013 -26.672293 -0.55787313
5.039546 -44.117168 -0.55359733
0.26352778 -2.0798464 -0.56174797
0.27331722 -2.1571078 -0.56328946
0.28414947 -2.2425995 -0.56560838
0.29222155 -2.3063071 -0.56118751
0.30472133 -2.4049594 -0.56391281
0.31662121 -2.498877 -0.56390947
0.32866812 -2.593955 -0.56258696
0.34227818 -2.7013702 -0.5622468
0.35715854 -2.8188109 -0.56211036
0.37494892 -2.9592183 -0.56439006
0.3912867 -3.0881615 -0.56222653
0.40990379 -3.2350934 -0.56103188
0.43142402 -3.404938 -0.56115842
0.4573077 -3.6092203 -0.56382239
0.48348543 -3.8158236 -0.56340379
0.51415211 -4.0578547 -0.56445676
0.54527777 -4.3035088 -0.5619297
0.58500522 -4.6170502 -0.5635832
0.62746209 -4.9521341 -0.56243175
0.67624617 -5.3371539 -0.56092137
0.73863167 -5.8295202 -0.56334156
0.80877268 -6.3830957 -0.56291258
0.89356059 -7.0522695 -0.56243473
0.99645096 -7.8643131 -0.56094325
1.1320164 -8.9342394 -0.56207949
1.3042941 -10.293911 -0.56108987
1.5401504 -12.155366 -0.56046593
1.8801759 -14.838957 -0.55967295
2.4129374 -19.043682 -0.55854398
3.3683991 -26.584496 -0.55686104
5.5715938 -43.97282 -0.5526039
0.29060706 -2.0874128 -0.56471401
0.2993181 -2.1499836 -0.56234777
0.3112236 -2.2355001 -0.56474036
0.32186875 -2.3119636 -0.56348431
0.33313057 -2.3928566 -0.561993
0.34724402 -2.4942327 -0.56378227
0.35990193 -2.5851538 -0.5615955
0.37424621 -2.6881878 -0.56041861
0.39046618 -2.8046949 -0.56021053
0.41013163 -2.9459505 -0.56277889
0.43111882 -3.0967002 -0.56470352
0.45016274 -3.2334917 -0.56167161
0.47363999 -3.4021273 -0.56161261
0.5010075 -3.5987062 -0.56309974
0.52851754 -3.7963095 -0.56143963
0.56201947 -4.036952 -0.56246793
0.59909534 -4.3032656 -0.56281728
0.64175087 -4.6096578 -0.56360143
0.68685126 -4.9336109 -0.56124479
0.74310523 -5.3376799 -0.56189448
0.80833364 -5.8062115 -0.56200713
0.88682008 -6.3699746 -0.56267458
0.97807628 -7.0254626 -0.56121361
1.0933927 -7.8537731 -0.56110799
1.2394665 -8.9030132 -0.56103134
1.428772 -10.262782 -0.56030834
1.6888696 -12.131047 -0.56025982
2.0622413 -14.812954 -0.55960637
2.6463242 -19.008387 -0.55842096
3.6909814 -26.512094 -0.55625308
6.0984554 -43.804836 -0.55139357
0.31473425 -2.0736887 -0.5620057
0.32571566 -2.1460419 -0.56232178
0.33949777 -2.2368481 -0.56609267
0.35015434 -2.307061 -0.56329626
0.36286718 -2.3908219 -0.56252056
0.37701955 -2.4840677 -0.56249005
0.39336652 -2.591773 -0.56404161
0.40879479 -2.6934252 -0.56251585
0.42777804 -2.8184998 -0.56397599
0.44739386 -2.9477427 -0.56412959
0.46850529 -3.0868394 -0.56391329
0.49046287 -3.2315116 -0.56233275
0.51764643 -3.4106157 -0.56402194
0.54223609 -3.5726297 -0.56002045
0.57729399 -3.8036153 -0.56352741
0.61084449 -4.0246696 -0.56176072
0.6529566 -4.3021331 -0.56367671
0.69579482 -4.5843816 -0.56151468
0.74750239 -4.9250669 -0.56127608
0.80881119 -5.3290119 -0.56198651
0.87635684 -5.7740502 -0.55989486
0.96316183 -6.3459816 -0.5615589
1.0665303 -7.0270457 -0.56234521
1.1914334 -7.8499942 -0.56184226
1.3498925 -8.8940325 -0.56146902
1.5540019 -10.238849 -0.56000262
1.8378861 -12.109275 -0.56025571
2.2427258 -14.776642 -0.55923408
2.8782647 -18.964014 -0.55811495
4.0121493 -26.434837 -0.55562526
6.6256175 -43.65419 -0.5504812
0.33784941 -2.0553162 -0.55811012
0.35183311 -2.1403863 -0.56193101
0.36444232 -2.2170949 -0.56218523
0.37899628 -2.3056343 -0.5640431
0.39184123 -2.3837769 -0.56195414
0.40586501 -2.4690909 -0.56018645
0.4246181 -2.5831759 -0.56326437
0.44054702 -2.6800797 -0.56081766
0.46109569 -2.8050883 -0.56238431
0.48388639 -2.9437361 -0.56445885
0.50792611 -3.0899825 -0.56558567
0.53085154 -3.2294497 -0.56306726
0.55887395 -3.3999248 -0.56334788
0.59221309 -3.6027446 -0.56583977
0.6245507 -3.7994711 -0.56400853
0.66134208 -4.0232925 -0.56266105
0.70300096 -4.2767253 -0.5614379
0.75394309 -4.5866332 -0.5628835
0.80933696 -4.9236236 -0.56220317
0.87350816 -5.3140106 -0.56149483
0.95110995 -5.7861032 -0.56215519
1.0399263 -6.3264198 -0.56091702
1.1500391 -6.9962945 -0.56097353
1.2861646 -7.8244176 -0.56110114
1.458612 -8.8735056 -0.56126302
1.6813614 -10.228608 -0.56053096
1.9853642 -12.078017 -0.55989665
2.4205077 -14.725224 -0.55837232
3.1079354 -18.907209 -0.55752575
4.3323617 -26.356041 -0.5550468
7.1471634 -43.479961 -0.54935092
0.36671871 -2.0714753 -0.56367993
0.37788558 -2.1345534 -0.56157708
0.39281872 -2.2189057 -0.56382662
0.40577602 -2.2920976 -0.56190974
0.42124447 -2.3794737 -0.56211835
0.43747818 -2.4711726 -0.56183678
0.45360148 -2.562248 -0.55987489
0.47690615 -2.6938884 -0.56489164
0.49720201 -2.8085332 -0.5642581
0.5208137 -2.9419081 -0.56529361
0.54264051 -3.0652008 -0.5622285
0.56889176 -3.2134855 -0.56146109
0.5997721 -3.3879185 -0.56253797
0.63222289 -3.5712225 -0.56206745
0.66937149 -3.7810631 -0.56245524
0.7115767 -4.0194664 -0.56330705
0.75455385 -4.2622304 -0.56071067
0.81043774 -4.5779004 -0.56299222
0.86989671 -4.913765 -0.5622564
0.94043946 -5.3122382 -0.56248689
1.0210423 -5.7675381 -0.5615288
1.1199964 -6.3264976 -0.5621025
1.2367151 -6.9858036 -0.56130928
1.3819321 -7.8060875 -0.56096292
1.5660452 -8.8460827 -0.56070405
1.8054101 -10.198177 -0.56003755
2.1314061 -12.039622 -0.55928952
2.6028473 -14.702642 -0.55868751
3.3363209 -18.845797 -0.55688244
4.6485248 -26.258011 -0.55414426
7.6678057 -43.312954 -0.54839063
0.39336535 -2.0731575 -0.56541121
0.40713587 -2.1457324 -0.56579256
0.41843086 -2.2052605 -0.56162429
0.43688527 -2.3025212 -0.56573927
0.45231235 -2.3838265 -0.56441784
0.46866632 -2.470017 -0.56284171
0.487885 -2.5713055 -0.56312239
0.5080232 -2.6774402 -0.56270987
0.53150445 -2.8011935 -0.56405395
0.55402917 -2.9199059 -0.56233233
0.58014584 -3.0575485 -0.56209093
0.61089128 -3.2195868 -0.56379694
0.64233232 -3.3852906 -0.56337047
0.67752534 -3.5707688 -0.56326473
0.71430767 -3.7646232 -0.56127393
0.76008749 -4.005897 -0.56267273
0.80995303 -4.2687039 -0.56282997
0.86458063 -4.5566087 -0.56163865
0.92966938 -4.8996463 -0.56190646
1.0029058 -5.2856255 -0.56093234
1.0932893 -5.7619743 -0.56225348
1.1958805 -6.3026614 -0.56124878
1.3219417 -6.9670434 -0.56106561
1.4738511 -7.767653 -0.55946094
1.6728296 -8.8163319 -0.56007981
1.9312295 -10.178179 -0.56020111
2.2784233 -12.007998 -0.55907965
2.7854712 -14.680299 -0.55909771
3.5655403 -18.791504 -0.55653167
4.9682298 -26.184114 -0.55383211
8.182869 -43.126263 -0.54725951
0.41817877 -2.0649672 -0.56453717
0.43116596 -2.1290979 -0.56276178
0.44596231 -2.2021623 -0.56218934
0.46372271 -2.2898631 -0.56398755
0.48145989 -2.3774493 -0.56426698
0.50286394 -2.4831426 -0.56719875
0.51961607 -2.5658648 -0.56328756
0.54184991 -2.6756554 -0.56369245
0.5629977 -2.7800832 -0.56115472
0.59110886 -2.9188962 -0.5634951
0.62031698 -3.0631258 -0.56447583
0.64844245 -3.2020094 -0.56207269
0.67952383 -3.3554893 -0.55975926
0.72023118 -3.5565021 -0.56236875
0.76179266 -3.7617331 -0.56219709
0.8089875 -3.994781 -0.56246608
0.85786223 -4.2361245 -0.55988288
0.91832304 -4.5346799 -0.56028533
0.9874531 -4.8760443 -0.56054986
1.0680457 -5.2740107 -0.56105113
1.1628017 -5.7419162 -0.56164902
1.2709013 -6.275712 -0.56019825
1.4088563 -6.9569335 -0.56160408
1.5725144 -7.7650776 -0.56062579
1.7795043 -8.7871943 -0.55957651
2.0529826 -10.13763 -0.5593164
2.4260716 -11.979944 -0.55912018
2.9581468 -14.607332 -0.55766195
3.7950308 -18.739866 -0.5563423
5.2846785 -26.095747 -0.55329567
8.6964331 -42.942993 -0.54624957
0.4424676 -2.054703 -0.56317598
0.45832968 -2.1283624 -0.56401438
0.47443077 -2.2031317 -0.56388348
0.48927099 -2.2720459 -0.56103861
0.51099408 -2.3729222 -0.56464112
0.53072208 -2.4645336 -0.56439614
0.55246574 -2.5655053 -0.56465733
0.57427627 -2.6667879 -0.56326944
0.5989188 -2.7812212 -0.56282836
0.62450904 -2.9000556 -0.56129801
0.65659457 -3.0490525 -0.56332761
0.68730092 -3.1916447 -0.56169438
0.72281545 -3.3565648 -0.56137896
0.76509976 -3.552922 -0.56324768
0.80759883 -3.7502763 -0.56192654
0.85497671 -3.9702866 -0.56045514
0.91356975 -4.2423773 -0.56215155
0.97663337 -4.5352283 -0.5617944
1.0522233 -4.8862481 -0.56316769
1.1336395 -5.2643232 -0.56146097
1.2324365 -5.7231112 -0.56124949
1.3489207 -6.2640324 -0.56059396
1.4905659 -6.9217958 -0.5602048
1.6655784 -7.7345076 -0.55985504
1.89004 -8.7768488 -0.56035537
2.1764903 -10.107049 -0.55906355
2.5711432 -11.939713 -0.55867583
3.1334684 -14.551003 -0.55694032
4.0209579 -18.67227 -0.5557614
5.5964489 -25.988436 -0.55243772
9.2079191 -42.759151 -0.54531008
0.46632558 -2.0430951 -0.56152356
0.48296601 -2.1160011 -0.56226993
0.49873063 -2.1850703 -0.56078792
0.51608628 -2.2611098 -0.55986291
0.54034829 -2.367408 -0.56486744
0.55872118 -2.4479046 -0.56211883
0.58381641 -2.5578535 -0.56451052
0.60926551 -2.6693528 -0.56535083
0.63489008 -2.7816205 -0.56444639
0.66175407 -2.8993189 -0.56268781
0.69474685 -3.043869 -0.56390566
0.72644216 -3.1827343 -0.56165582
0.76508683 -3.3520467 -0.56215423
0.80889469 -3.5439806 -0.56336445
0.85781729 -3.7583234 -0.56467009
0.90876114 -3.9815218 -0.56357592
0.96611857 -4.2328196 -0.56241673
1.0325539 -4.5238905 -0.56192023
1.1076158 -4.852757 -0.560835
1.1959789 -5.2398982 -0.56038213
1.3012097 -5.7009425 -0.56060219
1.4291512 -6.2614875 -0.56189644
1.5749952 -6.9004683 -0.56000382
1.7663924 -7.7390299 -0.56171209
1.9977593 -8.7527094 -0.56034023
2.3039949 -10.094409 -0.55988914
2.7156048 -11.897779 -0.55823398
3.3119884 -14.510693 -0.55691415
4.2473583 -18.608795 -0.55538464
5.9112487 -25.898737 -0.55203438
9.7098522 -42.54142 -0.54401487
0.49283323 -2.0431018 -0.56314838
0.5110513 -2.1186271 -0.56459486
0.52859396 -2.1913524 -0.5640257
0.5488025 -2.2751293 -0.56496239
0.56845355 -2.3565953 -0.56391263
0.59101224 -2.450115 -0.56425256
0.61313611 -2.5418324 -0.56259614
0.64061385 -2.6557448 -0.56409448
0.66934472 -2.7748523 -0.56470042
0.69667667 -2.8881602 -0.56214225
0.7338683 -3.0423429 -0.56525201
0.76570857 -3.1743407 -0.56179368
0.80630559 -3.3426406 -0.56219703
0.84997618 -3.5236828 -0.56175679
0.9001736 -3.7317822 -0.56230295
0.95492363 -3.9587555 -0.56197304
1.0168194 -4.2153521 -0.56171459
1.0863993 -4.5038042 -0.56104219
1.1685421 -4.8443375 -0.56148016
1.2607158 -5.2264552 -0.56055999
1.3749001 -5.6998205 -0.56211185
1.5040022 -6.2350292 -0.56113929
1.6601741 -6.8824592 -0.56015664
1.8524275 -7.6794696 -0.55900019
2.1040766 -8.7227135 -0.56003392
2.4232593 -10.045924 -0.55881047
2.8585927 -11.850654 -0.55762994
3.4887614 -14.463098 -0.55669183
4.4729838 -18.543314 -0.55502993
6.2197738 -25.784851 -0.55119544
10.21925 -42.365181 -0.54332697
0.52061039 -2.0474803 -0.56607693
0.53596491 -2.1078675 -0.56344116
0.55373716 -2.1777627 -0.56223798
0.57406348 -2.2577031 -0.56234545
0.59631056 -2.3451974 -0.56289726
0.62185377 -2.4456549 -0.56494367
0.64340842 -2.530426 -0.56178015
0.66827947 -2.6282399 -0.55995542
0.69936514 -2.7504952 -0.56145126
0.73215228 -2.879442 -0.56215519
0.76402932 -3.0048094 -0.55998164
0.80538476 -3.167454 -0.56228507
0.84627998 -3.3282886 -0.56149095
0.89482838 -3.519222 -0.56275725
0.94463909 -3.7151198 -0.56150007
1.0030389 -3.944797 -0.56169993
1.067381 -4.197845 -0.56108826
1.1434339 -4.4969492 -0.56189728
1.2262394 -4.8226104 -0.56066716
1.3257638 -5.2140245 -0.56093282
1.4419615 -5.6710119 -0.56097698
1.5788991 -6.2095666 -0.56055266
1.7470038 -6.8706961 -0.56090528
1.9499536 -7.6688666 -0.5599314
2.2073531 -8.681179 -0.55906761
2.5486033 -10.023264 -0.55925089
3.0048246 -11.817512 -0.55776691
3.6673505 -14.423123 -0.55684686
4.6950598 -18.464947 -0.55437034
6.5303087 -25.682697 -0.55068666
10.713415 -42.134209 -0.54201341
0.54350257 -2.0325348 -0.56375003
0.55767351 -2.08553 -0.55926102
0.57774603 -2.1605949 -0.55959755
0.59825265 -2.2372835 -0.55904949
0.62760627 -2.3470573 -0.5651533
0.65139502 -2.4360199 -0.56452566
0.6776948 -2.5343733 -0.56446391
0.70739394 -2.6454389 -0.56543022
0.73574317 -2.7514565 -0.56345165
0.7672478 -2.8692744 -0.56196952
0.80303377 -3.003103 -0.56146139
0.84446234 -3.1580331 -0.56241351
0.88954705 -3.3266366 -0.56301498
0.94129282 -3.5201499 -0.5647139
0.98754406 -3.6931155 -0.55996734
1.0528111 -3.9371946 -0.56241828
1.1181253 -4.1814499 -0.56069225
1.1959263 -4.4724021 -0.5606252
1.2862753 -4.8102798 -0.56103003
1.3865815 -5.1853948 -0.55964476
1.5094182 -5.6447668 -0.56017447
1.6565353 -6.1949396 -0.5610286
1.829882 -6.8432045 -0.5604555
2.0465865 -7.6536136 -0.5606128
2.3125665 -8.6482983 -0.55873919
2.6663156 -9.9712124 -0.55813378
3.1467266 -11.767804 -0.55720496
3.841737 -14.366932 -0.55645919
4.916266 -18.385345 -0.55375361
6.8373108 -25.569471 -0.55001998
11.211511 -41.927654 -0.54108882
0.56562865 -2.0156353 -0.56094944
0.58704948 -2.0919693 -0.56288105
0.60761422 -2.1652522 -0.5626964
0.63112879 -2.2490473 -0.56388551
0.65256584 -2.3254387 -0.56183743
0.67690635 -2.4121771 -0.56088674
0.70819396 -2.5236712 -0.56397718
0.73298478 -2.6120143 -0.56017017
0.77117145 -2.7480936 -0.56466216
0.80366468 -2.8638842 -0.56280679
0.83928895 -2.9908326 -0.56105441
0.8837772 -3.1493676 -0.56276309
0.92655307 -3.301801 -0.56069756
0.97582191 -3.4773719 -0.55973393
1.0382165 -3.6997168 -0.56286138
1.0996739 -3.9187222 -0.56166869
1.1726378 -4.1787314 -0.56221873
1.2513347 -4.4591703 -0.56085294
1.3466023 -4.7986593 -0.56156355
1.4549959 -5.1849232 -0.56148237
1.5815089 -5.635756 -0.56116772
1.7328563 -6.1750875 -0.56111807
1.9095799 -6.8048477 -0.55919486
2.132798 -7.6002927 -0.55858588
2.4203873 -8.6251249 -0.55912262
2.7888434 -9.9381313 -0.55815941
3.2898676 -11.723546 -0.5569827
4.0080528 -14.282823 -0.55506837
5.1379571 -18.309271 -0.55332339
7.1364369 -25.430918 -0.5488857
11.707307 -41.719353 -0.54021764
0.59174293 -2.013202 -0.56225473
0.61290628 -2.0852029 -0.56304574
0.63529617 -2.161377 -0.56367677
0.65064788 -2.2136056 -0.55696344
0.67985523 -2.3129737 -0.56080317
0.71046013 -2.4170964 -0.56401932
0.73887926 -2.5137827 -0.56375515
0.76814944 -2.6133645 -0.5624429
0.80058056 -2.7237 -0.56163025
0.83858037 -2.8529813 -0.56264806
0.87692696 -2.9834425 -0.56164843
0.91892099 -3.1263127 -0.56062013
0.9710561 -3.3036845 -0.56300259
1.02245 -3.4785342 -0.56190228
1.0802296 -3.6751101 -0.56109625
1.1464581 -3.9004295 -0.56102496
1.2229078 -4.1605229 -0.56174964
1.3086979 -4.452395 -0.56198227
1.4016123 -4.7685041 -0.56000912
1.5169693 -5.1609669 -0.5608657
1.6494088 -5.6115465 -0.56073427
1.801641 -6.1294641 -0.55894315
1.9966002 -6.7927456 -0.56017554
2.2254539 -7.5713415 -0.5584271
2.5238116 -8.586401 -0.55858189
2.9073796 -9.8913593 -0.55749828
3.4330215 -11.679676 -0.55686194
4.1875596 -14.246733 -0.55562496
5.3609657 -18.238842 -0.55314535
7.442914 -25.321957 -0.54846787
12.192964 -41.482365 -0.53904957
0.61344689 -1.9959973 -0.55951416
0.63957524 -2.0810122 -0.56399506
0.65964568 -2.1463161 -0.56182194
0.68395513 -2.2254128 -0.56200784
0.70921701 -2.3076086 -0.56157434
0.73998827 -2.4077301 -0.56391442
0.76198459 -2.4793005 -0.55808115
0.79920131 -2.6003942 -0.56172401
0.84000975 -2.7331743 -0.56567091
0.87044376 -2.8321986 -0.56061786
0.9120512 -2.9675786 -0.56073087
0.96154565 -3.1286206 -0.56311166
1.0078456 -3.2792687 -0.5609113
1.0697694 -3.4807527 -0.5643428
1.1255018 -3.6620913 -0.56117916
1.1953969 -3.8895121 -0.56152642
1.2682798 -4.1266541 -0.55924004
1.3640348 -4.4382157 -0.56226718
1.4588115 -4.7465949 -0.55950052
1.5835454 -5.1524472 -0.56201345
1.7158437 -5.582911 -0.55993885
1.8830789 -6.1270514 -0.56079221
2.0810213 -6.7711043 -0.56045872
2.3208816 -7.5515475 -0.55902982
2.6309102 -8.5602999 -0.55894619
3.0292807 -9.8564949 -0.55759054
3.5751488 -11.632608 -0.5566718
4.3585997 -14.181755 -0.55513912
5.5770354 -18.146231 -0.55237466
7.7441864 -25.197577 -0.547795
12.67656 -41.246246 -0.53796619
0.63977039 -1.9940013 -0.56111747
0.6659779 -2.0756834 -0.56472754
0.68757498 -2.1429961 -0.5631234
0.70860863 -2.2085524 -0.55990803
0.74180031 -2.3120024 -0.56482077
0.76675528 -2.3897808 -0.56187624
0.7986185 -2.4890902 -0.56245267
0.83304906 -2.5964017 -0.56303179
0.86734134 -2.7032819 -0.56164914
0.9073481 -2.8279729 -0.56194746
0.94792742 -2.954448 -0.56040996
1.0004804 -3.1182423 -0.56341535
1.0520382 -3.2789347 -0.56302434
1.1064137 -3.4484093 -0.56126231
1.1733706 -3.6570969 -0.56258231
1.2397798 -3.8640776 -0.56001306
1.32284 -4.1229548 -0.56090075
1.4135425 -4.4056516 -0.56030136
1.5178685 -4.7308092 -0.55979753
1.6435344 -5.1224775 -0.56090647
1.7878309 -5.5722132 -0.56102836
1.9517436 -6.083087 -0.55892271
2.1635556 -6.7432513 -0.56031299
2.411402 -7.5157251 -0.55853081
2.7301831 -8.509285 -0.55776501
3.1501439 -9.8181953 -0.55757308
3.7145617 -11.577342 -0.55617082
4.5233808 -14.098225 -0.55400479
5.797936 -18.070688 -0.5522036
8.0533381 -25.100203 -0.54778951
13.161196 -41.020092 -0.53708667
0.6659286 -1.9910347 -0.56254441
0.68645066 -2.052393 -0.5606451
0.71328115 -2.1326125 -0.56265712
0.73976552 -2.211797 -0.56299412
0.76604259 -2.2903619 -0.56179273
0.79627496 -2.3807523 -0.56201315
0.82810867 -2.4759309 -0.5617376
0.86063188 -2.5731709 -0.56024665
0.90121222 -2.6945004 -0.56208456
0.94263893 -2.8183606 -0.56229818
0.98692834 -2.9507799 -0.56197357
1.040117 -3.1098065 -0.56415939
1.0856292 -3.245882 -0.55959874
1.1477239 -3.4315364 -0.56077069
1.213865 -3.6292894 -0.56055832
1.2908031 -3.8593235 -0.56158191
1.3724759 -4.1035137 -0.56050944
1.4706378 -4.3970046 -0.56145906
1.5772182 -4.7156653 -0.56025809
1.7037796 -5.0940661 -0.56004715
1.8546717 -5.5452132 -0.56056368
2.0279634 -6.0633311 -0.55935639
2.245836 -6.7147398 -0.56019628
2.5050046 -7.4896188 -0.55883753
2.8357944 -8.4786348 -0.55799949
3.2683363 -9.7718754 -0.55718279
3.8559635 -11.528799 -0.55607456
4.6989727 -14.049282 -0.55431014
6.0114856 -17.973515 -0.55145133
8.3459864 -24.95335 -0.54678297
13.645151 -40.797123 -0.53632361
0.69334543 -1.9912729 -0.56497782
0.71128315 -2.0427897 -0.56036866
0.73881245 -2.1218531 -0.56217283
0.76638085 -2.2010291 -0.56260949
0.79386139 -2.2799525 -0.56159139
0.82674628 -2.3743973 -0.5628702
0.86425447 -2.48212 -0.56551021
0.89590967 -2.5730331 -0.56257272
0.93555242 -2.6868861 -0.5628534
0.97759104 -2.80762 -0.56251109
1.0230627 -2.9382138 -0.56193382
1.0720667 -3.0789523 -0.56091118
1.1344949 -3.2582445 -0.56409252
1.1912291 -3.4211838 -0.56143016
1.2622148 -3.6250534 -0.56225884
1.3335251 -3.829855 -0.55963761
1.4266807 -4.0973959 -0.56202757
1.5231168 -4.3743582 -0.56091642
1.6406603 -4.7119408 -0.56216997
1.7722888 -5.0899749 -0.5619508
1.9209021 -5.516789 -0.56003577
2.1027164 -6.0389557 -0.55945075
2.3247614 -6.6766639 -0.55936229
2.597013 -7.4585648 -0.55886096
2.9372094 -8.4356012 -0.55750221
3.3882153 -9.7308807 -0.55717874
3.9925497 -11.466516 -0.55539638
4.8655167 -13.973658 -0.55364507
6.2261491 -17.881365 -0.55093139
8.6455317 -24.829777 -0.54636341
14.118139 -40.546986 -0.53527707
0.71528149 -1.975705 -0.56301373
0.73872823 -2.0404682 -0.56218112
0.76933581 -2.1250105 -0.56547296
0.79463321 -2.1948853 -0.56349409
0.82009107 -2.2652032 -0.56039995
0.85539216 -2.3627098 -0.56255049
0.88399076 -2.4417031 -0.55873615
0.92553037 -2.5564411 -0.56139088
0.96520114 -2.6660171 -0.5609256
1.0049045 -2.7756834 -0.55854601
1.0580957 -2.9226043 -0.56139439
1.1099609 -3.0658634 -0.56097072
1.1654286 -3.2190728 -0.55974954
1.2339145 -3.4082401 -0.56175351
1.3016992 -3.5954707 -0.56011075
1.3872304 -3.8317196 -0.56236023
1.4734384 -4.0698376 -0.56069034
1.5769771 -4.3558259 -0.56098419
1.6914432 -4.6719966 -0.55984348
1.825415 -5.0420451 -0.55909508
1.9893737 -5.4949212 -0.56025678
2.1760311 -6.0104947 -0.55925059
2.4053485 -6.6439009 -0.55905312
2.6871119 -7.4221692 -0.55856746
3.0381191 -8.3916988 -0.55702758
3.5029387 -9.6755943 -0.55643743
4.1293736 -11.405892 -0.55487752
5.0343852 -13.905659 -0.55336177
6.4428053 -17.795908 -0.55069768
8.9375105 -24.686623 -0.54559046
14.588214 -40.294636 -0.53427339
0.74251086 -1.9747157 -0.56529093
0.76607519 -2.0373852 -0.5638845
0.78749627 -2.0943549 -0.55984986
0.81421596 -2.1654162 -0.5584566
0.85187989 -2.2655838 -0.563043
0.88602251 -2.3563864 -0.56359637
0.91712403 -2.4391015 -0.56067902
0.95928037 -2.5512166 -0.56279135
0.99838513 -2.655216 -0.56119365
1.0446755 -2.7783258 -0.56162024
1.0945157 -2.9108763 -0.56168431
1.147069 -3.0506423 -0.56072408
1.2104023 -3.2190778 -0.56229597
1.283582 -3.4137001 -0.56521213
1.3527807 -3.5977349 -0.56301224
1.4300085 -3.8031232 -0.56070161
1.5254434 -4.0569334 -0.56145424
1.6278491 -4.3292823 -0.56010127
1.7485801 -4.6503677 -0.55978584
1.8917536 -5.0311394 -0.56042278
2.0495818 -5.4508848 -0.5582943
2.2482753 -5.9793124 -0.55887932
2.4870706 -6.6143913 -0.5591011
2.7744505 -7.3786812 -0.55781996
3.1446669 -8.3632755 -0.55766547
3.6237535 -9.6374121 -0.55676204
4.2704215 -11.357232 -0.5550229
5.2026854 -13.836597 -0.55311757
6.654233 -17.697004 -0.55012757
9.227375 -24.540304 -0.54482311
15.053337 -40.034512 -0.53323835
0.76232493 -1.9541323 -0.56203955
0.79086542 -2.0272925 -0.56374007
0.81506002 -2.0893126 -0.56113869
0.8439455 -2.1633573 -0.56055963
0.87735873 -2.2490082 -0.56156236
0.91042554 -2.3337712 -0.56082255
0.94652247 -2.4263015 -0.56036979
0.99148667 -2.5415621 -0.56330854
1.0316623 -2.6445479 -0.56157756
1.0753268 -2.7564766 -0.55983412
1.1291262 -2.8943851 -0.56113887
1.1903518 -3.0513299 -0.56349826
1.2456839 -3.1931674 -0.56040329
1.3197038 -3.3829088 -0.56275833
1.3900889 -3.563333 -0.56026125
1.4755175 -3.7823195 -0.56026709
1.5717605 -4.0290275 -0.56022465
1.6813153 -4.3098583 -0.56022066
1.8004278 -4.6151896 -0.55817407
1.9491659 -4.9964628 -0.55918771
2.1146078 -5.4205542 -0.55780882
2.3210826 -5.9498281 -0.5587489
2.5628874 -6.5696673 -0.55794233
2.8677597 -7.351172 -0.55836397
3.2449656 -8.3180962 -0.55727142
3.7358525 -9.5764284 -0.5558508
4.4092617 -11.302635 -0.55496246
5.3719649 -13.770414 -0.55307066
6.8631115 -17.592798 -0.54947007
9.5247593 -24.415625 -0.54461414
15.523816 -39.793518 -0.53253073
0.7867189 -1.9456613 -0.562343
0.81029928 -2.0039787 -0.5599854
0.83576798 -2.0669661 -0.55785495
0.87240553 -2.1575756 -0.56179869
0.90613806 -2.2410007 -0.56230259
0.9446249 -2.336184 -0.56415099
0.97734296 -2.4171 -0.56097782
1.0226034 -2.5290351 -0.56327641
1.0654144 -2.6349127 -0.562271
1.1161234 -2.7603226 -0.56336004
1.1635256 -2.8775547 -0.56060731
1.2236871 -3.0263419 -0.56162
1.291411 -3.1938324 -0.56326431
1.3589475 -3.3608592 -0.5618276
1.4364254 -3.5524726 -0.56128836
1.5224186 -3.7651451 -0.56045371
1.6197608 -4.0058851 -0.55973393
1.7298971 -4.2782674 -0.558837
1.8639442 -4.6097836 -0.56024992
2.0161772 -4.9862761 -0.56077987
2.1803515 -5.3923011 -0.5576182
2.3930376 -5.9183021 -0.55850947
2.647505 -6.5476346 -0.55879372
2.954783 -7.3075738 -0.55777001
3.3489106 -8.2823048 -0.55759019
3.8577845 -9.5408173 -0.55649519
4.5422235 -11.233526 -0.55426973
5.529233 -13.674534 -0.55190879
7.0797563 -17.509186 -0.54953611
9.8073645 -24.254927 -0.54367852
15.979841 -39.520287 -0.53146362
0.81478947 -1.9458883 -0.5652616
0.83608425 -1.9967449 -0.56079447
0.86516291 -2.0661907 -0.56047451
0.90290409 -2.1563246 -0.56432116
0.92866951 -2.2178578 -0.55931866
0.97109848 -2.3191872 -0.56288755
1.0046097 -2.399219 -0.55965257
1.0541136 -2.5174446 -0.56353933
1.0942899 -2.613394 -0.56050813
1.1484969 -2.7428517 -0.56263411
1.2049869 -2.8777618 -0.56349176
1.2566738 -3.0012009 -0.5597797
1.3247515 -3.1637847 -0.56079555
1.398554 -3.3400407 -0.56117982
1.4789935 -3.5321472 -0.56090802
1.5687721 -3.7465572 -0.56051588
1.669386 -3.9868445 -0.55989933
1.7839252 -4.2603879 -0.55932462
1.9206506 -4.5869169 -0.56029874
2.0730116 -4.9507871 -0.55961311
2.2551341 -5.3857341 -0.55976433
2.4653533 -5.8877816 -0.5584479
2.7216206 -6.4998016 -0.55752546
3.0464559 -7.2755761 -0.55814481
3.4452953 -8.2280884 -0.5567503
3.9703023 -9.4819155 -0.55586517
4.6758223 -11.166845 -0.55377465
5.698421 -13.609026 -0.55205119
7.2886662 -17.406866 -0.54909617
10.09727 -24.114403 -0.54327065
16.431976 -39.243011 -0.53041196
0.83099318 -1.9180416 -0.56009841
0.86354786 -1.9931822 -0.56273365
0.88669884 -2.0466177 -0.55808055
0.92107046 -2.1259518 -0.55929428
0.96068919 -2.2173972 -0.56213909
0.996885 -2.3009419 -0.56139195
1.0389018 -2.3979223 -0.56228751
1.0828506 -2.4993618 -0.56242949
1.129131 -2.6061831 -0.56189692
1.1767687 -2.7161369 -0.56008005
1.2261161 -2.8300374 -0.55705696
1.2947526 -2.9884593 -0.56033039
1.3679991 -3.1575222 -0.56262463
1.4364228 -3.3154531 -0.55997407
1.5271406 -3.5248418 -0.5626874
1.6122307 -3.7212405 -0.55965197
1.7203101 -3.9707022 -0.56056076
1.8375498 -4.2413068 -0.5597437
1.9782525 -4.5660672 -0.56068099
2.132633 -4.9223976 -0.55932599
2.3177068 -5.3495727 -0.55892575
2.535583 -5.852459 -0.55801266
2.8025382 -6.468627 -0.55776525
3.1338451 -7.2333269 -0.5578177
3.5471957 -8.1873941 -0.55690604
4.0839272 -9.4262419 -0.55550331
4.8146539 -11.112855 -0.55399126
5.8622894 -13.530935 -0.55176592
7.4955363 -17.300686 -0.54861265
10.381111 -23.96097 -0.54264885
16.883945 -38.970367 -0.52949303
0.84786189 -1.8928291 -0.55573839
0.89216042 -1.9917244 -0.56537658
0.91635954 -2.0457482 -0.56087369
0.9516257 -2.1244791 -0.56194282
0.98879945 -2.2074685 -0.56266189
1.0220644 -2.2817318 -0.55972904
1.0635561 -2.3743606 -0.55978686
1.1121491 -2.4828434 -0.56174731
1.1620928 -2.5943415 -0.56238216
1.215809 -2.7142613 -0.56273353
1.2745018 -2.8452914 -0.56310177
1.3330725 -2.9760489 -0.5610345
1.3997771 -3.1249652 -0.55984813
1.4827262 -3.3101468 -0.56211478
1.5630796 -3.4895337 -0.56007689
1.6594025 -3.704572 -0.56017148
1.7652752 -3.9409299 -0.55937982
1.8932667 -4.2266674 -0.56084168
2.0289619 -4.5296035 -0.55922472
2.192096 -4.893796 -0.55909663
2.3808331 -5.3151469 -0.5583455
2.6132052 -5.8339114 -0.55926573
2.8851175 -6.440948 -0.55839539
3.2187622 -7.185801 -0.55716276
3.6434052 -8.1338053 -0.55626619
4.1933951 -9.3616428 -0.55469322
4.9441833 -11.037758 -0.55323654
6.0275836 -13.456421 -0.55170798
7.6963186 -17.181828 -0.54780322
10.664925 -23.80916 -0.54213977
17.334198 -38.698135 -0.52865028
0.88292557 -1.9078768 -0.56330144
0.91476065 -1.9766679 -0.56425291
0.94310349 -2.0379128 -0.56186247
0.97993886 -2.1175089 -0.56324381
1.0145491 -2.1922967 -0.56193215
1.0577141 -2.2855701 -0.56381851
1.0994537 -2.3757634 -0.5632624
1.1393126 -2.4618928 -0.56013453
1.1915591 -2.57479 -0.56127769
1.2458146 -2.6920285 -0.56125772
1.3048306 -2.8195536 -0.56114101
1.3676322 -2.9552591 -0.56024319
1.4368868 -3.1049085 -0.55937803
1.5284551 -3.3027747 -0.56401181
1.6144943 -3.488693 -0.56308579
1.6988069 -3.6708806 -0.5581935
1.8099824 -3.9111152 -0.55826473
1.9391743 -4.1902804 -0.5591352
2.0848677 -4.5051031 -0.55932271
2.2516813 -4.8655639 -0.55899221
2.451031 -5.29633 -0.55949259
2.6778674 -5.7864914 -0.55783427
2.963959 -6.4046946 -0.55836987
3.3007729 -7.1325021 -0.55613512
3.7444415 -8.0912066 -0.55645972
4.3154206 -9.3250113 -0.5556249
5.0787988 -10.974563 -0.55315745
6.1848011 -13.364477 -0.55101478
7.9057059 -17.083109 -0.54771376
10.948316 -23.657757 -0.54171675
17.778688 -38.417221 -0.52775931
0.9054535 -1.8950689 -0.56276464
0.93549663 -1.9579476 -0.5621503
0.9715724 -2.0334525 -0.5638839
1.0010697 -2.0951889 -0.56053871
1.0426097 -2.1821299 -0.5625698
1.0786996 -2.2576642 -0.56016427
1.1225652 -2.3494725 -0.56025946
1.1747185 -2.458627 -0.56263554
1.2166005 -2.546284 -0.55828255
1.271178 -2.660512 -0.55790359
1.3348328 -2.7937381 -0.55922765
1.4129431 -2.9572191 -0.5638659
1.4848002 -3.1076124 -0.5631119
1.5604762 -3.2659986 -0.56096596
1.6464905 -3.446022 -0.55942404
1.750026 -3.6627169 -0.56018198
1.870082 -3.9139881 -0.56191468
1.9922868 -4.1697564 -0.55962318
2.1331022 -4.4644761 -0.55749315
2.3121846 -4.8392863 -0.55919743
2.5087337 -5.2506542 -0.5578841
2.7520704 -5.7599459 -0.55849534
3.0448966 -6.3728161 -0.55881268
3.3896315 -7.0943289 -0.55636656
3.8434913 -8.0442352 -0.55643761
4.4257212 -9.2628126 -0.55511945
5.2152262 -10.915208 -0.55335623
6.3478203 -13.28567 -0.55094218
8.1088219 -16.971359 -0.54728639
11.227434 -23.498457 -0.54118949
18.223013 -38.139854 -0.52698737
0.92867529 -1.8837709 -0.56275821
0.95864183 -1.9445566 -0.56164753
0.99395561 -2.0161889 -0.56244338
1.0233018 -2.0757163 -0.55865324
1.0710468 -2.1725645 -0.56345654
1.1085383 -2.2486141 -0.56125844
1.1586188 -2.3501997 -0.56378764
1.2044646 -2.4431956 -0.56245095
1.2531711 -2.5419943 -0.56067824
1.3124664 -2.6622717 -0.56161439
1.37385 -2.7867854 -0.56117511
1.4396096 -2.9201756 -0.5601356
1.5199655 -3.0831733 -0.56202769
1.5998657 -3.2452469 -0.56073821
1.6925937 -3.4333408 -0.56070173
1.7934391 -3.6379006 -0.55971706
1.9068907 -3.8680317 -0.55864102
2.0404716 -4.1389933 -0.55881965
2.1943502 -4.451129 -0.55915356
2.3691084 -4.8056173 -0.55863088
2.578845 -5.2310567 -0.55912888
2.8166335 -5.7133985 -0.55729818
3.1162901 -6.3212371 -0.55760777
3.478971 -7.0569172 -0.55674535
3.9384086 -7.988863 -0.55591524
4.5349274 -9.1988707 -0.55458742
5.3486824 -10.849532 -0.55331916
6.5136161 -13.212542 -0.55118936
8.3121748 -16.860828 -0.54697669
11.505522 -23.338371 -0.54071999
18.646292 -37.823059 -0.52573854
0.95148194 -1.871649 -0.56258959
0.98492527 -1.937435 -0.56304616
1.016369 -1.9992875 -0.56117254
1.056434 -2.0780993 -0.56274825
1.087809 -2.1398163 -0.5583902
1.1279972 -2.2188702 -0.55725431
1.181738 -2.3245831 -0.56108588
1.2294638 -2.4184642 -0.56019545
1.2855223 -2.5287361 -0.56119812
1.3479531 -2.6515429 -0.56280512
1.415831 -2.7850647 -0.56429172
1.4829706 -2.9171343 -0.56300753
1.5637059 -3.0759478 -0.56417298
1.6422018 -3.2303562 -0.56161201
1.7334802 -3.4099088 -0.56031376
1.836177 -3.6119225 -0.55915171
1.955694 -3.8470228 -0.55903774
2.0946414 -4.1203446 -0.55973703
2.2458255 -4.4177375 -0.55838579
2.4267879 -4.773706 -0.558348
2.6402011 -5.1935086 -0.55854332
2.8928325 -5.6904573 -0.55848795
3.1956346 -6.2860956 -0.55793202
3.5611634 -7.0051231 -0.55607188
4.0362029 -7.939568 -0.55589664
4.6462522 -9.1395893 -0.55441594
5.4767079 -10.773169 -0.5528174
6.6641436 -13.108959 -0.55024511
8.5100365 -16.739994 -0.5464102
11.7748 -23.162073 -0.53994912
19.082302 -37.536575 -0.52497828
0.97695017 -1.8646321 -0.56404871
1.0068661 -1.9217304 -0.56203771
1.0358503 -1.9770503 -0.55846381
1.0772308 -2.0560303 -0.56031674
1.1145047 -2.1271722 -0.55862463
1.1608335 -2.2155967 -0.55997467
1.21393 -2.3169379 -0.562801
1.2640573 -2.412612 -0.56239778
1.3136892 -2.5073409 -0.55999255
1.3724995 -2.6195877 -0.55956239
1.4390099 -2.7465312 -0.56002718
1.517549 -2.8964329 -0.56257111
1.5903774 -3.035435 -0.56028682
1.6820807 -3.2104623 -0.5617069
1.7773031 -3.3922062 -0.56095362
1.8814116 -3.5909102 -0.55943799
2.0011744 -3.8194931 -0.5585708
2.1421371 -4.0885377 -0.55895215
2.3012054 -4.3921394 -0.55868465
2.4885573 -4.7497244 -0.55907989
2.6957729 -5.1452212 -0.55687314
2.954788 -5.6395841 -0.55701882
3.2685757 -6.2384872 -0.55723161
3.6448696 -6.9566917 -0.5557431
4.1351223 -7.8924007 -0.55611223
4.7572932 -9.0798922 -0.55430132
5.6041684 -10.696259 -0.55236524
6.8130741 -13.003609 -0.54929805
8.7067404 -16.617907 -0.54587847
12.043796 -22.987099 -0.53928179
19.514902 -37.246643 -0.52423978
1.0007758 -1.8542814 -0.56459749
1.0292737 -1.9070837 -0.56141323
1.0634315 -1.9703728 -0.560229
1.103018 -2.0437205 -0.56061596
1.1510593 -2.1327333 -0.56375951
1.1917149 -2.2080619 -0.56173152
1.2356542 -2.2894747 -0.55977845
1.2940443 -2.3976622 -0.56257963
1.3477087 -2.4970942 -0.5613628
1.4135325 -2.6190553 -0.56311888
1.4733417 -2.7298725 -0.56028217
1.5550535 -2.8812716 -0.56329775
1.6244575 -3.0098665 -0.55921215
1.7169791 -3.1812947 -0.56025523
1.8123573 -3.3580155 -0.55894268
1.9267434 -3.5699551 -0.55982208
2.0477662 -3.7941914 -0.55851084
2.2040958 -4.0838461 -0.56197351
2.3583343 -4.369626 -0.55946738
2.5477052 -4.7205005 -0.55928528
2.7648659 -5.1228652 -0.55809098
3.0270824 -5.6087117 -0.5576039
3.3419406 -6.1920948 -0.55671626
3.7345209 -6.9194851 -0.5563972
4.2253342 -7.8288856 -0.55525583
4.861867 -9.0082817 -0.55353743
5.735806 -10.627554 -0.5524177
6.9717746 -12.917611 -0.54924518
8.911685 -16.511963 -0.54595673
12.318789 -22.824795 -0.5389871
19.940611 -36.946846 -0.52343172
1.0197561 -1.8350997 -0.56253248
1.0498223 -1.8892053 -0.55990797
1.0900494 -1.9615959 -0.5615021
1.1334484 -2.0396943 -0.56329215
1.1677687 -2.1014555 -0.55924505
1.213418 -2.1836035 -0.55926287
1.2669822 -2.279995 -0.56122738
1.3128756 -2.3625822 -0.55809426
1.3683325 -2.4623797 -0.55729914
1.4392242 -2.5899527 -0.5606243
1.5069195 -2.7117736 -0.56032825
1.5785725 -2.8407166 -0.55912167
1.6707889 -3.0066643 -0.56239176
1.7518239 -3.1524906 -0.55893391
1.8582004 -3.3439202 -0.56035739
1.9663742 -3.538584 -0.5586521
2.1006112 -3.7801502 -0.56020385
2.2359264 -4.0236564 -0.55743217
2.4066048 -4.3308001 -0.55824304
2.6010709 -4.6807508 -0.55832303
2.8356969 -5.102972 -0.55968016
3.1019042 -5.5820246 -0.5587005
3.4223061 -6.1586032 -0.55744648
3.8166401 -6.8682261 -0.55600721
4.3217454 -7.7771869 -0.55531627
4.973465 -8.9499884 -0.55367148
5.8581796 -10.542073 -0.55167711
7.1370621 -12.843484 -0.54978329
9.1033249 -16.381868 -0.54531521
12.577184 -22.633242 -0.53807509
20.359255 -36.637451 -0.52255571
1.0330822 -1.8064052 -0.5575884
1.0725489 -1.875415 -0.55968732
1.1138971 -1.9477148 -0.56140697
1.1543149 -2.0183876 -0.56128544
1.2045695 -2.1062608 -0.56442297
1.2444595 -2.1760108 -0.56119508
1.2976054 -2.2689395 -0.56239116
1.3528982 -2.3656223 -0.56269962
1.4138328 -2.4721701 -0.56340706
1.4714435 -2.5729058 -0.56080842
1.542138 -2.6965194 -0.56105208
1.6204721 -2.8334911 -0.56157905
1.7012862 -2.9747994 -0.56030208
1.7925665 -3.1344085 -0.55959374
1.8955613 -3.3145008 -0.55929112
2.0184624 -3.5294008 -0.56107831
2.1347251 -3.732693 -0.55701882
2.2978294 -4.0178905 -0.56050545
2.4615788 -4.3042159 -0.55867565
2.6618729 -4.6544418 -0.5590468
2.8885338 -5.0507717 -0.5578084
3.1571946 -5.5205412 -0.55639029
3.4919977 -6.1059642 -0.55652648
3.9026151 -6.8239527 -0.55626589
4.4109211 -7.7127557 -0.55454654
5.0802245 -8.8830719 -0.55335456
5.9894972 -10.472989 -0.55187428
7.2846518 -12.737643 -0.5490455
9.2933578 -16.249985 -0.54468787
12.849195 -22.467575 -0.53785217
20.777826 -36.331253 -0.52179313
1.0620903 -1.8052527 -0.56122142
1.100536 -1.8705995 -0.56224632
1.1323138 -1.9246128 -0.5587191
1.1837806 -2.0120916 -0.56353986
1.2266417 -2.0849433 -0.56270987
1.2759684 -2.1687849 -0.56333536
1.3186623 -2.2413523 -0.55953002
1.380836 -2.3470302 -0.5622735
1.4330853 -2.4358392 -0.55910099
1.5023052 -2.5534933 -0.5605613
1.5703145 -2.6690898 -0.55932033
1.6558748 -2.8145182 -0.56181175
1.7361581 -2.9509771 -0.55979389
1.829354 -3.1093838 -0.55909973
1.9423752 -3.3014877 -0.56108308
2.0516546 -3.4872317 -0.55834293
2.1955297 -3.7317786 -0.56086868
2.3389125 -3.9754887 -0.55856019
2.5171225 -4.2783952 -0.55929941
2.7175696 -4.6190987 -0.5587731
2.9613798 -5.0335069 -0.55988091
3.2177722 -5.4693017 -0.55517191
3.563273 -6.0565543 -0.55597454
3.9868519 -6.7765188 -0.55635345
4.5058823 -7.6587238 -0.55460346
5.1857953 -8.8143826 -0.55300611
6.113338 -10.390943 -0.5514704
7.4347372 -12.636947 -0.54860425
9.4910784 -16.132145 -0.54460871
13.105217 -22.275156 -0.53706294
21.184 -36.006798 -0.52083504
1.083099 -1.7902266 -0.56064814
1.1153599 -1.8435497 -0.55819613
1.1646765 -1.9250641 -0.5629651
1.2039766 -1.9900221 -0.5614627
1.2480021 -2.0627906 -0.56083035
1.3001406 -2.1489692 -0.56229836
1.3545833 -2.238956 -0.56304735
1.4019183 -2.3171947 -0.55921346
1.4646782 -2.420929 -0.55977035
1.5322757 -2.5326591 -0.56008154
1.6018821 -2.6477098 -0.55892551
1.6844364 -2.7841618 -0.55984443
1.7737298 -2.9317524 -0.56024212
1.8686898 -3.0887094 -0.55947173
1.9741422 -3.2630091 -0.55862695
2.1004779 -3.4718261 -0.55996943
2.2395854 -3.7017531 -0.56045264
2.3925366 -3.9545622 -0.55971122
2.5665433 -4.2421737 -0.55864769
2.7726653 -4.5828671 -0.55847234
3.0094924 -4.9743128 -0.55737078
3.2985241 -5.4520459 -0.55749536
3.6377912 -6.0128117 -0.55602336
4.0667548 -6.7218347 -0.5559274
4.5979333 -7.5998063 -0.55438924
5.2962475 -8.7540312 -0.55326378
6.231091 -10.299211 -0.55062675
7.583487 -12.534551 -0.54816574
9.6833 -16.005278 -0.54430437
13.358052 -22.079182 -0.53625768
21.591396 -35.687866 -0.52002275
1.1103312 -1.7852994 -0.56333828
1.1523952 -1.8529342 -0.56528538
1.1964898 -1.9238336 -0.56686491
1.2330899 -1.9826829 -0.56362742
1.2900077 -2.0742009 -0.56820238
1.3257884 -2.1317325 -0.56201148
1.3725902 -2.2069852 -0.55920964
1.4274356 -2.295171 -0.55809218
1.4927207 -2.4001427 -0.55916595
1.5639887 -2.5147345 -0.56032819
1.6365246 -2.6313648 -0.55968076
1.7254368 -2.7743266 -0.56209052
1.7988012 -2.8922892 -0.55688554
1.9132351 -3.076287 -0.56144053
2.0187683 -3.2459736 -0.55991799
2.1314564 -3.4271648 -0.55695122
2.2796855 -3.6655018 -0.55916595
2.4419041 -3.9263332 -0.55992329
2.6172528 -4.2082758 -0.55837971
2.8257468 -4.5435128 -0.55786872
3.0690649 -4.9347434 -0.5571236
3.3662858 -5.4126449 -0.55765688
3.7104673 -5.9660535 -0.55587655
4.1493173 -6.671679 -0.55595702
4.6871009 -7.5363803 -0.55392492
5.4000702 -8.6827621 -0.55291438
6.3635569 -10.231952 -0.55117261
7.7325678 -12.433181 -0.54784942
9.8639784 -15.860272 -0.54345685
13.623196 -21.904711 -0.53604823
21.987766 -35.354088 -0.5190596
1.1275183 -1.7641895 -0.56100965
1.1662221 -1.824748 -0.56101894
1.211627 -1.8957914 -0.5629496
1.2419491 -1.9432354 -0.55671269
1.3021277 -2.0373948 -0.5624634
1.3485439 -2.1100206 -0.56061667
1.402429 -2.1943328 -0.56033093
1.4650881 -2.2923734 -0.56175005
1.521899 -2.3812635 -0.55908513
1.5969619 -2.4987116 -0.56109107
1.6735169 -2.6184947 -0.56127787
1.7637541 -2.759686 -0.56347579
1.8397357 -2.8785717 -0.55855793
1.9435555 -3.0410149 -0.5593226
2.0546196 -3.2147932 -0.5588553
2.175395 -3.4037664 -0.55745369
2.3316061 -3.6481845 -0.56085545
2.4850917 -3.8883383 -0.55882049
2.6686866 -4.1756029 -0.55835634
2.8820271 -4.5094099 -0.55799049
3.1293299 -4.8963561 -0.55709189
3.4272304 -5.3624701 -0.55678731
3.770761 -5.899981 -0.55399871
4.2189798 -6.601294 -0.55437297
4.7883081 -7.4921021 -0.55495614
5.5050712 -8.6135969 -0.55277884
6.4828286 -10.143461 -0.55065835
7.8852849 -12.337836 -0.54787922
10.049299 -15.723796 -0.54297358
13.88129 -21.719582 -0.53565443
22.390341 -35.033401 -0.51835442
1.156734 -1.7617819 -0.56472445
1.1920602 -1.8155863 -0.5626663
1.2305374 -1.8741894 -0.56098574
1.2777865 -1.9461529 -0.56200743
1.3231966 -2.0153155 -0.56081742
1.3725126 -2.0904272 -0.5598526
1.4262626 -2.1722918 -0.55913877
1.495247 -2.2773597 -0.56253397
1.5519234 -2.3636816 -0.55939531
1.6267421 -2.4776354 -0.5608077
1.6951371 -2.5818055 -0.55783927
1.7909828 -2.7277846 -0.56141633
1.8793049 -2.8623052 -0.55984324
1.9796131 -3.0150812 -0.55898756
2.0930228 -3.1878116 -0.55859667
2.2271056 -3.3920283 -0.55997401
2.371655 -3.6121864 -0.55976236
2.5290105 -3.8518498 -0.5580036
2.716485 -4.1373854 -0.55767041
2.9364028 -4.4723349 -0.55782861
3.192342 -4.8621469 -0.5576238
3.4866388 -5.3103805 -0.5557884
3.853164 -5.8686223 -0.55546111
4.2995815 -6.5485458 -0.55434126
4.8720965 -7.4205236 -0.55404997
5.6118279 -8.547183 -0.55290341
6.6075382 -10.063715 -0.55069834
8.0283823 -12.227755 -0.5473333
10.243001 -15.600765 -0.54303342
14.131368 -21.523003 -0.53505135
22.788326 -34.708122 -0.51764852
1.1794963 -1.7491875 -0.56529373
1.221535 -1.8115307 -0.56602162
1.2560115 -1.8626591 -0.56211483
1.3023152 -1.9313273 -0.56230807
1.3462447 -1.9964746 -0.56013876
1.4079765 -2.0880227 -0.56380284
1.458413 -2.1628196 -0.56127423
1.5216236 -2.2565608 -0.56197566
1.5785764 -2.3410215 -0.55858415
1.6595151 -2.4610531 -0.56163079
1.7361625 -2.5747209 -0.56087887
1.8202258 -2.6993866 -0.56013584
1.9054899 -2.8258326 -0.55725026
2.0194027 -2.9947648 -0.55978239
2.1379881 -3.1706266 -0.56014973
2.2686918 -3.3644593 -0.55998582
2.4097986 -3.57372 -0.5583511
2.5764408 -3.8208497 -0.55806005
2.7684546 -4.1056051 -0.55793315
2.9929299 -4.4385009 -0.55815673
3.2535944 -4.8250651 -0.55791718
3.5490284 -5.2631927 -0.5553751
3.9268818 -5.8235474 -0.55572307
4.3836117 -6.5008755 -0.55482692
4.9560847 -7.3498507 -0.55328155
5.7165828 -8.4776649 -0.55291176
6.7278533 -9.977375 -0.55045909
8.1723509 -12.119557 -0.54694706
10.427189 -15.463471 -0.54267651
14.381966 -21.328388 -0.53456926
23.179861 -34.375626 -0.51690149
1.1926466 -1.7226112 -0.56140196
1.2363527 -1.7857385 -0.56267041
1.2756602 -1.8425126 -0.5607264
1.3179731 -1.9036279 -0.55891961
1.3774214 -1.9894924 -0.56288928
1.4219747 -2.0538435 -0.55925286
1.4765656 -2.1326923 -0.5581255
1.5471112 -2.2345858 -0.56119829
1.6092981 -2.3244059 -0.55929899
1.6883566 -2.4385948 -0.56120104
1.7710866 -2.5580869 -0.56195694
1.8562777 -2.6811333 -0.56104225
1.9518875 -2.8192284 -0.56063855
2.061506 -2.9775572 -0.56126177
2.1678925 -3.1312172 -0.55785471
2.3052039 -3.3295445 -0.55885023
2.4554749 -3.5465896 -0.55878747
2.6205564 -3.785027 -0.55749226
2.8267365 -4.0828252 -0.55951875
3.0356498 -4.3845711 -0.55602694
3.3088241 -4.7791333 -0.55726856
3.6317835 -5.2456031 -0.55818921
3.9968798 -5.7729335 -0.55554116
4.4646955 -6.4486279 -0.55501133
5.0472107 -7.2899895 -0.55340546
5.8114157 -8.3937769 -0.55205941
6.8362417 -9.8739948 -0.54935175
8.3211575 -12.018747 -0.54697382
10.604307 -15.316438 -0.54205161
14.631838 -21.133642 -0.53415728
23.556549 -34.024139 -0.51593286
1.2115101 -1.7046834 -0.56037194
1.252687 -1.7626224 -0.56019789
1.2912349 -1.816862 -0.55771005
1.340377 -1.8860085 -0.55854338
1.3979418 -1.9670064 -0.56134832
1.4593297 -2.0533838 -0.56397134
1.4977179 -2.1073985 -0.55628371
1.5782865 -2.2207649 -0.56255877
1.6459409 -2.3159592 -0.56209403
1.7082894 -2.4036882 -0.55795979
1.7894753 -2.5179229 -0.55792546
1.8693887 -2.6303668 -0.55518723
1.9828284 -2.7899847 -0.55962938
2.0924199 -2.9441879 -0.55977935
2.2137814 -3.1149523 -0.55976444
2.342818 -3.2965167 -0.55809981
2.503195 -3.5221786 -0.55974871
2.6713057 -3.7587228 -0.5584138
2.8730342 -4.0425696 -0.55880123
3.0897322 -4.3474793 -0.55609912
3.3588843 -4.7261963 -0.55586988
3.688184 -5.1895447 -0.55700779
4.0659986 -5.7211576 -0.55532801
4.5394335 -6.3873153 -0.55449659
5.1374822 -7.2288136 -0.5535152
5.9138093 -8.3211632 -0.5520246
6.962286 -9.7964458 -0.54975879
8.4646444 -11.910375 -0.54673737
10.784841 -15.175061 -0.5417006
14.870656 -20.924103 -0.53344256
23.937328 -33.681576 -0.51516277
1.2410393 -1.7015328 -0.56431007
1.2842475 -1.7607737 -0.56458658
1.3193367 -1.8088827 -0.56019831
1.3721721 -1.881323 -0.56211025
1.4259514 -1.9550574 -0.56289965
1.4670568 -2.011415 -0.55735695
1.5428693 -2.1153584 -0.56335014
1.5986373 -2.1918194 -0.56016362
1.6735438 -2.2945201 -0.56184274
1.7466646 -2.3947728 -0.56083351
1.8301257 -2.5092025 -0.56093729
1.9222379 -2.6354933 -0.56121582
2.0147243 -2.7622972 -0.5590027
2.1226592 -2.9102819 -0.55825323
2.2500291 -3.0849133 -0.55929595
2.3894408 -3.2760539 -0.55956751
2.5448451 -3.4891219 -0.55942607
2.7098639 -3.7153716 -0.55688167
2.9205077 -4.0041761 -0.55841595
3.1539199 -4.3241968 -0.55803955
3.4214668 -4.6910181 -0.55663866
3.7390449 -5.1264353 -0.55512697
4.1288385 -5.6608634 -0.55436164
4.6151991 -6.3276906 -0.55420518
5.2223454 -7.160121 -0.55313069
6.0120902 -8.2429047 -0.55169564
7.0823488 -9.710288 -0.5497694
8.6067228 -11.800288 -0.5465008
10.971984 -15.04319 -0.54176837
15.113394 -20.721291 -0.53296959
24.310738 -33.331352 -0.51433945
1.249248 -1.6692835 -0.55866694
1.2934861 -1.7283957 -0.55926239
1.3415395 -1.7926061 -0.56022394
1.3965416 -1.8661016 -0.56265062
1.4483981 -1.9353938 -0.56232357
1.4921099 -1.9938028 -0.5575186
1.5546724 -2.0774007 -0.55829042
1.6270126 -2.1740639 -0.56069654
1.6940708 -2.2636693 -0.55934697
1.7799517 -2.3784258 -0.56208843
1.8572038 -2.4816525 -0.55984139
1.9505062 -2.6063259 -0.56006974
2.0504704 -2.7399011 -0.55953062
2.1603501 -2.8867257 -0.55878812
2.2828717 -3.0504429 -0.55809361
2.4325023 -3.2503839 -0.56024951
2.5842631 -3.4531713 -0.55871469
2.760983 -3.6893096 -0.55802184
2.9719088 -3.9711554 -0.55886507
3.1993876 -4.2751193 -0.556741
3.4799232 -4.6499796 -0.55680448
3.8069303 -5.0869365 -0.55587685
4.2068844 -5.6213675 -0.55551767
4.6882992 -6.2646489 -0.55369103
5.3174119 -7.105288 -0.553904
6.1029077 -8.154892 -0.55078596
7.1936731 -9.6124058 -0.54919428
8.736865 -11.674467 -0.54560792
11.148142 -14.896487 -0.541381
15.359789 -20.52422 -0.53271842
24.680929 -32.979412 -0.51355296
1.2680166 -1.6516325 -0.55793577
1.3239988 -1.7245512 -0.56324381
1.3574818 -1.7681639 -0.55775976
1.4153308 -1.8435141 -0.56104523
1.4707357 -1.9156806 -0.56180799
1.5232489 -1.9840808 -0.55999529
1.5942223 -2.0765259 -0.56328106
1.6523194 -2.1521995 -0.56025529
1.7184417 -2.2383258 -0.55826384
1.8026842 -2.3480544 -0.56010705
1.8848511 -2.4550796 -0.55903298
1.9803898 -2.5795217 -0.55950046
2.0813346 -2.7110054 -0.55881393
2.2025867 -2.8689401 -0.56054562
2.3275177 -3.0316668 -0.55985236
2.4712722 -3.2189119 -0.56002039
2.6254127 -3.4196849 -0.55847782
2.8081665 -3.6577275 -0.55842561
3.0172968 -3.9301264 -0.55827028
3.2577503 -4.2433248 -0.55777502
3.5322416 -4.6008587 -0.55608147
3.873209 -5.0449796 -0.55645436
4.2742343 -5.567328 -0.55532932
4.7686214 -6.2112837 -0.55411512
5.3908787 -7.0217934 -0.55252093
6.2112045 -8.0902939 -0.55153978
7.3036246 -9.5132065 -0.54861629
8.8751564 -11.560177 -0.5453257
11.318673 -14.742936 -0.5408178
15.590118 -20.306633 -0.53200638
25.064091 -32.64679 -0.51313382
1.2922927 -1.6410779 -0.55969602
1.3375 -1.6984864 -0.56006008
1.3919501 -1.7676326 -0.56294876
1.4394212 -1.8279158 -0.56164235
1.500811 -1.9058745 -0.56430167
1.5525433 -1.9715692 -0.56180978
1.6253344 -2.0640063 -0.56526363
1.6800723 -2.1335177 -0.56072766
1.7539307 -2.2273102 -0.56085312
1.8282251 -2.3216565 -0.55913037
1.9202738 -2.438549 -0.56060326
2.0152552 -2.5591652 -0.56041771
2.1183226 -2.6900504 -0.55982137
2.2326713 -2.8352613 -0.55928713
2.3672209 -3.0061255 -0.56046867
2.5140073 -3.1925292 -0.56076622
2.671277 -3.3922451 -0.55931866
2.8550441 -3.6256104 -0.5588398
3.0587175 -3.8842545 -0.55705476
3.3058345 -4.1980677 -0.55712736
3.5949945 -4.5652709 -0.55708098
3.9288151 -4.9891882 -0.55558723
4.3396521 -5.5109086 -0.55498248
4.8440051 -6.1513848 -0.55404335
5.4716635 -6.9484458 -0.55200189
6.3065681 -8.008688 -0.55122155
7.4251652 -9.4291906 -0.54899502
9.0209599 -11.455685 -0.54558796
11.494295 -14.596564 -0.54059231
15.827847 -20.099726 -0.53164446
25.416735 -32.276623 -0.51218927
1.3061399 -1.6173463 -0.55703777
1.3526994 -1.6749992 -0.55775797
1.4086499 -1.7442808 -0.56098586
1.4670973 -1.8166541 -0.56368244
1.520241 -1.88246 -0.56286132
1.5719033 -1.9464316 -0.56011218
1.6399806 -2.0307293 -0.56163049
1.7050602 -2.111315 -0.56036025
