# .PCD v0.7 - Point Cloud Data file format
VERSION 0.7
FIELDS x y z
SIZE 4 4 4
TYPE F F F
COUNT 1 1 1
WIDTH 1465
HEIGHT 1
VIEWPOINT 0 0 0 1 0 0 0
POINTS 1465
DATA ascii
-1.1035864 2.2737248 -0.56582123
-1.150259 2.3698847 -0.56680191
-1.1941748 2.4603646 -0.56470186
-1.2522659 2.58005 -0.56736249
-1.3065637 2.69192 -0.56616282
-1.3726161 2.8280079 -0.5677653
-1.4395835 2.9659812 -0.56721276
-1.5129672 3.1171741 -0.5665186
-1.5966587 3.2896042 -0.56669503
-1.6924858 3.4870372 -0.56776017
-1.7926292 3.6933632 -0.56654322
-1.9160545 3.9476569 -0.5684281
-2.0444551 4.2122011 -0.5669952
-2.1983097 4.5291891 -0.56725025
-2.3871698 4.9182987 -0.57001197
-2.595335 5.3471823 -0.5698241
-2.8395905 5.8504229 -0.56894946
-3.1482704 6.4863977 -0.57045799
-3.5170419 7.2461796 -0.56995952
-4.0104651 8.2627821 -0.57324898
-4.6293573 9.5378895 -0.57329893
-5.493567 11.318424 -0.57549822
-6.740941 13.888395 -0.57764345
-8.7313051 17.989153 -0.58182716
-12.38115 25.508947 -0.58923393
-21.28404 43.85162 -0.60770404
-0.94154364 1.8806443 -0.56354207
-0.97321564 1.9439062 -0.56317645
-1.0143746 2.0261173 -0.56694138
-1.0423553 2.0820062 -0.56205952
-1.0867895 2.1707592 -0.56470984
-1.1350925 2.2672398 -0.56763792
-1.1722555 2.3414695 -0.56341082
-1.2275501 2.4519155 -0.56618428
-1.2900318 2.5767164 -0.57007462
-1.342945 2.6824057 -0.56759197
-1.4022212 2.8008041 -0.56572258
-1.4731611 2.9425001 -0.56614363
-1.553111 3.1021924 -0.56722379
-1.6349838 3.2657254 -0.56600207
-1.7321548 3.4598155 -0.56675303
-1.8440934 3.6834023 -0.56845063
-1.968255 3.9314034 -0.56952965
-2.097821 4.1901994 -0.56746298
-2.2578557 4.5098534 -0.56826288
-2.4417326 4.87713 -0.56867748
-2.6520166 5.2971525 -0.56792486
-2.9146678 5.8217735 -0.56960571
-3.223228 6.4380932 -0.56965238
-3.6147478 7.2201171 -0.57136256
-4.1073065 8.2039557 -0.57262838
-4.7460957 9.4798775 -0.57327652
-5.6293745 11.244143 -0.57519752
-6.9170194 13.816092 -0.57813013
-8.957181 17.891123 -0.58217484
-12.710534 25.38809 -0.5900079
-21.866167 43.675598 -0.60894483
-0.97013855 1.8796642 -0.56678015
-0.99702024 1.9317482 -0.5631634
-1.0416832 2.0182834 -0.56829047
-1.0807811 2.0940366 -0.56885195
-1.1165289 2.1632986 -0.56629771
-1.1569657 2.2416461 -0.56474924
-1.209836 2.3440833 -0.56757647
-1.2635013 2.4480608 -0.56883883
-1.3145416 2.5469525 -0.56702292
-1.3738306 2.6618261 -0.56676912
-1.4380511 2.7862546 -0.56631273
-1.5134606 2.9323623 -0.56773084
-1.5898077 3.0802867 -0.56675005
-1.6759788 3.2472448 -0.56632811
-1.7775614 3.4440632 -0.56771022
-1.8857588 3.653698 -0.56740218
-2.0176296 3.9092004 -0.56986421
-2.1501012 4.1658673 -0.56770533
-2.3133228 4.4821124 -0.56830871
-2.5054348 4.8543339 -0.56956857
-2.7242868 5.2783642 -0.56945902
-2.982868 5.7793708 -0.56900263
-3.3001628 6.394136 -0.56931061
-3.7057946 7.1800566 -0.57175517
-4.201508 8.1405115 -0.57176286
-4.8615351 9.4193277 -0.57318664
-5.7738695 11.186996 -0.57586253
-7.0933795 13.743575 -0.57870173
-9.1862993 17.798651 -0.58279753
-13.035124 25.255831 -0.59061462
-22.434143 43.466633 -0.60983139
-0.99319774 1.8676333 -0.56679219
-1.0246768 1.9268273 -0.56535935
-1.0580016 1.9894923 -0.56380427
-1.1115307 2.0901494 -0.57146573
-1.1480588 2.1588378 -0.56878257
-1.1865009 2.2311254 -0.56573159
-1.2349235 2.3221803 -0.56590718
-1.2936689 2.4326465 -0.56891048
-1.342077 2.5236745 -0.56547183
-1.4050388 2.6420693 -0.56619835
-1.4676682 2.7598393 -0.56456912
-1.544816 2.9049098 -0.56605077
-1.625222 3.0561073 -0.56593537
-1.7194728 3.2333386 -0.56754738
-1.8177289 3.4181018 -0.56707233
-1.9287051 3.6267843 -0.56686276
-2.0613117 3.8761408 -0.56869686
-2.2051105 4.146544 -0.56872422
-2.3712876 4.4590273 -0.56903577
-2.5688891 4.8306022 -0.57044727
-2.7876151 5.2418995 -0.56918007
-3.0600829 5.7542548 -0.57019138
-3.3904104 6.3754106 -0.57131207
-3.7985563 7.1428986 -0.57247245
-4.3085046 8.1018181 -0.57272297
-4.9834614 9.3710222 -0.57393271
-5.9052916 11.104454 -0.57530802
-7.2575855 13.647342 -0.57836366
-9.4047785 17.684975 -0.58281791
-13.362222 25.12665 -0.59139132
-23.011009 43.270466 -0.6110028
-1.0123621 1.8484805 -0.56471479
-1.0464686 1.9107558 -0.56437665
-1.085982 1.9829034 -0.5656786
-1.1321826 2.0672617 -0.56897134
-1.1756254 2.146584 -0.56931973
-1.2182993 2.2245026 -0.56780797
-1.270101 2.3190877 -0.5689165
-1.31528 2.4015806 -0.56538486
-1.3657846 2.4937975 -0.56249791
-1.4398659 2.6290631 -0.56716245
-1.5008658 2.7404435 -0.56433409
-1.5810462 2.8868454 -0.56627625
-1.6562024 3.0240736 -0.56373203
-1.7597656 3.2131705 -0.56776261
-1.8647783 3.4049141 -0.56864566
-1.9761664 3.6082985 -0.56772858
-2.1091723 3.8511553 -0.56879324
-2.2521658 4.1122479 -0.56777573
-2.4294686 4.435987 -0.56986475
-2.618258 4.7806993 -0.56831324
-2.8536556 5.2105136 -0.56953919
-3.1311193 5.7171364 -0.57028538
-3.4656773 6.3280091 -0.57084006
-3.8784091 7.0816193 -0.5713402
-4.4121823 8.0562401 -0.57329297
-5.1016669 9.315176 -0.57431102
-6.0491405 11.045176 -0.576047
-7.4271584 13.56131 -0.57854438
-9.6414623 17.604425 -0.58402628
-13.687428 24.991989 -0.59213853
-23.594912 43.082142 -0.61239415
-1.0294591 1.8260406 -0.56168419
-1.0737659 1.9046311 -0.56642473
-1.1108773 1.9704589 -0.56598252
-1.151822 2.0430861 -0.5661729
-1.1952488 2.120116 -0.56615508
-1.2409503 2.2011809 -0.56570727
-1.2920415 2.2918055 -0.56607836
-1.346102 2.3876972 -0.56597042
-1.4065596 2.4949362 -0.56661314
-1.4692965 2.6062179 -0.56608891
-1.55064 2.750504 -0.57028925
-1.6260812 2.8843207 -0.56966013
-1.703989 3.0225124 -0.56730407
-1.79528 3.184443 -0.56654441
-1.911415 3.3904417 -0.57011086
-2.0220413 3.5866694 -0.56819457
-2.1544502 3.8215344 -0.56828821
-2.2955022 4.0717306 -0.56603593
-2.4806435 4.4001312 -0.56913412
-2.6789548 4.7518935 -0.56876194
-2.9150233 5.1706285 -0.56905448
-3.198709 5.6738262 -0.56984556
-3.5361562 6.2723856 -0.56970173
-3.9764683 7.0534048 -0.5729655
-4.5110078 8.001564 -0.57330608
-5.2176237 9.2549496 -0.57450998
-6.1881022 10.976372 -0.57638347
-7.6043553 13.488503 -0.57938361
-9.8618336 17.492785 -0.58430141
-14.005139 24.842125 -0.59262323
-24.159866 42.854439 -0.61333394
-1.0587095 1.8250983 -0.56535602
-1.1000293 1.896329 -0.56793553
-1.141748 1.9682473 -0.56933689
-1.1771692 2.0293097 -0.5663237
-1.2200786 2.1032808 -0.56562299
-1.268077 2.1860247 -0.56577671
-1.3191681 2.2741001 -0.565669
-1.3803228 2.3795242 -0.56801337
-1.4336442 2.4714444 -0.56523883
-1.5032889 2.5915041 -0.56686515
-1.5738593 2.7131596 -0.5665161
-1.6621356 2.8653383 -0.56990463
-1.7417456 3.0025771 -0.56753933
-1.8383868 3.1691759 -0.56780708
-1.9496751 3.3610244 -0.56915253
-2.0604534 3.5519941 -0.56667227
-2.205406 3.8018763 -0.56935459
-2.3519044 4.0544233 -0.5676074
-2.5360799 4.3719215 -0.56947589
-2.7389567 4.7216587 -0.5691312
-2.9821386 5.1408777 -0.5697729
-3.2667058 5.6314402 -0.56957978
-3.6192124 6.2391224 -0.57067955
-4.0506902 6.9829421 -0.5712446
-4.6146312 7.9551148 -0.5740003
-5.3360734 9.198802 -0.57505423
-6.3255196 10.904497 -0.57665008
-7.7807951 13.413232 -0.58021629
-10.084522 17.384602 -0.5847857
-14.324148 24.693249 -0.5932287
-24.737173 42.644157 -0.61463135
-1.0795206 1.809346 -0.56454569
-1.1141024 1.8673073 -0.56330401
-1.1537862 1.9338198 -0.56343967
-1.2002244 2.0116532 -0.56547219
-1.2491192 2.0936038 -0.56710833
-1.2952129 2.1708601 -0.56593114
-1.3444771 2.2534301 -0.56459707
-1.4065162 2.3574116 -0.56682056
-1.4808919 2.4820702 -0.57179058
-1.5351293 2.5729754 -0.56689847
-1.6118116 2.7014999 -0.56817693
-1.6865252 2.8267248 -0.56630647
-1.7789885 2.9816992 -0.56768495
-1.8735849 3.1402488 -0.56670922
-1.9840686 3.3254266 -0.56721294
-2.1082768 3.5336077 -0.56783193
-2.2447045 3.7622693 -0.56751382
-2.4062152 4.0329714 -0.56870341
-2.5874317 4.3367019 -0.56898952
-2.800221 4.6933503 -0.5698263
-3.0465035 5.1061358 -0.57003123
-3.3376682 5.5941463 -0.56991577
-3.693603 6.1907163 -0.5703631
-4.1437206 6.9451423 -0.57227731
-4.709466 7.8933678 -0.57368004
-5.4463115 9.1283684 -0.57479423
-6.4705935 10.845131 -0.57767457
-7.9424458 13.31205 -0.58002025
-10.299834 17.263184 -0.58491755
-14.639729 24.537127 -0.59375787
-25.308363 42.418446 -0.61581695
-1.103552 1.798978 -0.56550199
-1.1450336 1.8666 -0.56729525
-1.1787218 1.9215176 -0.56403565
-1.2254053 1.9976197 -0.56572026
-1.2705939 2.0712848 -0.56525201
-1.3211079 2.153631 -0.56563187
-1.3763586 2.2436993 -0.5663566
-1.4370846 2.3426929 -0.56748754
-1.4981709 2.4422741 -0.56682384
-1.5608767 2.5444953 -0.56480956
-1.6412138 2.6754584 -0.5669015
-1.7282021 2.8172641 -0.56862551
-1.8061178 2.9442799 -0.56474632
-1.911894 3.116713 -0.56666166
-2.0286191 3.3069949 -0.56828094
-2.1540926 3.511538 -0.56849891
-2.2907982 3.7343919 -0.5675149
-2.4594669 4.0093508 -0.56959414
-2.6417675 4.3065319 -0.56925011
-2.8593407 4.6612129 -0.5701502
-3.1126394 5.0741329 -0.57068819
-3.4059043 5.5522051 -0.56986654
-3.7799542 6.1619701 -0.57195371
-4.2300348 6.8956785 -0.5724442
-4.8123946 7.8450236 -0.57442385
-5.5665121 9.0743647 -0.57566029
-6.6023369 10.762935 -0.57757711
-8.1038809 13.210709 -0.57990271
-10.52185 17.152411 -0.5855037
-14.959601 24.386702 -0.59452415
-25.877403 42.184582 -0.61699474
-1.1250837 1.7844733 -0.56524861
-1.1697841 1.8553717 -0.56821138
-1.212224 1.9226849 -0.5687108
-1.256918 1.9935731 -0.56890827
-1.2989117 2.0601788 -0.56653708
-1.3504789 2.1419683 -0.56688726
-1.4037392 2.2264433 -0.56631505
-1.4676367 2.32779 -0.56820619
-1.5264328 2.4210453 -0.56621033
-1.5950533 2.5298831 -0.56587696
-1.6728294 2.6532421 -0.56650984
-1.7554301 2.7842536 -0.56627673
-1.8577164 2.9464879 -0.56950843
-1.9589957 3.107125 -0.56925505
-2.0733368 3.2884793 -0.56943715
-2.1937211 3.4794185 -0.56762314
-2.3425925 3.7155402 -0.56898457
-2.5001721 3.9654746 -0.56768554
-2.6944783 4.2736597 -0.56924152
-2.9186552 4.6292219 -0.57058388
-3.1644087 5.0190072 -0.56882155
-3.4701705 5.5039701 -0.56925237
-3.8582537 6.1195011 -0.57237214
-4.3130307 6.8408141 -0.57224911
-4.9085836 7.7854095 -0.57443488
-5.6817613 9.0117311 -0.57607555
-6.7351942 10.682561 -0.57766467
-8.2798824 13.132561 -0.58089757
-10.742414 17.038332 -0.58607441
-15.277602 24.231508 -0.59527558
-26.437471 41.931957 -0.61800784
-1.1420283 1.7629232 -0.56282812
-1.1824589 1.8253351 -0.56342298
-1.2279944 1.8956273 -0.56513107
-1.2731798 1.965379 -0.56528741
-1.3282809 2.0504372 -0.5683068
-1.3756977 2.1236336 -0.56646907
-1.4356785 2.2162244 -0.56816322
-1.4981372 2.3126407 -0.56896192
-1.560552 2.408989 -0.56783557
-1.6306542 2.517204 -0.56748307
-1.7054083 2.6326003 -0.5665372
-1.7912351 2.7650893 -0.56681591
-1.8820351 2.9052551 -0.56596905
-1.991616 3.0744126 -0.56770569
-2.1027439 3.2459583 -0.56650865
-2.2376044 3.4541392 -0.56794488
-2.3869929 3.6847472 -0.56872088
-2.5623896 3.955503 -0.5707255
-2.7514207 4.2473059 -0.5701946
-2.9709997 4.5862651 -0.569749
-3.2338409 4.9920073 -0.57022512
-3.5497141 5.4796133 -0.57120454
-3.9276993 6.0631008 -0.57157099
-4.3935876 6.7822819 -0.5718289
-5.0070024 7.7291965 -0.57478654
-5.7917714 8.9406271 -0.57603931
-6.8654761 10.598081 -0.57761782
-8.4492178 13.042867 -0.58148181
-10.956154 16.912767 -0.58634502
-15.590458 24.066639 -0.59588981
-27.012222 41.698158 -0.61941063
-1.1711679 1.7600944 -0.56647986
-1.2165477 1.8282937 -0.5689106
-1.2599337 1.8934966 -0.56907165
-1.3022447 1.9570838 -0.56746435
-1.3457983 2.0225384 -0.56511819
-1.3994139 2.1031151 -0.56554323
-1.4553518 2.1871815 -0.56526273
-1.5220371 2.2873998 -0.56731367
-1.5859646 2.3834734 -0.5663752
-1.6604677 2.4954407 -0.56713688
-1.7339306 2.6058447 -0.56532496
-1.8308692 2.7515292 -0.56860822
-1.9281653 2.8977511 -0.56908303
-2.0335536 3.0561342 -0.56890488
-2.1539338 3.2370484 -0.56953311
-2.2904432 3.4422021 -0.57056987
-2.4224753 3.6406269 -0.56646591
-2.5962493 3.9017839 -0.56753802
-2.8052464 4.2158761 -0.5705629
-3.0344796 4.56038 -0.57112557
-3.3019047 4.9622812 -0.57142419
-3.6186202 5.4382582 -0.57148874
-4.0032072 6.0162363 -0.57175034
-4.4849629 6.7402449 -0.57289106
-5.0969968 7.6600428 -0.57426137
-5.8966985 8.8618774 -0.57559371
-6.9953375 10.512972 -0.57762367
-8.6132135 12.944404 -0.58176994
-11.171599 16.789284 -0.58678216
-15.902261 23.898779 -0.59653014
-27.571846 41.436462 -0.6205126
-1.1918712 1.744318 -0.5660764
-1.2399758 1.8147198 -0.56938827
-1.2740787 1.8646299 -0.56506175
-1.3218881 1.9345993 -0.56561518
-1.3715507 2.0072811 -0.56552476
-1.4231424 2.0827863 -0.56473976
-1.4909008 2.1819515 -0.56860608
-1.5400133 2.2538283 -0.56364143
-1.6203383 2.3713851 -0.56819433
-1.6972284 2.4839146 -0.56921744
-1.766812 2.5857508 -0.56563622
-1.8578632 2.7190056 -0.56656528
-1.9593017 2.8674619 -0.56782317
-2.0725231 3.0331628 -0.56932968
-2.1989086 3.2181294 -0.57091856
-2.3260689 3.4042301 -0.56897378
-2.4781978 3.6268728 -0.56902426
-2.6525974 3.8821087 -0.56937748
-2.8531685 4.1756468 -0.5698235
-3.0813498 4.509593 -0.56946731
-3.3583436 4.9149771 -0.5706892
-3.6869304 5.3958678 -0.57175511
-4.0802493 5.9714952 -0.57222325
-4.562933 6.6779084 -0.57231843
-5.1862845 7.5901904 -0.57376224
-6.0110474 8.7972412 -0.5761528
-7.1363225 10.444096 -0.57861698
-8.7657442 12.828773 -0.58137351
-11.383886 16.660458 -0.58712763
-16.205904 23.717537 -0.59693515
-28.1255 41.162014 -0.62153476
-1.2085145 1.7228115 -0.56387699
-1.2520933 1.7849357 -0.56483126
-1.2962992 1.847954 -0.56479603
-1.3422257 1.913425 -0.56420726
-1.3922721 1.9847693 -0.56396306
-1.448028 2.0642526 -0.56449968
-1.517789 2.1637013 -0.56867081
-1.5739461 2.2437565 -0.56592
-1.6509973 2.3535979 -0.56875378
-1.7275212 2.4626875 -0.56917787
-1.803223 2.570605 -0.56713057
-1.9004605 2.709223 -0.56935328
-1.9955173 2.844732 -0.56813824
-2.1028619 2.9977586 -0.56749487
-2.2217898 3.1672974 -0.56670457
-2.3673873 3.3748558 -0.5688867
-2.5152364 3.5856235 -0.56736213
-2.6955884 3.8427267 -0.56841993
-2.898206 4.1315703 -0.56862891
-3.1397727 4.4759383 -0.5700497
-3.4156737 4.8692522 -0.57021368
-3.7406607 5.332541 -0.56987572
-4.152442 5.9195604 -0.57209623
-4.6633224 6.6478519 -0.57461345
-5.28689 7.5367856 -0.57459611
-6.1129131 8.7143326 -0.57560229
-7.2603631 10.350092 -0.57831144
-8.9313288 12.732157 -0.58192807
-11.5943 16.528385 -0.58745319
-16.515368 23.543669 -0.5976252
-28.6835 40.890087 -0.62270743
-1.2395397 1.7216191 -0.56843245
-1.2777396 1.7746755 -0.56651354
-1.316769 1.8288841 -0.56387371
-1.3729753 1.9069502 -0.56723332
-1.4156157 1.966174 -0.56358284
-1.4781742 2.0530627 -0.56636739
-1.5410658 2.140414 -0.56748784
-1.6051414 2.2294097 -0.56723672
-1.6747673 2.3261144 -0.56704593
-1.7575845 2.4411407 -0.56914997
-1.8415169 2.5577159 -0.56923974
-1.9244089 2.6728461 -0.56663871
-2.0356972 2.8274164 -0.56963623
-2.1437552 2.9775002 -0.56860709
-2.2688971 3.1513119 -0.56879324
-2.4125524 3.3508372 -0.56979561
-2.5693598 3.56863 -0.56962937
-2.7511415 3.82111 -0.57018334
-2.9603982 4.1117501 -0.57086802
-3.1931646 4.4350433 -0.56979901
-3.4775071 4.8299723 -0.57057816
-3.8166046 5.300951 -0.57147193
-4.2318778 5.8777313 -0.57303947
-4.7313914 6.5715146 -0.57300067
-5.3822885 7.4755573 -0.57493037
-6.230063 8.6530466 -0.57657075
-7.3933635 10.268775 -0.57880384
-9.0985117 12.637087 -0.58265227
-11.806816 16.398699 -0.58795947
-16.822676 23.365316 -0.59830356
-29.233276 40.602623 -0.62375677
-1.2564657 1.7006328 -0.5665617
-1.2947662 1.7524729 -0.56446564
-1.343469 1.8183924 -0.5656895
-1.3993871 1.8940778 -0.5684799
-1.4540509 1.9680656 -0.56920701
-1.5020288 2.033004 -0.5658862
-1.5675 2.1216195 -0.5675723
-1.6387901 2.218111 -0.56944609
-1.7067635 2.3101134 -0.56821847
-1.7785347 2.4072559 -0.56630588
-1.8649338 2.5241978 -0.56684089
-1.9633101 2.6573505 -0.5684287
-2.0719221 2.8043575 -0.57008034
-2.1851325 2.9575884 -0.5698927
-2.3033347 3.1175754 -0.56777322
-2.4426391 3.3061249 -0.56725705
-2.6024086 3.5223739 -0.56731093
-2.7975423 3.7864883 -0.5701071
-3.0111246 4.075573 -0.5709427
-3.2479012 4.3960514 -0.56987739
-3.5334814 4.7825856 -0.57006997
-3.8804333 5.2521868 -0.57131577
-4.3041248 5.8256555 -0.57307899
-4.8133249 6.5148602 -0.57317817
-5.4763179 7.4122252 -0.57519507
-6.339016 8.5798912 -0.57684642
-7.5260839 10.186594 -0.57934415
-9.2556458 12.527565 -0.58280605
-12.018137 16.266611 -0.58847761
-17.125307 23.179195 -0.59888458
-29.792965 40.324936 -0.62507159
-1.2825444 1.6919992 -0.56889641
-1.323802 1.7464284 -0.56771892
-1.3645732 1.8002161 -0.56521225
-1.4173656 1.8698623 -0.56640011
-1.4816091 1.9546158 -0.57054311
-1.5311128 2.0199237 -0.56744301
-1.587755 2.0946488 -0.56553739
-1.6598526 2.189764 -0.56736565
-1.7349339 2.288815 -0.5681842
-1.8117595 2.3901675 -0.56748384
-1.9008209 2.5076618 -0.56833333
-1.9940529 2.6306584 -0.5679211
-2.0953035 2.7642336 -0.56711847
-2.2143762 2.9213202 -0.56810802
-2.337641 3.0839374 -0.56683916
-2.4936695 3.2897785 -0.56967044
-2.6579618 3.5065217 -0.56997871
-2.841506 3.7486627 -0.56962967
-3.0624652 4.0401635 -0.57121444
-3.3021185 4.3563266 -0.56994838
-3.5918813 4.7385964 -0.57004815
-3.9469371 5.2070045 -0.57163703
-4.3693509 5.7642751 -0.57228291
-4.9009676 6.4656119 -0.57410395
-5.5691838 7.347157 -0.57541645
-6.4455562 8.5033131 -0.57698298
-7.6550269 10.098909 -0.57966691
-9.4224005 12.43052 -0.58363736
-12.230182 16.134693 -0.58910125
-17.427858 22.991737 -0.59953284
-30.334337 40.018635 -0.62605822
-1.2994921 1.6712669 -0.56725538
-1.3460002 1.7310807 -0.56806713
-1.3971181 1.7968229 -0.5694977
-1.4435087 1.8564857 -0.56768191
-1.5013065 1.9308189 -0.56894249
-1.554442 1.9991561 -0.56693566
-1.6191298 2.0823505 -0.56754941
-1.67459 2.1536775 -0.56330836
-1.7568071 2.2594161 -0.56620598
-1.8384106 2.3643658 -0.56668228
-1.9313422 2.4838846 -0.56828392
-2.0248861 2.6041906 -0.56753951
-2.1338916 2.7443819 -0.56838602
-2.2552066 2.900404 -0.56939024
-2.3821461 3.0636601 -0.56845313
-2.5328252 3.2574472 -0.56942189
-2.6991103 3.4713054 -0.56960618
-2.8878012 3.713979 -0.5697121
-3.0975602 3.9837484 -0.56858045
-3.3572943 4.3177905 -0.57026464
-3.6519523 4.6967478 -0.57037282
-4.0184193 5.1680589 -0.57274276
-4.4385247 5.708353 -0.57210624
-4.983902 6.4097581 -0.57454276
-5.6581473 7.2769003 -0.57531959
-6.5458531 8.4185715 -0.57665098
-7.7898312 10.018443 -0.58050239
-9.5732689 12.312109 -0.58356065
-12.440089 15.999104 -0.58969122
-17.730677 22.803288 -0.60025865
-30.872988 39.705513 -0.62705129
-1.3178117 1.65249 -0.56633949
-1.3612587 1.7069712 -0.56560564
-1.414565 1.7738153 -0.56767559
-1.4617978 1.8330437 -0.56596738
-1.5174253 1.9027985 -0.56614125
-1.5797673 1.9809734 -0.56724524
-1.6451435 2.0629528 -0.56773317
-1.7051765 2.138232 -0.56470996
-1.7969991 2.2533743 -0.57018626
-1.8670565 2.341224 -0.56659538
-1.9622383 2.4605787 -0.56842917
-2.059927 2.5830767 -0.56841528
-2.1675475 2.7180293 -0.56840533
-2.2842691 2.8643939 -0.56779218
-2.4229472 3.0382915 -0.56923115
-2.5733337 3.2268713 -0.56956536
-2.7369161 3.4319975 -0.56863558
-2.9355345 3.6810582 -0.57015622
-3.1561165 3.9576602 -0.57035291
-3.4107924 4.2770152 -0.57037538
-3.7138879 4.6570864 -0.57105905
-4.0762548 5.1114821 -0.57198435
-4.5125427 5.6585717 -0.57263488
-5.0565891 6.3407869 -0.57389045
-5.7461967 7.2055311 -0.57521981
-6.6574244 8.3481789 -0.57739294
-7.909914 9.9187565 -0.58031821
-9.7331114 12.204984 -0.58411169
-12.637815 15.847381 -0.58978224
-18.016668 22.592276 -0.60049045
-31.424047 39.404663 -0.62835485
-1.3320065 1.6287959 -0.56378978
-1.3903476 1.7001361 -0.56896269
-1.4327152 1.7519439 -0.56627136
-1.4872638 1.8186467 -0.56712592
-1.5464542 1.8910255 -0.56825328
-1.6070142 1.9650791 -0.56830937
-1.6751207 2.0483608 -0.56934303
-1.7430315 2.131403 -0.56852394
-1.816806 2.2216153 -0.56776005
-1.9037812 2.3279698 -0.56901014
-1.9910313 2.4346604 -0.56805456
-2.0864241 2.5513079 -0.56702727
-2.1974804 2.6871095 -0.56754714
-2.3253818 2.8435087 -0.56927723
-2.4598951 3.0079937 -0.56917882
-2.6105466 3.1922123 -0.56907076
-2.7823534 3.4022999 -0.56934065
-2.9710777 3.6330745 -0.56833977
-3.2053351 3.919528 -0.57049453
-3.4630151 4.2346225 -0.57035768
-3.7795384 4.6216712 -0.57237196
-4.1321325 5.0528288 -0.57106358
-4.5861101 5.6079583 -0.57317644
-5.1396346 6.2848158 -0.57450128
-5.8402777 7.141572 -0.57580346
-6.7585826 8.2644873 -0.57730889
-8.0288563 9.8177958 -0.58014357
-9.8807068 12.082264 -0.58400905
-12.837637 15.698039 -0.59005457
-18.316401 22.397547 -0.60125566
-31.960033 39.081169 -0.62941557
-1.3595803 1.6214154 -0.56697899
-1.4096882 1.6811733 -0.56837469
-1.4504352 1.7297676 -0.56482553
-1.5101503 1.800983 -0.56736553
-1.5687157 1.8708272 -0.56793725
-1.6339961 1.9486796 -0.56933433
-1.6891583 2.0144653 -0.56565219
-1.766019 2.1061282 -0.56753176
-1.8442101 2.1993778 -0.56782949
-1.9337022 2.3061047 -0.56943458
-2.0144796 2.4024386 -0.56627333
-2.1231709 2.5320623 -0.56850928
-2.2325697 2.6625295 -0.56811094
-2.3555722 2.8092206 -0.56816864
-2.496207 2.9769394 -0.56906772
-2.6552694 3.166635 -0.5702886
-2.8346453 3.3805561 -0.57149166
-3.0248699 3.607415 -0.57010126
-3.2590289 3.8866699 -0.57150173
-3.518631 4.1962671 -0.57097602
-3.8231113 4.5593858 -0.57043713
-4.2031269 5.0125871 -0.57231349
-4.6569319 5.5537882 -0.57344925
-5.2155685 6.2200098 -0.57439631
-5.9271884 7.0686769 -0.57575899
-6.8714471 8.1947861 -0.57829851
-8.1577539 9.728817 -0.58076936
-10.030788 11.96257 -0.58414131
-13.04511 15.557405 -0.59075314
-18.612417 22.196894 -0.60196751
-32.489326 38.746292 -0.63040876
-1.387741 1.6142626 -0.57040179
-1.4274883 1.6604978 -0.56727618
-1.4795969 1.7211121 -0.5678972
-1.532257 1.7823679 -0.5673939
-1.5805441 1.8385371 -0.56399214
-1.6419929 1.9100162 -0.56389463
-1.7251709 2.0067713 -0.56940538
-1.7950608 2.0880694 -0.56857044
-1.8640935 2.1683702 -0.56569916
-1.9607987 2.2808607 -0.56911176
-2.0499518 2.3845665 -0.56795931
-2.1555629 2.5074165 -0.5688839
-2.2679038 2.6380947 -0.56880462
-2.3949168 2.78584 -0.56935292
-2.5271585 2.9396677 -0.56784022
-2.6824155 3.1202674 -0.56783539
-2.8688667 3.3371532 -0.57007486
-3.0653534 3.5657125 -0.56942457
-3.3049834 3.8444571 -0.57122725
-3.5778341 4.1618457 -0.57223535
-3.8829679 4.5167866 -0.57103801
-4.2609811 4.9565029 -0.57184905
-4.7308617 5.5030823 -0.57417691
-5.297668 6.1624088 -0.57504928
-6.016809 6.9989357 -0.57606113
-6.9712162 8.1091309 -0.57825947
-8.2754135 9.6262131 -0.58067501
-10.185887 11.848535 -0.58464473
-13.23984 15.400985 -0.59095085
-18.903879 21.989569 -0.60260338
-33.019741 38.409565 -0.63148856
-1.4016277 1.5904319 -0.56802827
-1.440811 1.6348935 -0.5645389
-1.4982502 1.70007 -0.5669902
-1.5510302 1.7599595 -0.56628907
-1.6212823 1.8396749 -0.57041371
-1.6634959 1.8875748 -0.56326562
-1.7397803 1.9741349 -0.56617242
-1.8112639 2.0552478 -0.56565511
-1.902355 2.1586089 -0.56921226
-1.9800403 2.2467589 -0.56663507
-2.0810506 2.3613756 -0.5684877
-2.1929705 2.4883716 -0.57063782
-2.3034801 2.6137671 -0.56962341
-2.429831 2.757138 -0.56955028
-2.5712802 2.9176409 -0.56964982
-2.7323885 3.1004512 -0.57030046
-2.9109852 3.3031056 -0.5703302
-3.1121409 3.5313573 -0.57000637
-3.3512964 3.8027282 -0.57110679
-3.6157987 4.10286 -0.5701952
-3.9350657 4.4651332 -0.57058197
-4.3388004 4.9232526 -0.57412487
-4.7829885 5.4272742 -0.57236052
-5.3678403 6.0909076 -0.57449299
-6.1094375 6.9324007 -0.57672453
-7.0615263 8.0127392 -0.57753408
-8.3930664 9.5236425 -0.5806694
-10.341869 11.734956 -0.58527106
-13.43068 15.239841 -0.59105992
-19.189526 21.774424 -0.60312825
-33.546299 38.065105 -0.63255942
-1.4205604 1.5725061 -0.56782174
-1.4664017 1.6232507 -0.56670219
-1.5171379 1.6794138 -0.56628007
-1.5811536 1.7502768 -0.56938636
-1.6332672 1.8079644 -0.56676573
-1.7041976 1.8864818 -0.56914979
-1.7636963 1.9523445 -0.56610006
-1.8485492 2.0462735 -0.56939816
-1.9316711 2.1382864 -0.57007366
-2.0019646 2.2160985 -0.56506824
-2.1033094 2.3282833 -0.56670451
-2.2148368 2.4517398 -0.5684399
-2.3333995 2.5829842 -0.56912476
-2.4554422 2.7180808 -0.56767631
-2.6043911 2.8829618 -0.56908852
-2.7556136 3.0503592 -0.5672763
-2.9598298 3.2764187 -0.57196331
-3.1553142 3.4928126 -0.5700044
-3.3977153 3.7611413 -0.57109261
-3.6752791 4.0683937 -0.57164282
-4.000062 4.427916 -0.57206821
-4.3775887 4.8458238 -0.57132953
-4.8583846 5.3780465 -0.57342589
-5.4512739 6.0343523 -0.57543761
-6.1898899 6.8519721 -0.57632196
-7.1704082 7.9373689 -0.57841301
-8.5120087 9.4224691 -0.5808385
-10.481788 11.60294 -0.58507085
-13.63638 15.094953 -0.5918991
-19.46736 21.549625 -0.60348654
-34.070652 37.714912 -0.63365406
-1.434235 1.5489239 -0.56563187
-1.4809915 1.5994192 -0.56469727
-1.5309674 1.6533915 -0.56381077
-1.5984329 1.7262518 -0.56792188
-1.6563842 1.7888373 -0.56711179
-1.7282885 1.8664914 -0.56948733
-1.7989852 1.9428415 -0.56971568
-1.8711867 2.0208166 -0.56867397
-1.9621422 2.1190453 -0.57133323
-2.0337789 2.1964104 -0.56638193
-2.1355591 2.3063295 -0.56770962
-2.2464151 2.4260502 -0.56884521
-2.3557532 2.5441313 -0.56690383
-2.4797084 2.677999 -0.56563061
-2.6369832 2.8478501 -0.56851536
-2.8022614 3.0263448 -0.56917548
-2.9911416 3.2303288 -0.57029504
-3.2055602 3.4618936 -0.57134801
-3.444895 3.7203667 -0.57129019
-3.7158866 4.0130281 -0.5702405
-4.0558848 4.3802147 -0.57230556
-4.4527383 4.8088026 -0.57337677
-4.9201994 5.3136439 -0.57296658
-5.535532 5.9781818 -0.57652855
-6.2736087 6.775279 -0.5763163
-7.2734628 7.8550863 -0.57889068
-8.6281042 9.3180523 -0.58089805
-10.625056 11.47469 -0.58514768
-13.827808 14.933552 -0.59219283
-19.757278 21.337173 -0.60429478
-34.594406 37.360756 -0.63480288
-1.4497259 1.5275415 -0.5642907
-1.5063453 1.5872 -0.56687999
-1.5541153 1.6375343 -0.56487733
-1.6152748 1.7019765 -0.56642717
-1.680057 1.7702361 -0.56772113
-1.7488171 1.8426869 -0.56874245
-1.816767 1.914284 -0.56784952
-1.8970361 1.9988617 -0.56901711
-1.9724559 2.0783298 -0.56685209
-2.0620039 2.1726844 -0.56675929
-2.1698222 2.2862899 -0.56930143
-2.2734234 2.395452 -0.56818253
-2.3979442 2.5266566 -0.56953722
-2.5254428 2.6609991 -0.56855607
-2.6742351 2.8177776 -0.5690335
-2.846997 2.9998128 -0.57072645
-3.0245636 3.1869104 -0.56915271
-3.241931 3.4159455 -0.57030082
-3.4877856 3.6749966 -0.57086581
-3.7742271 3.9768133 -0.57164592
-4.1034145 4.3236704 -0.57146704
-4.5054903 4.7473278 -0.57260936
-4.9862299 5.2538714 -0.57308936
-5.599093 5.899631 -0.57554942
-6.3622274 6.7037272 -0.576841
-7.364151 7.7594304 -0.57847089
-8.7429676 9.2122564 -0.58096081
-10.773567 11.351851 -0.58559489
-14.02599 14.778852 -0.59285265
-20.044313 21.120214 -0.60508496
-35.110622 36.995224 -0.6358797
-1.4760026 1.5174186 -0.567213
-1.5269279 1.5697731 -0.5673188
-1.5760469 1.6202703 -0.56556445
-1.6413028 1.6873572 -0.56823558
-1.7109939 1.7590038 -0.57082313
-1.7710721 1.8207678 -0.56865591
-1.8436278 1.8953593 -0.56891757
-1.9192119 1.9730642 -0.56834841
-1.9936568 2.049598 -0.56565922
-2.0967524 2.1555865 -0.56898177
-2.1931622 2.2547014 -0.56810802
-2.303817 2.3684611 -0.56845689
-2.4189661 2.4868412 -0.56722438
-2.5512877 2.6228759 -0.56707066
-2.7051334 2.7810385 -0.56828868
-2.8714266 2.9519978 -0.56830406
-3.0692785 3.1554015 -0.57022262
-3.2918687 3.3842373 -0.57172179
-3.5385771 3.6378684 -0.57181418
-3.8235178 3.9308043 -0.57174742
-4.163898 4.2807355 -0.57251638
-4.558228 4.6861305 -0.57194531
-5.0585728 5.2005148 -0.57401085
-5.671392 5.8305287 -0.57556796
-6.4576569 6.6388564 -0.57804805
-7.4807258 7.6906323 -0.58015573
-8.8679104 9.1167402 -0.58177
-10.923926 11.230448 -0.58621716
-14.206603 14.605235 -0.59285098
-20.305248 20.875008 -0.60516745
-35.610725 36.609951 -0.63673586
-1.4970825 1.5016974 -0.56817472
-1.5389178 1.5436618 -0.56467837
-1.5961092 1.6010295 -0.5656563
-1.6612438 1.6663649 -0.5680024
-1.7244669 1.7297829 -0.56817883
-1.794759 1.8002918 -0.56911045
-1.8568748 1.862599 -0.56589496
-1.9429239 1.9489133 -0.56823063
-2.0266364 2.0328839 -0.56788111
-2.1216977 2.1282382 -0.56860644
-2.2234206 2.2302747 -0.56879914
-2.3410292 2.3482459 -0.57047093
-2.4609795 2.4685659 -0.56991512
-2.5959795 2.6039822 -0.56984419
-2.7491021 2.7575767 -0.57035899
-2.9144309 2.9234152 -0.56965762
-3.1114538 3.1210454 -0.57088494
-3.3170822 3.3273077 -0.56895196
-3.5738647 3.584882 -0.57035005
-3.8616617 3.8735659 -0.57028562
-4.2191639 4.2321706 -0.57291651
-4.6315937 4.6458716 -0.57393932
-5.1283531 5.1441622 -0.57470781
-5.7463331 5.7640471 -0.57593679
-6.5262113 6.5463295 -0.57693541
-7.5628257 7.5861392 -0.57924467
-8.9928513 9.0205736 -0.58264571
-11.068788 11.102909 -0.58662015
-14.385907 14.430254 -0.59288388
-20.588381 20.651848 -0.60599148
-36.112747 36.224072 -0.63769954
-1.5131735 1.4809647 -0.56732738
-1.5622241 1.5289713 -0.56628877
-1.6212212 1.5867126 -0.5675984
-1.6871672 1.6512548 -0.56988049
-1.7407199 1.7036676 -0.5665887
-1.81371 1.775104 -0.56815535
-1.8878955 1.8477105 -0.56838155
-1.9730475 1.9310499 -0.57005304
-2.0524418 2.0087543 -0.56814772
-2.1450124 2.0993543 -0.56789356
-2.2506483 2.2027419 -0.5687924
-2.364815 2.3144786 -0.56928891
-2.4849808 2.4320865 -0.56850475
-2.6289134 2.5729554 -0.57008553
-2.7851658 2.7258818 -0.57084388
-2.9542975 2.8914137 -0.5704574
-3.1541331 3.0869954 -0.57170779
-3.3680835 3.2963917 -0.57070422
-3.6150987 3.5381491 -0.56994426
-3.919462 3.8360338 -0.57181233
-4.2624302 4.1717014 -0.57178271
-4.6856513 4.5859141 -0.57360685
-5.1883039 5.0778675 -0.57438546
-5.8192692 5.6954026 -0.57618421
-6.6099725 6.469275 -0.57726413
-7.6468797 7.4841108 -0.57859015
-9.0950117 8.9014187 -0.58212906
-11.202398 10.963948 -0.58651179
-14.580038 14.269693 -0.5936082
-20.859224 20.415222 -0.6065287
-36.623734 35.844173 -0.6388914
-1.5212146 1.4526469 -0.56360251
-1.5787542 1.5075928 -0.56551808
-1.6409374 1.5669732 -0.56771231
-1.7091993 1.6321583 -0.5705002
-1.7578779 1.6786427 -0.56541216
-1.8257184 1.7434253 -0.56515878
-1.9121635 1.8259739 -0.56888497
-1.9891763 1.8995154 -0.56792158
-2.077867 1.9842085 -0.56838888
-2.1742957 2.0762906 -0.56884396
-2.2774467 2.1747923 -0.56876355
-2.3982081 2.2901103 -0.57050544
-2.5171618 2.4037025 -0.56906205
-2.6510742 2.5315788 -0.56809771
-2.8183441 2.691309 -0.57081801
-2.9770646 2.8428752 -0.56806058
-3.1885159 3.0447955 -0.57111043
-3.4189792 3.2648709 -0.57248235
-3.6653411 3.500128 -0.5710367
-3.9646664 3.7859616 -0.57157224
-4.3163228 4.1217675 -0.57217002
-4.7362828 4.5227981 -0.57295358
-5.2439184 5.0075521 -0.57368219
-5.8938961 5.6282325 -0.5766772
-6.6904621 6.3888936 -0.57738888
-7.7515268 7.4021316 -0.57957745
-9.2132225 8.7979422 -0.58272678
-11.350008 10.838414 -0.58721793
-14.765258 14.099723 -0.59404546
-21.131844 20.179338 -0.60719472
-37.113087 35.440235 -0.63977742
-1.5400633 1.4348601 -0.56400627
-1.5947083 1.4857724 -0.56464595
-1.6613818 1.5478913 -0.56815749
-1.7195817 1.6021155 -0.56734711
-1.7782698 1.6567944 -0.56537557
-1.858982 1.7319932 -0.56881994
-1.9204789 1.7892892 -0.56477046
-2.0117733 1.8743472 -0.56774998
-2.0997477 1.9563119 -0.56775099
-2.1965613 2.0465121 -0.56804252
-2.307817 2.1501679 -0.56970215
-2.4202588 2.2549286 -0.56911194
-2.5496597 2.3754902 -0.56976223
-2.6932063 2.5092309 -0.57047123
-2.8433824 2.6491482 -0.5692485
-3.0204194 2.8140919 -0.56968743
-3.2222664 3.0021503 -0.57050031
-3.4448125 3.2094941 -0.57015663
-3.7090356 3.455668 -0.57118076
-4.0065494 3.7328584 -0.57094985
-4.3579106 4.0602174 -0.5710215
-4.8023295 4.474278 -0.57424432
-5.3155918 4.9524789 -0.5748176
-5.963284 5.5559268 -0.5767383
-6.7688441 6.306458 -0.57741731
-7.8504457 7.3141742 -0.58020502
-9.3207626 8.6840525 -0.58273059
-11.486115 10.701488 -0.58740723
-14.938287 13.917838 -0.59407651
-21.391191 19.929939 -0.60755908
-37.607269 35.03828 -0.6408208
-1.5692382 1.4264044 -0.56822443
-1.6142135 1.467286 -0.56512111
-1.6838689 1.5306013 -0.56936818
-1.7401617 1.5817702 -0.5676769
-1.8070964 1.6426125 -0.5680759
-1.882887 1.7115046 -0.56965184
-1.9502624 1.7727474 -0.56707579
-2.038424 1.8528843 -0.56879818
-2.1280484 1.9343512 -0.56892884
-2.2284861 2.0256467 -0.56981391
-2.3290553 2.1170621 -0.56847572
-2.451977 2.2287953 -0.57008272
-2.5760236 2.3415511 -0.56917644
-2.7107921 2.4640527 -0.56773531
-2.8759525 2.6141801 -0.56929058
-3.0560646 2.7778981 -0.56992471
-3.2699332 2.9723003 -0.57242548
-3.4758079 3.1594362 -0.56881362
-3.759722 3.4175081 -0.57247162
-4.0519547 3.6831415 -0.57092315
-4.4216237 4.0191627 -0.57285082
-4.8466458 4.4054985 -0.57302248
-5.383183 4.8931999 -0.57557666
-6.0291562 5.4803758 -0.57654798
-6.8523035 6.2285995 -0.57795966
-7.9313855 7.2094617 -0.57959127
-9.4308367 8.5724316 -0.58297807
-11.614715 10.55753 -0.58730036
-15.136324 13.758599 -0.59517908
-21.655043 19.683977 -0.60813248
-38.104713 34.636383 -0.64199132
-1.5825378 1.4033482 -0.56674886
-1.6397187 1.4540546 -0.56774777
-1.6985959 1.5062652 -0.5680421
-1.7578071 1.558772 -0.56713754
-1.8187212 1.6127888 -0.56545323
-1.9077034 1.6916957 -0.57082325
-1.9727627 1.7493883 -0.56732047
-2.0473986 1.8155731 -0.56503016
-2.1518972 1.9082396 -0.56898856
-2.2454727 1.9912195 -0.56785369
-2.3534236 2.0869472 -0.56811702
-2.4780645 2.1974752 -0.56982261
-2.6098304 2.3143213 -0.57031512
-2.7331419 2.4236705 -0.56613171
-2.9117808 2.582082 -0.57005465
-3.0976622 2.7469163 -0.57133991
-3.2903702 2.9178042 -0.56967926
-3.5151591 3.1171403 -0.56893772
-3.8031616 3.3725326 -0.57272816
-4.109066 3.6437995 -0.57261366
-4.4742489 3.9676332 -0.57330465
-4.8954344 4.3411283 -0.57243627
-5.4462891 4.8296099 -0.57593077
-6.0914516 5.4017215 -0.57610977
-6.9286027 6.1440825 -0.57797909
-8.0259581 7.1171851 -0.5800631
-9.5348673 8.4552412 -0.58293778
-11.75487 10.423875 -0.58786166
-15.295232 13.563364 -0.59482449
-21.904095 19.423912 -0.60837317
-38.572289 34.204777 -0.64273417
-1.5999416 1.3840163 -0.56684399
-1.6536177 1.4304484 -0.56642723
-1.711157 1.4802222 -0.566113
-1.7725298 1.5333123 -0.5657618
-1.853318 1.6031975 -0.57003742
-1.916034 1.6574494 -0.56717473
-1.9888742 1.7204592 -0.56582707
-2.073267 1.7934625 -0.56604028
-2.1760235 1.8823513 -0.56920463
-2.2832322 1.9750913 -0.57121766
-2.3769932 2.0561984 -0.56766027
-2.5068238 2.1685073 -0.57026106
-2.6406155 2.2842426 -0.57086134
-2.7729521 2.3987195 -0.5682252
-2.9444125 2.5470397 -0.57026839
-3.1267753 2.7047913 -0.57053208
-3.3312399 2.8816617 -0.5705772
-3.567101 3.0856915 -0.57116032
-3.8329065 3.3156242 -0.5710246
-4.1553116 3.5945182 -0.57285547
-4.5250783 3.9143815 -0.57360673
-4.9677954 4.2973509 -0.57467526
-5.4909143 4.7498703 -0.57442999
-6.1594701 5.3281989 -0.57630271
-7.0044441 6.0591364 -0.57804674
-8.1154222 7.0201793 -0.58024621
-9.6442814 8.3427057 -0.58331108
-11.887412 10.283108 -0.58812201
-15.481701 13.392318 -0.59562689
-22.178835 19.185619 -0.6094054
-39.035889 33.767673 -0.64349163
-1.6066161 1.3556148 -0.56326038
-1.6761117 1.414253 -0.5681324
-1.7276422 1.4577329 -0.56559396
-1.7929101 1.512804 -0.5662865
-1.8571829 1.5670354 -0.56525671
-1.932229 1.6303571 -0.56599152
-2.0226023 1.7066115 -0.56940937
-2.1098478 1.7802265 -0.57000786
-2.19842 1.8549612 -0.56905359
-2.2930996 1.9348489 -0.56769115
-2.4079938 2.0317934 -0.56905407
-2.5241899 2.1298363 -0.56821096
-2.6611063 2.245362 -0.56927919
-2.8047733 2.3665841 -0.56873971
-2.9640582 2.500984 -0.56807417
-3.1568727 2.6636751 -0.57000428
-3.3662853 2.8403711 -0.57055444
-3.5969939 3.0350361 -0.56992799
-3.8829951 3.2763555 -0.57244152
-4.1934347 3.538295 -0.57206976
-4.5646553 3.8515198 -0.57257688
-5.017189 4.2333546 -0.57432395
-5.5517979 4.6844411 -0.5747298
-6.2258463 5.2531834 -0.57642573
-7.0826688 5.9761443 -0.57839417
-8.2018814 6.9205027 -0.58029968
-9.748848 8.2257872 -0.5834738
-12.017658 10.140141 -0.58835256
-15.647722 13.203081 -0.59572309
-22.427935 18.924023 -0.60980999
-39.52021 33.345974 -0.64466745
-1.6285001 1.3401504 -0.56511253
-1.6921778 1.392553 -0.56773108
-1.7404453 1.4322741 -0.563977
-1.8167757 1.4950891 -0.56797481
-1.8738099 1.5420246 -0.56450355
-1.9541205 1.608115 -0.56656891
-2.0418479 1.6803088 -0.56896758
-2.1276836 1.7509462 -0.56896675
-2.2275388 1.8331205 -0.5707131
-2.3285923 1.916281 -0.57060122
-2.4354694 2.0042341 -0.56967998
-2.550293 2.0987263 -0.56823462
-2.6784542 2.2041948 -0.56714928
-2.8426218 2.3392942 -0.57053846
-2.9973509 2.4666262 -0.56859887
-3.1946261 2.6289709 -0.57094085
-3.4134939 2.8090849 -0.572658
-3.6403358 2.9957612 -0.57091546
-3.9135952 3.2206361 -0.57107121
-4.2405729 3.4897177 -0.57260317
-4.6238804 3.8051548 -0.57409328
-5.0796514 4.1802249 -0.57554644
-5.6154356 4.6211405 -0.57539171
-6.3051453 5.1887269 -0.57781672
-7.1508279 5.8846693 -0.57800734
-8.2942028 6.825593 -0.58084941
-9.8500376 8.1059446 -0.58352035
-12.139901 9.9903545 -0.58827853
-15.827979 13.025404 -0.59644282
-22.669144 18.655241 -0.61008507
-39.987648 32.907253 -0.645643
-1.6528548 1.3264458 -0.56786102
-1.7130765 1.3747749 -0.56902802
-1.7801621 1.4286122 -0.57111132
-1.8289536 1.4677683 -0.56609672
-1.9077694 1.5310196 -0.56901962
-1.9816941 1.5903454 -0.56885058
-2.0608428 1.6538635 -0.56855071
-2.1520183 1.7270336 -0.56975222
-2.234576 1.7932878 -0.5668236
-2.3503962 1.8862355 -0.57021749
-2.4580939 1.9726648 -0.56925511
-2.5816183 2.0717955 -0.56949496
-2.7181995 2.1814044 -0.56984234
-2.8682384 2.3018131 -0.56995595
-3.0289025 2.4307489 -0.56887108
-3.233882 2.5952487 -0.57221001
-3.4284036 2.7513559 -0.56944054
-3.6661062 2.9421165 -0.56924021
-3.9630494 3.180419 -0.57253766
-4.2943153 3.4462659 -0.57409441
-4.6611314 3.7406423 -0.57296413
-5.1180944 4.1073632 -0.57413626
-5.6649976 4.5462627 -0.57469851
-6.3521647 5.0977273 -0.57633764
-7.2314906 5.8034019 -0.57871544
-8.3770065 6.7226992 -0.5808152
-9.9586325 7.9919829 -0.58408767
-12.272058 9.8485489 -0.58876973
-16.000202 12.840452 -0.59693772
-22.909515 18.3853 -0.61042374
-40.442905 32.456161 -0.64650083
-1.6728767 1.3090256 -0.56916666
-1.7228557 1.3481343 -0.5667271
-1.7816267 1.3941225 -0.56603867
-1.846194 1.4446465 -0.56589192
-1.9228797 1.504653 -0.56796503
-1.9965351 1.5622883 -0.56755334
-2.0761504 1.6245872 -0.56721973
-2.1527836 1.6845527 -0.56442803
-2.2766511 1.781479 -0.57189643
-2.3654375 1.8509544 -0.56830192
-2.4723177 1.9345881 -0.56699717
-2.596319 2.0316191 -0.56718409
-2.7441142 2.1472688 -0.56969672
-2.9012222 2.2702057 -0.57091993
-3.0690911 2.4015632 -0.57082963
-3.2561111 2.5479062 -0.57055652
-3.4592545 2.7068658 -0.56899321
-3.7169247 2.9084928 -0.57153451
-3.9967451 3.1274521 -0.57180661
-4.3194079 3.379936 -0.57184952
-4.7044668 3.6812444 -0.57268351
-5.1670537 4.0432186 -0.57400787
-5.7309542 4.4844704 -0.57575202
-6.422317 5.0254617 -0.57705224
-7.3001356 5.7123547 -0.5785439
-8.4678507 6.6260915 -0.58142066
-10.057142 7.8697114 -0.58414555
-12.404959 9.7068777 -0.58937478
-16.156038 12.642097 -0.5969069
-23.153595 18.117683 -0.61094499
-40.902664 32.006325 -0.64751005
-1.6859784 1.2861707 -0.56820041
-1.73557 1.3240023 -0.56551123
-1.8048364 1.376843 -0.56799072
-1.8683983 1.4253321 -0.56728286
-1.933387 1.4749097 -0.565669
-2.0136201 1.5361164 -0.56699771
-2.0968847 1.599636 -0.56746769
-2.1940422 1.6737539 -0.56980628
-2.2893655 1.7464725 -0.56965262
-2.3912082 1.8241645 -0.56906134
-2.5047624 1.9107907 -0.56900644
-2.6285598 2.0052311 -0.56879777
-2.7691991 2.1125197 -0.56946862
-2.9263566 2.2324095 -0.57042098
-3.0860529 2.3542356 -0.5685572
-3.2875545 2.5079539 -0.57061929
-3.5037012 2.6728442 -0.57085478
-3.747828 2.8590796 -0.57083738
-4.0368533 3.0795662 -0.57208389
-4.3708205 3.3343377 -0.57318467
-4.7455487 3.620204 -0.57222223
-5.227777 3.9880781 -0.57526237
-5.7724128 4.4035606 -0.57443374
-6.4830985 4.9457164 -0.57700562
-7.3681769 5.6209102 -0.57841492
-8.5480585 6.5209985 -0.58137828
-10.165826 7.7551332 -0.58487517
-12.528564 9.557579 -0.58961916
-16.323643 12.452704 -0.59739673
-23.411142 17.859495 -0.61189979
-41.34827 31.54307 -0.64837509
-1.7123702 1.2733036 -0.5717749
-1.7629341 1.3109025 -0.56913209
-1.8273172 1.3587773 -0.56976438
-1.8866132 1.4028692 -0.56753278
-1.9612405 1.4583614 -0.56852859
-2.0384471 1.5157715 -0.56869727
-2.1371319 1.5891527 -0.57302791
-2.2139752 1.6462927 -0.56968248
-2.3025761 1.7121755 -0.56765813
-2.4052622 1.7885321 -0.56712919
-2.5231118 1.876164 -0.56789112
-2.6555471 1.9746418 -0.56934035
-2.7990558 2.0813537 -0.57030219
-2.9534452 2.1961563 -0.57039416
-3.123477 2.3225904 -0.57014722
-3.3258963 2.4731076 -0.5719527
-3.5473266 2.6377611 -0.57263476
-3.78687 2.8158836 -0.57146686
-4.0723 3.0281267 -0.57178712
-4.4085546 3.278163 -0.57280356
-4.8024755 3.571079 -0.57374817
-5.2670703 3.9165475 -0.57424325
-5.834815 4.3387179 -0.57529098
-6.5391917 4.8624864 -0.57663286
-7.4462404 5.5369596 -0.57915443
-8.6288319 6.4163246 -0.58146185
-10.253035 7.6240678 -0.58445472
-12.643595 9.4016676 -0.5895474
-16.476904 12.252084 -0.59744686
-23.633184 17.573431 -0.61200911
-41.793575 31.077339 -0.64931643
-1.7146337 1.2425416 -0.56738609
-1.7717129 1.283905 -0.56682658
-1.8373609 1.3314781 -0.56774807
-1.9055837 1.3809171 -0.56808847
-1.9703008 1.4278156 -0.56602275
-2.0493102 1.4850711 -0.56659049
-2.1363504 1.5481465 -0.56767118
-2.2161105 1.6059462 -0.56510794
-2.3305426 1.6888716 -0.56938994
-2.4382639 1.7669338 -0.56974453
-2.5619583 1.8565713 -0.57145298
-2.6856914 1.9462367 -0.57062912
-2.8160863 2.04073 -0.56861633
-2.980521 2.1598907 -0.57045084
-3.162256 2.2915883 -0.57203895
-3.345391 2.4243007 -0.57013565
-3.5759153 2.5913544 -0.57206273
-3.8254085 2.7721543 -0.57209527
-4.1143222 2.9815209 -0.57249647
-4.4489498 3.2240152 -0.57285786
-4.8460426 3.511776 -0.57375079
-5.3190503 3.8545496 -0.57469946
-5.9001031 4.2756205 -0.57650083
-6.6112013 4.7909312 -0.57774419
-7.5165052 5.4469767 -0.57936621
-8.7112989 6.3128066 -0.58174413
-10.368098 7.5134373 -0.58570296
-12.756575 9.2442913 -0.58947057
-16.639341 12.058012 -0.59791529
-23.875738 17.302004 -0.6127345
-42.228554 30.601717 -0.65017903
-1.7376888 1.2269483 -0.56997967
-1.797821 1.2694064 -0.57014245
-1.8520659 1.3077078 -0.56728029
-1.921774 1.3569272 -0.56789798
-1.9942042 1.4080688 -0.5678727
-2.0725188 1.4633652 -0.56798923
-2.1611032 1.5259129 -0.56921965
-2.2527447 1.5906192 -0.56941909
-2.3367674 1.649946 -0.56591117
-2.4641378 1.7398797 -0.57074809
-2.5761054 1.8189379 -0.56957656
-2.709975 1.9134606 -0.57074636
-2.8520916 2.0138063 -0.57084322
-3.0046716 2.1215401 -0.57003701
-3.1835725 2.2478588 -0.5708518
-3.3826215 2.3884032 -0.57143223
-3.5972385 2.5399401 -0.57043433
-3.8568976 2.7232804 -0.57175326
-4.1448092 2.9265692 -0.57168806
-4.4973211 3.1754708 -0.57401502
-4.883688 3.448277 -0.57314432
-5.3711371 3.7924554 -0.57524514
-5.9413271 4.1950555 -0.575445
-6.667697 4.707931 -0.5775786
-7.5806184 5.3525271 -0.57919109
-8.7853136 6.2031393 -0.58154911
-10.454146 7.3814692 -0.58539218
-12.89179 9.1026421 -0.5905019
-16.786404 11.852553 -0.5979175
-24.114603 17.026852 -0.61344498
-42.658508 30.120342 -0.65104711
-1.7364426 1.1943464 -0.56471092
-1.7990533 1.2374109 -0.56566507
-1.8637739 1.2819266 -0.5659954
-1.9406509 1.3348036 -0.56858295
-2.0060301 1.3797722 -0.56636608
-2.0843694 1.4336549 -0.5663628
-2.184521 1.5025403 -0.57047814
-2.2633181 1.5567379 -0.56721026
-2.3646977 1.6264682 -0.56778884
-2.4747326 1.7021514 -0.56831115
-2.5902219 1.7815864 -0.56781107
-2.72263 1.8726584 -0.56851894
-2.8792896 1.9804107 -0.57136965
-3.0257256 2.0811312 -0.56913334
-3.2202549 2.214931 -0.57250237
-3.4041336 2.3414049 -0.57015949
-3.6332133 2.4989686 -0.57122308
-3.8914208 2.6765671 -0.57194883
-4.1872845 2.8800657 -0.5726186
-4.5165725 3.106554 -0.57155335
-4.9232111 3.386245 -0.57285273
-5.4111614 3.7218633 -0.57458681
-5.9927793 4.1219072 -0.57547581
-6.7179089 4.6206603 -0.57696277
-7.6603508 5.2688832 -0.58028901
-8.8659897 6.0981364 -0.58188182
-10.546128 7.2537565 -0.58550394
-12.998859 8.9407749 -0.59032583
-16.941187 11.652356 -0.59828186
-24.335447 16.73822 -0.6137808
-43.086708 29.635567 -0.65197134
-1.7681609 1.1844034 -0.57024664
-1.8235269 1.2214903 -0.56859452
-1.8956867 1.2698267 -0.57090181
-1.9431484 1.3016187 -0.56458265
-2.025671 1.3568965 -0.56715775
-2.1084402 1.4123396 -0.56814146
-2.1922753 1.4684966 -0.56774467
-2.2902749 1.5341417 -0.56919521
-2.3910937 1.6016753 -0.56935477
-2.5082982 1.6801847 -0.57123166
-2.6087856 1.7474962 -0.56712717
-2.754415 1.8450462 -0.5703755
-2.8826036 1.9309133 -0.56727272
-3.0521641 2.0444934 -0.56933451
-3.2366219 2.1680524 -0.57062942
-3.4297523 2.2974212 -0.56967568
-3.6593897 2.4512439 -0.57055652
-3.9193182 2.6253569 -0.57126111
-4.2296758 2.8332503 -0.57360804
-4.5651283 3.0579531 -0.57289624
-4.9816141 3.3369365 -0.57483047
-5.4616189 3.6584678 -0.57512426
-6.0470304 4.0506058 -0.57585895
-6.7772756 4.5397611 -0.57722348
-7.7101564 5.1646514 -0.5792073
-8.9539919 5.9978356 -0.58277303
-10.637947 7.1258335 -0.58569264
-13.12664 8.7928858 -0.59117395
-17.096291 11.451958 -0.59874105
-24.550732 16.445318 -0.61406386
-43.498383 29.137409 -0.65272981
-25.892138 17.343861 2.9877043
-24.98835 16.738457 3.1358881
-25.913992 17.3585 3.5143294
-1.7701129 1.1544359 -0.56625521
-1.8314383 1.1944312 -0.56643891
-1.8993293 1.2387086 -0.56736875
-1.9768183 1.2892455 -0.56971627
-2.0508502 1.3375278 -0.56955963
-2.1319208 1.3904005 -0.5698185
-2.2019584 1.4360777 -0.5656364
-2.3143942 1.5094064 -0.57053369
-2.4037662 1.5676932 -0.56773919
-2.526264 1.6475841 -0.57066613
-2.62499 1.7119714 -0.56603074
-2.7778718 1.8116782 -0.57057655
-2.9285202 1.9099283 -0.57164377
-3.0905085 2.0155742 -0.57182074
-3.2663023 2.1302238 -0.57120085
-3.4593284 2.2561119 -0.56993717
-3.6976964 2.4115713 -0.5718624
-3.942925 2.5715051 -0.57005
-4.2541656 2.7744908 -0.57225931
-4.6078191 3.0051372 -0.57357299
-5.0141668 3.2701497 -0.57390338
-5.5105777 3.5939 -0.57558268
-6.0895452 3.9714923 -0.57521355
-6.8383284 4.4598351 -0.5777089
-7.782074 5.0753293 -0.57987779
-9.0249424 5.8859053 -0.58263618
-10.726035 6.9953279 -0.58576232
-13.225797 8.6256275 -0.59081811
-17.238764 11.242813 -0.59884381
-24.766577 16.152317 -0.61444837
-43.918056 28.64257 -0.6536929
-24.674454 16.092236 3.0714314
-1.7715133 1.1245475 -0.56223714
-1.8506953 1.1748118 -0.56788397
-1.9183246 1.2177426 -0.56852698
-1.98655 1.2610517 -0.56800902
-2.0604553 1.3079664 -0.56771755
-2.1445971 1.3613791 -0.56868935
-2.2275712 1.4140507 -0.56770635
-2.3233097 1.474825 -0.56821787
-2.4224899 1.537784 -0.5676524
-2.5330114 1.6079426 -0.56768101
-2.656141 1.6861047 -0.56823421
-2.806767 1.7817212 -0.57196832
-2.9440982 1.8688984 -0.57015568
-3.1015251 1.968832 -0.56933659
-3.2878089 2.0870841 -0.57043076
-3.4966595 2.2196615 -0.57154763
-3.7212355 2.3622212 -0.57096744
-3.9910412 2.5334923 -0.57245916
-4.2896924 2.7230747 -0.57249075
-4.6421051 2.9467843 -0.57328701
-5.0444288 3.2021773 -0.57281697
-5.5512409 3.5238993 -0.57526052
-6.1566377 3.9082019 -0.57696801
-6.901371 4.3809547 -0.57844007
-7.8467393 4.9810696 -0.5800885
-9.1006021 5.7770157 -0.58289057
-10.810602 6.8625145 -0.58572799
-13.335819 8.4655094 -0.59103817
-17.39209 11.040409 -0.59940881
-24.968534 15.849896 -0.61457705
-44.328629 28.139585 -0.65460426
-24.389587 15.482384 3.0120459
-1.8010647 1.1124762 -0.56723166
-1.8473994 1.141096 -0.56252456
-1.9516947 1.2055168 -0.57398015
-2.0111771 1.2422576 -0.57063979
-2.0774698 1.2832053 -0.5680151
-2.1610889 1.3348547 -0.56866693
-2.2332954 1.3794551 -0.56479949
-2.3406308 1.4457537 -0.56806332
-2.441401 1.507997 -0.56769574
-2.5493588 1.5746801 -0.56696236
-2.668602 1.648334 -0.56652105
-2.8100584 1.7357084 -0.56824678
-2.9531398 1.8240863 -0.56751996
-3.1280789 1.9321423 -0.56980669
-3.312417 2.0460036 -0.57029212
-3.5223773 2.1756911 -0.57133514
-3.7531488 2.3182335 -0.57144701
-4.023777 2.4853945 -0.5727278
-4.335083 2.677681 -0.57411087
-4.6884499 2.8959472 -0.57456928
-5.1063685 3.1540861 -0.57540286
-5.5897579 3.4526646 -0.5748089
-6.1955485 3.8268476 -0.57616109
-6.9505472 4.2931929 -0.57809335
-7.9107418 4.8862829 -0.58033431
-9.1686382 5.6632562 -0.58274388
-10.907049 6.7370329 -0.58642083
-13.444605 8.3044224 -0.5912891
-17.541367 10.834897 -0.5999164
-25.206331 15.569369 -0.61567134
-44.711502 27.617264 -0.65519381
-24.099707 14.885834 2.953418
-23.132025 14.288118 3.0634584
-1.8145864 1.0902346 -0.56722516
-1.8780354 1.1283559 -0.56758535
-1.9457033 1.1690118 -0.56794769
-2.0139575 1.2100202 -0.56716418
-2.0938632 1.2580289 -0.56822479
-2.1596253 1.2975398 -0.56404078
