# .PCD v0.7 - Point Cloud Data file format
VERSION 0.7
FIELDS x y z
SIZE 4 4 4
TYPE F F F
COUNT 1 1 1
WIDTH 1479
HEIGHT 1
VIEWPOINT 0 0 0 1 0 0 0
POINTS 1479
DATA ascii
-21.199739 20.244173 -0.60914558
-37.320354 35.638165 -0.64335048
-20.433548 19.51252 2.9458339
-19.190742 18.325733 2.989795
-1.5389453 1.4338185 -0.56359684
-1.5985637 1.4893644 -0.56601101
-1.660027 1.5466291 -0.56769419
-1.7222687 1.604619 -0.56823367
-1.78327 1.6614532 -0.56696534
-1.8683143 1.740688 -0.57167548
-1.9329669 1.8009242 -0.56844288
-2.0094614 1.8721933 -0.56709754
-2.0958214 1.952654 -0.56668937
-2.1972544 2.047158 -0.56822175
-2.3100302 2.1522298 -0.57024854
-2.4217939 2.2563589 -0.56947291
-2.5473731 2.3733597 -0.56925124
-2.6783338 2.4953742 -0.56732088
-2.8458772 2.6514726 -0.56974798
-3.0140958 2.8082001 -0.56849468
-3.2307825 3.0100849 -0.57200813
-3.4516642 3.2158778 -0.57129067
-3.7090621 3.4556928 -0.57118487
-3.9967785 3.7237549 -0.56955743
-4.3825254 4.0831509 -0.57424682
-4.7931104 4.4656882 -0.57314193
-5.3215942 4.9580712 -0.57546663
-5.9583049 5.5512877 -0.57625669
-6.7814488 6.3182015 -0.57849252
-7.8570256 7.3203049 -0.58069134
-9.3411884 8.703083 -0.58400762
-11.512939 10.72648 -0.58877903
-14.983983 13.960414 -0.59589386
-21.465532 19.999201 -0.60967052
-37.812027 35.229053 -0.64430982
-20.236776 18.854383 2.8838239
-19.0466 17.745508 2.9331214
-1.5519906 1.4107268 -0.56197906
-1.6203841 1.4728949 -0.56728142
-1.6773109 1.5246402 -0.56715071
-1.7315646 1.5739558 -0.56487244
-1.8081694 1.6435878 -0.56841314
-1.8838712 1.7123991 -0.56994963
-1.9609816 1.782491 -0.57019258
-2.0443931 1.8583102 -0.57046384
-2.1233726 1.9301009 -0.56767875
-2.2251756 2.0226376 -0.56896746
-2.3244188 2.1128478 -0.56734407
-2.4490025 2.2260916 -0.56939119
-2.5752957 2.3408895 -0.56901556
-2.7233319 2.4754512 -0.57036161
-2.8766234 2.61479 -0.56942338
-3.0650253 2.7860434 -0.57159585
-3.2577004 2.9611809 -0.57028407
-3.4911468 3.1733787 -0.57132381
-3.7595928 3.4173906 -0.57245195
-4.0533867 3.6844428 -0.57112485
-4.4225931 4.0200438 -0.57297641
-4.8601065 4.4177346 -0.57461399
-5.3847933 4.8946633 -0.57574886
-6.0226836 5.4744925 -0.57592899
-6.8640757 6.2393003 -0.57895255
-7.9512529 7.2275209 -0.58104312
-9.4473743 8.5874643 -0.58400035
-11.638964 10.579573 -0.58852655
-15.15817 13.778456 -0.59603804
-21.726866 19.749262 -0.6101495
-38.30735 34.820572 -0.64540529
-20.058495 18.232748 2.8262551
-18.916237 17.19446 2.8802683
-1.5859067 1.4063357 -0.56795537
-1.6414031 1.4555483 -0.568331
-1.6954044 1.503435 -0.56697482
-1.7608296 1.5614523 -0.56811273
-1.82687 1.6200149 -0.56798679
-1.9113585 1.6949369 -0.57191694
-1.9722469 1.7489309 -0.56717211
-2.0640774 1.8303636 -0.56963313
-2.1560509 1.9119228 -0.57008678
-2.2622831 2.0061264 -0.57210487
-2.3666964 2.0987172 -0.57132107
-2.4707589 2.1909969 -0.56814271
-2.6096303 2.3141439 -0.57027143
-2.7409401 2.4305856 -0.567747
-2.8978913 2.5697653 -0.56733543
-3.1019461 2.750715 -0.57213008
-3.3035457 2.9294879 -0.57196039
-3.5420356 3.1409738 -0.57328779
-3.799227 3.3690436 -0.57213563
-4.1000915 3.6358414 -0.57136303
-4.4714265 3.9651303 -0.57294297
-4.9060149 4.3505106 -0.57367349
-5.4424524 4.8262081 -0.57552505
-6.0986347 5.4080911 -0.57678914
-6.9300342 6.1453514 -0.57809848
-8.0382299 7.1280675 -0.58095002
-9.5490131 8.4677858 -0.58380258
-11.780581 10.446675 -0.58914745
-15.331663 13.595671 -0.5962413
-21.981928 19.492931 -0.61053491
-38.801464 34.408005 -0.64655292
-19.89139 17.639103 2.7719395
-18.789083 16.66161 2.8294978
-1.6009228 1.384865 -0.5671916
-1.6599811 1.435953 -0.56860685
-1.7096663 1.4789327 -0.56561989
-1.7897302 1.5481914 -0.57125187
-1.8453417 1.5962976 -0.5675841
-1.9159623 1.6573874 -0.56715351
-1.990447 1.7218199 -0.56627458
-2.07409 1.7941746 -0.56626499
-2.1626525 1.8707846 -0.56570703
-2.2719121 1.9652989 -0.5683856
-2.377615 2.0567362 -0.56780869
-2.4998152 2.1624446 -0.5686667
-2.6351779 2.2795389 -0.56968582
-2.7907085 2.4140794 -0.57186377
-2.9446211 2.5472202 -0.5703088
-3.1223211 2.7009382 -0.56971931
-3.3310015 2.8814554 -0.57053638
-3.5662065 3.0849175 -0.57101709
-3.8250136 3.3087966 -0.56984878
-4.1508431 3.5906527 -0.57223946
-4.5330558 3.9212825 -0.57461798
-4.964673 4.2946496 -0.57431406
-5.5079603 4.7646155 -0.57621324
-6.1611705 5.3296695 -0.57646179
-7.0187101 6.0714774 -0.57922405
-8.1344013 7.0365968 -0.58160317
-9.6593447 8.3557367 -0.5842222
-11.915711 10.307588 -0.58952212
-15.506652 13.413901 -0.59658682
-22.229439 19.229393 -0.61079586
-39.2728 33.97261 -0.64739698
-19.746952 17.081938 2.7223349
-18.677017 16.156401 2.7824934
-1.6114368 1.3596823 -0.56495047
-1.6721755 1.4109318 -0.56679821
-1.7382753 1.4667048 -0.56907499
-1.7891008 1.5095898 -0.56508332
-1.8683524 1.57646 -0.56865633
-1.9374043 1.6347239 -0.56750745
-2.0226486 1.7066505 -0.56942236
-2.103056 1.7744957 -0.56817299
-2.1863708 1.8447944 -0.56593472
-2.2884922 1.9309614 -0.56655049
-2.4008315 2.0257499 -0.56736147
-2.5185268 2.1250577 -0.56693614
-2.6636882 2.2475405 -0.56983155
-2.8123403 2.3729687 -0.57027406
-2.9706864 2.5065765 -0.56934452
-3.1599352 2.6662591 -0.57055724
-3.3668962 2.8408864 -0.57065797
-3.5936859 3.0322449 -0.56940383
-3.8739479 3.2687216 -0.57110775
-4.2020426 3.5455582 -0.57324409
-4.5661831 3.8528092 -0.57276851
-5.0195279 4.2353282 -0.57459164
-5.5589004 4.6904345 -0.57546508
-6.238811 5.2641225 -0.57762605
-7.0799642 5.9738626 -0.57817328
-8.2115908 6.9286952 -0.58098662
-9.77672 8.2493048 -0.58514196
-12.046214 10.164235 -0.58975053
-15.684141 13.23381 -0.59710956
-22.495504 18.981035 -0.61164713
-39.747341 33.537621 -0.64837247
-19.738388 16.654663 2.4759252
-19.603977 16.54125 2.674381
-18.56131 15.66148 2.7363579
-1.6261458 1.338213 -0.56429559
-1.6835457 1.3854493 -0.56483501
-1.7465007 1.4372573 -0.56593925
-1.8177757 1.495912 -0.56828743
-1.884926 1.5511723 -0.56785238
-1.9609975 1.6137742 -0.56856275
-2.0313706 1.6716869 -0.56604809
-2.1229849 1.7470794 -0.56771022
-2.2255557 1.8314885 -0.57020497
-2.3180957 1.9076431 -0.56802917
-2.4330564 2.002248 -0.56911552
-2.550987 2.0992975 -0.56838924
-2.6880946 2.2121282 -0.56919062
-2.8360624 2.3338962 -0.56922191
-2.9970775 2.4664011 -0.56854701
-3.1848199 2.6209011 -0.56918836
-3.4052472 2.8022985 -0.57127452
-3.6458895 3.0003316 -0.57178646
-3.9252226 3.2302046 -0.57276785
-4.2460999 3.4942658 -0.57334942
-4.6039839 3.7887812 -0.57162297
-5.0611448 4.1649952 -0.57344961
-5.6208248 4.6255755 -0.57594395
-6.2925558 5.1783671 -0.57666302
-7.1647534 5.8961296 -0.57913297
-8.3012905 6.8314261 -0.5813458
-9.873868 8.125555 -0.58493203
-12.162776 10.009179 -0.589387
-15.855689 13.048207 -0.59748703
-22.750858 18.722486 -0.61228424
-40.221371 33.09959 -0.64941663
-20.665064 17.006012 2.3414412
-20.257988 16.671015 2.5151982
-19.473131 16.025129 2.6294503
-18.445829 15.179725 2.6916122
-1.6419742 1.317714 -0.56412286
-1.6946402 1.3599794 -0.56290406
-1.7833104 1.4311389 -0.57212138
-1.8356037 1.4731052 -0.56815511
-1.895202 1.5209339 -0.5652712
-1.9897025 1.5967722 -0.57114941
-2.0623438 1.6550683 -0.56896484
-2.1439071 1.7205242 -0.56760466
-2.2330503 1.7920634 -0.56643659
-2.3556809 1.8904766 -0.57149959
-2.4501445 1.9662852 -0.56741416
-2.5822525 2.0723042 -0.56963485
-2.7193928 2.1823618 -0.5700925
-2.8565347 2.2924209 -0.56763029
-3.0317571 2.4330399 -0.56940722
-3.210223 2.576262 -0.56802374
-3.445514 2.7650871 -0.57228243
-3.6759706 2.9500327 -0.57077187
-3.9525023 3.1719546 -0.57101387
-4.2782712 3.4333899 -0.57194948
-4.6631174 3.7422361 -0.57320827
-5.1299543 4.1168809 -0.57546669
-5.6713853 4.5513892 -0.57534653
-6.3696856 5.1117878 -0.57792729
-7.2342052 5.8055801 -0.57893264
-8.3893986 6.7326441 -0.5816744
-9.9844608 8.0127106 -0.58560252
-12.294043 9.8661909 -0.58982444
-16.03282 12.866628 -0.5981546
-22.992634 18.452003 -0.61263841
-40.684727 32.650227 -0.65036649
-21.095949 16.92988 2.3664961
-20.987722 16.843025 2.5798912
-19.341658 15.52203 2.5857294
-18.343225 14.720771 2.6500268
-1.6720687 1.3083934 -0.5688917
-1.7271466 1.3514919 -0.56813854
-1.7965385 1.4057909 -0.57077628
-1.8461983 1.4446498 -0.56589317
-1.9086546 1.4935218 -0.56376338
-2.0096748 1.5725701 -0.57128859
-2.0824556 1.6295211 -0.56894237
-2.1559021 1.6869931 -0.56524569
-2.2578187 1.7667426 -0.56716573
-2.3618386 1.8481383 -0.56743729
-2.4742925 1.9361334 -0.56745011
-2.6015337 2.0356996 -0.56832331
-2.7365117 2.1413198 -0.56811839
-2.8924944 2.2633762 -0.56920242
-3.0623322 2.3962741 -0.56957251
-3.2492545 2.542541 -0.56935507
-3.4788039 2.7221632 -0.57220876
-3.7159216 2.9077079 -0.57138026
-3.9950852 3.1261535 -0.57156914
-4.3355374 3.3925574 -0.57398492
-4.7092538 3.6849902 -0.57326627
-5.1695533 4.0451746 -0.57428557
-5.733007 4.4860768 -0.57595825
-6.4265623 5.0287838 -0.57743371
-7.3054652 5.7165251 -0.57896632
-8.4764996 6.6328592 -0.58201456
-10.072828 7.8819857 -0.5850566
-12.429143 9.7258015 -0.59052378
-16.192554 12.670671 -0.59825599
-23.239017 18.184526 -0.613199
-41.139034 32.191284 -0.65125191
-19.222221 15.041385 2.5448437
-18.252722 14.28275 2.6113815
-1.6812328 1.2825503 -0.56660104
-1.7495307 1.3346523 -0.57006007
-1.8113759 1.3818318 -0.57004875
-1.8609893 1.41968 -0.56503332
-1.94889 1.4867362 -0.57020479
-2.0194492 1.5405633 -0.56863916
-2.0883687 1.5931393 -0.56516296
-2.1949613 1.6744549 -0.57004493
-2.2792904 1.7387866 -0.56714571
-2.3881936 1.8218647 -0.56834394
-2.5041869 1.9103518 -0.56887573
-2.629709 2.006108 -0.5690465
-2.7858896 2.1252522 -0.57290083
-2.9207621 2.2281415 -0.56933051
-3.0958238 2.3616896 -0.57035732
-3.2823718 2.5040002 -0.56971973
-3.4969797 2.6677167 -0.56975967
-3.7469203 2.8583872 -0.5706991
-4.0426602 3.0839961 -0.57290679
-4.3852634 3.3453555 -0.57507867
-4.7618427 3.6326339 -0.57418698
-5.2354913 3.993963 -0.57611126
-5.7908392 4.4176173 -0.57626742
-6.4905481 4.9513993 -0.57766861
-7.3803926 5.630229 -0.57937384
-8.5538244 6.5253973 -0.58177048
-10.179267 7.7653871 -0.58564848
-12.544677 9.5698709 -0.59037745
-16.342121 12.4668 -0.59807295
-23.48155 17.913208 -0.61374003
-41.591854 31.728889 -0.65219462
-19.087011 14.560775 2.5030496
-18.141209 13.839258 2.5708869
-1.6956885 1.2608993 -0.56620479
-1.766409 1.3134865 -0.57025391
-1.8267974 1.3583907 -0.56960225
-1.8877006 1.4036777 -0.56785989
-1.9612455 1.4583652 -0.56853002
-2.0403743 1.5172045 -0.56923491
-2.1189575 1.5756384 -0.56815481
-2.1961799 1.6330603 -0.56510359
-2.3017526 1.7115632 -0.56745511
-2.4087286 1.7911097 -0.56794649
-2.5307636 1.8818539 -0.56961334
-2.6580575 1.9765085 -0.56987858
-2.7983897 2.0808585 -0.57016653
-2.9456942 2.1903925 -0.56889719
-3.1243238 2.32322 -0.57030183
-3.3189917 2.4679735 -0.57076532
-3.5422881 2.6340146 -0.57182139
-3.7792721 2.8102338 -0.57032025
-4.0880189 3.0398154 -0.57399428
-4.4231148 3.2889895 -0.57469535
-4.8041449 3.5723205 -0.57394767
-5.2776499 3.9244149 -0.57539672
-5.8515482 4.3511605 -0.57694083
-6.5544214 4.8738112 -0.57797587
-7.4579139 5.54564 -0.58006239
-8.6430464 6.4268947 -0.58241975
-10.276491 7.6415095 -0.58579177
-12.668179 9.4199476 -0.59069371
-16.510744 12.277246 -0.59867388
-23.710323 17.630791 -0.61400664
-42.035297 31.257082 -0.65307188
-20.986139 15.60511 2.5071986
-18.975748 14.110202 2.4655192
-18.04221 13.41603 2.5332868
-1.7172036 1.2444038 -0.56823647
-1.7809438 1.2905945 -0.56977987
-1.8378304 1.3318183 -0.56789315
-1.9078108 1.382531 -0.56875247
-1.9743468 1.4307475 -0.56718504
-2.0546327 1.4889282 -0.56806201
-2.1466582 1.5556161 -0.57041013
-2.2302935 1.6162241 -0.56872463
-2.3150063 1.6776128 -0.5655942
-2.4343958 1.7641307 -0.56884068
-2.54918 1.8473113 -0.5686028
-2.6781707 1.9407867 -0.56903118
-2.8242118 2.0466182 -0.57025701
-2.9822707 2.1611586 -0.5707857
-3.1511459 2.2835371 -0.5700292
-3.3514063 2.4286597 -0.57116079
-3.577853 2.5927584 -0.57237267
-3.823782 2.7709754 -0.57185197
-4.1031089 2.9733949 -0.57093614
-4.4466372 3.2223394 -0.57256007
-4.8491073 3.5139968 -0.57411367
-5.3271146 3.8603938 -0.57557076
-5.8910341 4.2690487 -0.57561475
-6.6041441 4.7858171 -0.57712746
-7.510119 5.442349 -0.57887399
-8.7240133 6.3220205 -0.58259326
-10.36794 7.5133224 -0.58569396
-12.779376 9.2608147 -0.5905242
-16.679504 12.087116 -0.5993585
-23.945831 17.352797 -0.61453325
-42.48246 30.785715 -0.65408838
-18.840712 13.653276 2.425977
-17.961208 13.015926 2.4992521
-1.7315696 1.2226276 -0.56797254
-1.7981726 1.2696546 -0.57025391
-1.8545345 1.3094507 -0.56803638
-1.9137815 1.3512839 -0.56553614
-1.9864053 1.4025621 -0.56565189
-2.0796947 1.4684319 -0.56995583
-2.1566753 1.5227865 -0.56805336
-2.2472281 1.5867242 -0.56802469
-2.3581953 1.6650758 -0.57110053
-2.4507756 1.7304449 -0.56765312
-2.5808313 1.8222748 -0.57062149
-2.7085698 1.9124684 -0.57045043
-2.8372989 2.0033615 -0.56788248
-2.9926867 2.1130779 -0.56776333
-3.1837194 2.2479625 -0.57087815
-3.3699329 2.3794441 -0.56928873
-3.5982537 2.540657 -0.57059532
-3.8631084 2.7276657 -0.57267398
-4.1509027 2.9308717 -0.57252854
-4.4888973 3.169523 -0.57293987
-4.8918056 3.4540086 -0.57409704
-5.3735485 3.794158 -0.57550341
-5.938796 4.1932683 -0.5751999
-6.6698251 4.7094336 -0.57776296
-7.5860548 5.3563657 -0.57960647
-8.8151083 6.2241764 -0.58352137
-10.470221 7.3928189 -0.58629227
-12.905318 9.1121941 -0.59112155
-16.839863 11.8903 -0.59982163
-24.179852 17.072924 -0.61510485
-42.917667 30.303329 -0.65500242
-13.6288 9.6230307 0.4854463
-13.606573 9.607336 0.62324214
-13.609493 9.6093988 0.76207954
-13.607867 9.6082506 0.90078098
-13.57431 9.5845566 1.0371344
-13.632931 9.625947 1.1809309
-18.730431 13.225192 2.3906562
-17.853556 12.606049 2.4625173
-1.7558342 1.2076844 -0.57101732
-1.8078946 1.2434921 -0.56844497
-1.8827455 1.2949755 -0.57175672
-1.9402491 1.3345271 -0.56846523
-2.0083342 1.3813568 -0.5670166
-2.077651 1.4290339 -0.56453729
-2.1758409 1.49657 -0.56821138
-2.2631357 1.5566126 -0.56716454
-2.3639393 1.6259465 -0.56760675
-2.4798584 1.705677 -0.56948829
-2.6068807 1.7930446 -0.57146293
-2.7271593 1.8757737 -0.56946468
-2.8635938 1.9696149 -0.56825495
-3.0390968 2.090328 -0.57164842
-3.2185409 2.2137518 -0.57219762
-3.4099519 2.3454068 -0.57113397
-3.6261127 2.4940848 -0.57010674
-3.8887777 2.6747491 -0.57156038
-4.1848526 2.8783929 -0.57228601
-4.5403523 3.12291 -0.57456267
-4.9292827 3.3904214 -0.57355922
-5.4150972 3.7245703 -0.5750047
-6.0059423 4.1309609 -0.57673985
-6.7269588 4.6268845 -0.57773995
-7.6581764 5.2673879 -0.58012432
-8.8835621 6.1102233 -0.58303511
-10.555004 7.2598615 -0.58599669
-13.019124 8.9547129 -0.59124607
-16.984304 11.682014 -0.59980458
-24.416069 16.793673 -0.61581421
-43.343765 29.812374 -0.65586102
-13.698849 9.4222364 0.20728566
-13.72372 9.4393425 0.34613523
-13.836506 9.5169191 0.48863935
-13.978062 9.6142826 0.63479495
-14.062584 9.6724176 0.78073186
-14.058202 9.669404 0.92265075
-13.971142 9.6095228 1.0583458
-13.810017 9.4986992 1.1860633
-13.676619 9.4069462 1.3133411
-13.626612 9.372551 1.4469483
-20.79294 14.30164 2.4194155
-18.394276 12.651808 2.3277187
-17.767847 12.220943 2.4297848
-1.7613907 1.1798683 -0.5680632
-1.8211334 1.2198869 -0.56784821
-1.8847115 1.2624748 -0.5675965
-1.9550043 1.3095604 -0.56802744
-2.0345945 1.362874 -0.56965619
-2.1082702 1.4122256 -0.56809562
-2.1956079 1.4707289 -0.56860769
-2.2891767 1.533406 -0.56892228
-2.4014447 1.6086088 -0.57181948
-2.4958112 1.6718203 -0.56838793
-2.6192966 1.7545369 -0.56941217
-2.7509315 1.8427126 -0.56965411
-2.9009371 1.943194 -0.57088065
-3.0511463 2.0438116 -0.56914467
-3.2265866 2.1613305 -0.56886017
-3.4421093 2.3056984 -0.57172817
-3.6682553 2.4571824 -0.57193887
-3.9219882 2.6271455 -0.57165027
-4.2210588 2.8274782 -0.57243949
-4.5682673 3.060056 -0.57329017
-4.9735193 3.3315141 -0.57389641
-5.4588594 3.6566195 -0.57483369
-6.0487857 4.0517817 -0.57602614
-6.7818985 4.5428576 -0.57761723
-7.7156997 5.1683645 -0.5796237
-8.9564676 5.9994941 -0.58293414
-10.650805 7.1344461 -0.58640051
-13.142802 8.8037119 -0.59190178
-17.141478 11.482226 -0.60032362
-24.625965 16.495714 -0.61594564
-43.764317 29.315548 -0.6567204
-13.976071 9.3618774 -0.069904357
-13.746275 9.2079487 0.068754978
-13.863176 9.2862549 0.20802863
-14.318161 9.5910263 0.35812643
-15.274537 10.231655 0.53494018
-15.296968 10.24668 0.68891722
-15.307313 10.253611 0.84277356
-15.265474 10.225584 0.99355751
-15.163452 10.157245 1.1391186
-15.022743 10.062991 1.2794935
-14.283894 9.5680723 1.3602557
-13.809608 9.250371 1.4541916
-13.667159 9.154953 1.577059
-18.503405 12.394514 2.3220663
-17.67979 11.842815 2.3976471
-1.7774439 1.159217 -0.56860036
-1.839698 1.199818 -0.56899351
-1.9065835 1.2434396 -0.56953573
-1.9741577 1.2875103 -0.56894952
-2.0480638 1.3357105 -0.56878579
-2.1208909 1.383207 -0.56687039
-2.2155249 1.4449257 -0.56912136
-2.313138 1.5085872 -0.57022399
-2.4124105 1.5733309 -0.56978089
-2.5242324 1.6462591 -0.57020718
-2.6458974 1.7256068 -0.570539
-2.7613828 1.8009243 -0.56718969
-2.9181502 1.9031652 -0.5696196
-3.0705049 2.0025282 -0.56811953
-3.2602115 2.1262515 -0.57013571
-3.4557173 2.253757 -0.56934226
-3.7006357 2.4134881 -0.572317
-3.9516313 2.5771832 -0.57130873
-4.26055 2.7786543 -0.57311809
-4.6152177 3.0099621 -0.57449394
-5.0341387 3.283175 -0.57618922
-5.5054698 3.5905688 -0.57504916
-6.106236 3.9823778 -0.57679015
-6.8368168 4.4588494 -0.57758123
-7.794745 5.0835929 -0.58082199
-9.0332985 5.8913555 -0.58317566
-10.72761 6.9963546 -0.58584827
-13.240108 8.6349611 -0.59145743
-17.280695 11.27016 -0.60030043
-24.84775 16.205257 -0.61646223
-44.181389 28.81431 -0.65761244
-13.844132 9.0288954 -0.06868393
-13.868096 9.0445242 0.068802819
-15.785711 10.295157 0.23496047
-15.884521 10.3596 0.39408827
-15.96121 10.409615 0.55446386
-15.985655 10.425557 0.71410555
-15.970383 10.415598 0.87216276
-15.892659 10.364907 1.0260053
-15.784282 10.294226 1.1761588
-15.617464 10.18543 1.3193792
-15.390247 10.037243 1.4537505
-15.10831 9.8533688 1.5780708
-13.768239 8.9793987 1.5758628
-13.872823 9.0476065 1.7268639
-17.596428 11.476075 2.3670256
-1.7805623 1.1302917 -0.56510907
-1.8379624 1.166729 -0.56397688
-1.9123408 1.2139441 -0.56675363
-1.9888889 1.2625364 -0.56867778
-2.0586896 1.3068454 -0.567231
-2.1410522 1.359129 -0.56774938
-2.2293611 1.415187 -0.5681625
-2.3252456 1.4760538 -0.56869131
-2.4350915 1.5457835 -0.57060534
-2.5422165 1.6137859 -0.56974405
-2.6637318 1.6909233 -0.56985813
-2.7897534 1.7709211 -0.56850123
-2.9357014 1.8635682 -0.56852955
-3.0997982 1.967736 -0.56901968
-3.2865267 2.0862701 -0.57020831
-3.4957213 2.2190659 -0.57139426
-3.7325227 2.3693862 -0.57269931
-3.99951 2.5388684 -0.5736739
-4.2812467 2.7177131 -0.57136357
-4.6474504 2.9501774 -0.57394713
-5.0586796 3.2112238 -0.57443517
-5.5493698 3.5227113 -0.57506657
-6.1594419 3.909982 -0.57723081
-6.8923736 4.3752432 -0.57768595
-7.8542047 4.9858084 -0.58064038
-9.1142578 5.7856841 -0.58376521
-10.828904 6.8741326 -0.58671957
-13.366393 8.4849176 -0.59239322
-17.441725 11.071917 -0.6011194
-25.069014 15.913681 -0.61705023
-14.255348 9.049222 -0.21050982
-13.875548 8.8081264 -0.068297282
-14.011241 8.8942633 0.068965182
-16.407797 10.415585 0.24229519
-16.52269 10.488518 0.40669051
-16.589249 10.530769 0.57173932
-16.608231 10.542819 0.73607016
-16.571594 10.519563 0.89786369
-16.494167 10.470412 1.056446
-16.371321 10.39243 1.210288
-16.186588 10.275163 1.3566829
-15.956535 10.129127 1.4953634
-15.614529 9.9120226 1.6180925
-13.902235 8.8250666 1.5786595
-13.81758 8.7713289 1.7064327
-17.512705 11.116975 2.3371983
-1.797068 1.1100075 -0.56597292
-1.8611269 1.1495752 -0.56670451
-1.9268315 1.1901594 -0.56666809
-2.0047941 1.2383151 -0.5688287
-2.0815279 1.2857118 -0.56912464
-2.1502886 1.3281838 -0.56582499
-2.2436306 1.3858389 -0.56741327
-2.3415189 1.4463022 -0.56827879
-2.4482405 1.5122217 -0.56928611
-2.5597582 1.5811037 -0.56927514
-2.6530516 1.6387289 -0.56321985
-2.8277225 1.7466191 -0.57181883
-2.9746184 1.8373532 -0.57164764
-3.1238618 1.9295374 -0.56903851
-3.3185909 2.0498171 -0.5713551
-3.5255194 2.1776321 -0.57184482
-3.7545693 2.3191109 -0.57166332
-4.0192232 2.4825816 -0.5720796
-4.3212829 2.6691568 -0.57228321
-4.6816406 2.8917415 -0.57373482
-5.0915523 3.1449344 -0.57373333
-5.5974326 3.4574051 -0.57559812
-6.2036858 3.8318737 -0.57691783
-6.9586315 4.2981863 -0.57876575
-7.9177203 4.8905931 -0.58084625
-9.18892 5.6757836 -0.58403295
-10.917125 6.7432561 -0.58696252
-13.468987 8.3194828 -0.59236145
-17.5833 10.860799 -0.60135055
-25.278727 15.614086 -0.61743957
-14.30091 8.8333426 -0.20956279
-13.964026 8.6252575 -0.068205588
-13.976858 8.6331835 0.068268262
-16.972267 10.483378 0.24870837
-17.097197 10.560544 0.41760355
-17.174278 10.608155 0.58736193
-17.193192 10.619838 0.75615066
-17.148203 10.59205 0.92197835
-17.040874 10.525756 1.0830907
-16.893127 10.434495 1.2392846
-16.682747 10.304548 1.3875433
-16.39566 10.127222 1.5247304
-16.077126 9.9304695 1.6532513
-13.856087 8.5585852 1.5613507
-13.939639 8.6101933 1.7083021
-14.575809 9.0031404 1.9303274
-1.8197767 1.093353 -0.5688476
-1.8795055 1.1292391 -0.56802964
-1.9379491 1.164353 -0.56568426
-2.0118027 1.2087256 -0.56655735
-2.0971653 1.2600129 -0.56912088
-2.1814368 1.3106446 -0.56973743
-2.2713358 1.3646575 -0.57013309
-2.3585181 1.4170381 -0.5681327
-2.4622762 1.4793777 -0.56827694
-2.5851381 1.5531952 -0.57062882
-2.7051663 1.6253103 -0.56999749
-2.8454287 1.7095823 -0.57110512
-2.9983628 1.8014678 -0.5719105
-3.1527934 1.8942523 -0.57002258
-3.3464634 2.0106125 -0.57185405
-3.552321 2.1342952 -0.57189202
-3.7833924 2.2731271 -0.57175285
-4.050344 2.4335158 -0.57220668
-4.3628469 2.621273 -0.57347566
-4.7216091 2.8368237 -0.57431465
-5.1412902 3.0889752 -0.57501441
-5.6402273 3.3887451 -0.5756703
-6.2464418 3.7529693 -0.57655877
-7.0124063 4.2131739 -0.57888567
-7.9769611 4.792695 -0.58082491
-9.2548618 5.5604792 -0.58383423
-11.017988 6.6197958 -0.58796453
-13.574468 8.1557722 -0.59254503
-17.714172 10.642978 -0.60130513
-25.477726 15.307453 -0.61765599
-14.496544 8.7097721 -0.21084423
-14.106672 8.4755306 -0.068388104
-13.969588 8.3931675 0.067723535
-17.480963 10.502862 0.25425094
-17.6341 10.594869 0.42750314
-17.716681 10.644485 0.6013903
-17.708914 10.639818 0.77301955
-17.640099 10.598473 0.94134712
-17.519625 10.526091 1.105209
-17.360306 10.430369 1.2640525
-17.119696 10.285806 1.413259
-16.821203 10.106467 1.5526298
-16.463423 9.8915062 1.6803406
-13.920046 8.3634024 1.5568517
-14.217851 8.5423288 1.7293936
-14.881808 8.9412451 1.9561436
-1.8344136 1.0716729 -0.56926072
-1.8871574 1.102486 -0.56620228
-1.9690849 1.1503484 -0.57060063
-2.026057 1.1836318 -0.56642991
-2.1022506 1.2281444 -0.56635982
-2.1983395 1.2842801 -0.56998438
-2.286139 1.3355728 -0.56968337
-2.3820653 1.3916134 -0.56963968
-2.480907 1.4493573 -0.56842065
-2.5897272 1.5129305 -0.56749243
-2.7201138 1.589103 -0.56898671
-2.8716834 1.6776507 -0.57219094
-3.0128295 1.7601089 -0.57049859
-3.1920214 1.8647935 -0.57292587
-3.3623683 1.964311 -0.57040125
-3.5697653 2.0854733 -0.57052881
-3.8045852 2.2226562 -0.57078207
-4.1008816 2.3957536 -0.57514101
-4.3846207 2.5615156 -0.57215428
-4.747478 2.7734983 -0.57326961
-5.1848159 3.0289931 -0.57567322
-5.6868162 3.322264 -0.57621223
-6.2973728 3.6789541 -0.57704055
-7.0618882 4.1255875 -0.57873887
-8.02384 4.6875639 -0.57999748
-9.3299694 5.4506106 -0.58430004
-11.074758 6.4699244 -0.58670413
-13.67581 7.9894705 -0.59263557
-17.856117 10.431625 -0.60172373
-25.686245 15.006022 -0.61819106
-14.835695 8.6670809 -0.21421073
-14.349789 8.3832121 -0.069061756
-14.14297 8.2623882 0.068066388
-14.017938 8.1893435 0.20240323
-14.04346 8.2042542 0.33798406
-18.296368 10.688822 0.61655951
-18.293503 10.687148 0.79274136
-18.200518 10.632826 0.96420342
-18.003206 10.517556 1.1274716
-17.759703 10.375299 1.2837472
-17.503679 10.22573 1.434469
-13.973406 8.1633282 1.2804105
-13.985872 8.1706104 1.4171076
-14.20618 8.2993155 1.5773206
-15.503086 9.0569744 1.8720357
-15.583563 9.1039896 2.0335174
-1.8434668 1.0467739 -0.56803274
-1.9187652 1.0895306 -0.57162273
-1.9686408 1.1178514 -0.56644595
-2.0517561 1.1650467 -0.56956655
-2.1205566 1.2041136 -0.56725973
-2.2047088 1.2518977 -0.56760156
-2.2975936 1.3046404 -0.56849724
-2.4054387 1.3658779 -0.57116956
-2.506119 1.4230472 -0.57014483
-2.6128583 1.4836568 -0.56852043
-2.7434847 1.5578303 -0.56982535
-2.8837435 1.6374732 -0.57053882
-3.0326593 1.722032 -0.57020068
-3.2026043 1.8185318 -0.57076865
-3.3951938 1.9278896 -0.57190502
-3.5973041 2.0426538 -0.5708726
-3.8393037 2.1800683 -0.57192576
-4.109406 2.3334401 -0.57226914
-4.4281526 2.5144334 -0.57375681
-4.7839179 2.7164476 -0.57359302
-5.2110286 2.9589732 -0.57450032
-5.723762 3.2501183 -0.57586282
-6.3420215 3.6011839 -0.57703054
-7.1069369 4.0355253 -0.57832032
-8.1029024 4.6010628 -0.58157879
-9.3797503 5.3260946 -0.58327204
-11.178792 6.3476429 -0.58803606
-13.789021 7.8298068 -0.59332448
-17.975332 10.206916 -0.60146624
-25.890331 14.701282 -0.61870533
-15.448874 8.7723188 -0.2214901
-14.749367 8.3751192 -0.070483848
-14.469838 8.2163944 0.069148049
-14.277469 8.1071606 0.2046957
-14.184925 8.0546122 0.33897939
-14.103199 8.0082054 0.47190213
-14.066348 7.9872808 0.60525751
-14.03625 7.97019 0.7383464
-14.04158 7.973217 0.87316406
-14.053833 7.9801741 1.0087017
-14.075723 7.9926038 1.1453986
-14.202673 8.0646896 1.2922341
-14.398266 8.1757536 1.4485972
-14.948137 8.4879866 1.6479876
-16.36286 9.2913065 1.9619111
-16.497047 9.3675032 2.1375265
-1.8577578 1.0248889 -0.56851012
-1.9197189 1.0590717 -0.56798422
-1.986456 1.0958892 -0.56765169
-2.0551715 1.1337981 -0.56660157
-2.1336806 1.1771101 -0.56685567
-2.2300346 1.2302667 -0.57018387
-2.3161013 1.277748 -0.56914592
-2.4188404 1.3344271 -0.5704124
-2.5162287 1.3881544 -0.56851852
-2.6324465 1.4522696 -0.56885397
-2.7752233 1.5310367 -0.57246399
-2.8927965 1.5958996 -0.56840444
-3.0524642 1.6839851 -0.56998801
-3.226603 1.7800542 -0.57110155
-3.4143221 1.8836151 -0.57118243
-3.6234822 1.9990047 -0.57108295
-3.8798993 2.140465 -0.57400888
-4.1558518 2.2927027 -0.57476765
-4.4504404 2.4552214 -0.57268959
-4.8178177 2.6578965 -0.57369554
-5.2552843 2.8992381 -0.57540554
-5.7677264 3.1819427 -0.57630593
-6.3786817 3.5189948 -0.5763855
-7.1515288 3.9453595 -0.57795745
-8.1619215 4.5027738 -0.58179694
-9.4545565 5.2158947 -0.58389133
-11.248452 6.2055526 -0.58764201
-13.87716 7.6557593 -0.59302145
-18.11875 9.9957619 -0.60210675
-26.082489 14.389202 -0.61902225
-46.519367 25.663832 -0.66237253
-15.436837 8.5162029 -0.073263146
-15.027943 8.2906237 0.071322538
-14.773979 8.1505165 0.21036136
-14.630211 8.0712032 0.34722248
-14.541824 8.0224419 0.48324147
-14.493103 7.9955635 0.61934298
-14.458754 7.9766135 0.75535464
-14.444456 7.9687257 0.89205587
-14.483824 7.9904442 1.0324337
-14.595043 8.0518017 1.179512
-14.825899 8.1791611 1.3396865
-15.411249 8.5020866 1.5398779
-17.252127 9.517663 1.8889501
-16.984764 9.3701639 2.0225098
-16.885622 9.3154697 2.1728683
-1.8730845 1.0035045 -0.56938118
-1.9283397 1.0331074 -0.56673342
-2.0006111 1.0718268 -0.56788749
-2.0641682 1.1058775 -0.56529021
-2.1541562 1.1540886 -0.56848228
-2.2330699 1.1963665 -0.56715572
-2.3403041 1.2538173 -0.57126164
-2.4214225 1.2972764 -0.56721669
-2.5479388 1.3650575 -0.57184738
-2.6510718 1.4203109 -0.5690617
-2.7708282 1.4844704 -0.56774908
-2.9202075 1.5645003 -0.56996733
-3.080853 1.6505661 -0.57145596
-3.2318859 1.7314819 -0.56822515
-3.4371088 1.8414299 -0.57116324
-3.6529987 1.9570931 -0.57189888
-3.8830073 2.0803201 -0.57064104
-4.1604247 2.2289462 -0.57156622
-4.4806032 2.4004819 -0.57272935
-4.8562307 2.6017241 -0.5744167
-5.2903709 2.8343146 -0.57538772
-5.8105044 3.1129763 -0.57671195
-6.4344769 3.4472692 -0.57755321
-7.2222595 3.8693235 -0.57978463
-8.2076645 4.3972535 -0.58115929
-9.508069 5.0939455 -0.58328372
-11.321519 6.0655007 -0.58751833
-13.973875 7.4864998 -0.59317565
-18.244053 9.7742462 -0.6022312
-26.278486 14.078691 -0.61951846
-46.890915 25.121794 -0.66321427
-16.362148 8.766016 -0.077137254
-15.828864 8.4803095 0.07462316
-15.55225 8.3321133 0.21996742
-15.386571 8.243351 0.36274025
-15.271518 8.1817112 0.50410867
-15.22781 8.1582947 0.64640379
-15.197349 8.1419754 0.78865039
-15.226653 8.1576757 0.93409699
-15.318061 8.2066469 1.0846245
-15.563197 8.3379784 1.2493739
-16.093805 8.6222515 1.4445664
-18.288664 9.7981462 1.8152108
-18.331793 9.8212528 1.99379
-17.518431 9.3854942 2.0721586
-17.011158 9.1137228 2.1744368
-1.8757061 0.97541857 -0.56648928
-1.9425622 1.0101856 -0.56721979
-2.0147178 1.0477084 -0.56819183
-2.0912383 1.0875012 -0.5689984
-2.1803629 1.1338484 -0.57167566
-2.2558768 1.1731178 -0.56924146
-2.3567197 1.2255588 -0.57154685
-2.435868 1.2667181 -0.56690896
-2.5550406 1.3286911 -0.56973135
-2.6812351 1.3943156 -0.57181281
-2.7958212 1.4539036 -0.56916398
-2.945816 1.5319051 -0.57124579
-3.0938327 1.6088778 -0.57015085
-3.2505546 1.6903774 -0.56781006
-3.4627235 1.800711 -0.57169706
-3.6631405 1.9049335 -0.56977636
-3.9215624 2.03932 -0.57257861
-4.1984792 2.1833241 -0.57306266
-4.5059986 2.3432429 -0.57224917
-4.8999529 2.5481098 -0.57583869
-5.3157187 2.7643192 -0.57440418
-5.8414459 3.0377121 -0.57603204
-6.4742432 3.3667836 -0.57736295
-7.2497091 3.7700474 -0.57822299
-8.2501516 4.2903047 -0.58038837
-9.5841522 4.9840217 -0.58414727
-11.408327 5.9326425 -0.58819294
-14.069857 7.3167109 -0.59338599
-18.378628 9.5573902 -0.60274857
-26.452303 13.755922 -0.61958164
-47.239887 24.566036 -0.66382742
-16.571901 8.6178427 0.23287274
-16.315559 8.4845371 0.38215277
-16.209202 8.4292288 0.5315997
-16.161156 8.4042435 0.68158501
-16.152184 8.3995781 0.83277774
-16.236349 8.443347 0.98959404
-16.511177 8.5862646 1.1615417
-20.104118 10.454692 1.7928541
-19.719389 10.254622 1.9445525
-18.156221 9.4417324 1.9619192
-17.381981 9.0391064 2.042717
-16.943596 8.8111334 2.1517889
-1.8933382 0.95519835 -0.56822413
-1.9583106 0.98797721 -0.56822795
-2.0178339 1.018007 -0.56549764
-2.1111031 1.0650618 -0.57079679
-2.173753 1.096669 -0.56636405
-2.2655716 1.1429919 -0.56809831
-2.3537338 1.1874702 -0.56723869
-2.4751046 1.2487023 -0.57242382
-2.5640473 1.2935743 -0.56814986
-2.6892269 1.356728 -0.56991625
-2.8124173 1.4188782 -0.56894767
-2.9714851 1.4991287 -0.57260549
-3.1101019 1.5690615 -0.56955034
-3.2851763 1.6573874 -0.57025468
-3.4890137 1.7602243 -0.57242078
-3.7010317 1.8671885 -0.57205558
-3.9436913 1.9896114 -0.57219416
-4.2259083 2.1319911 -0.57318485
-4.5370002 2.2889388 -0.57256854
-4.9277844 2.4860911 -0.57547331
-5.3581429 2.7032092 -0.57535315
-5.8703642 2.9616272 -0.57524902
-6.508482 3.2835608 -0.57677203
-7.3144474 3.6901743 -0.57972348
-8.3146362 4.1947746 -0.58125222
-9.6424961 4.8646865 -0.58401328
-11.487928 5.7957158 -0.58857816
-14.162871 7.1452374 -0.59355843
-18.500443 9.3335638 -0.60293406
-26.643154 13.441601 -0.62013364
-47.593147 24.010973 -0.66459227
-18.656921 9.412508 0.60803372
-18.755098 9.462038 0.78601629
-20.98102 10.585027 2.0559731
-17.961117 9.061471 1.9286506
-17.273195 8.7144108 2.0171871
-16.871521 8.5117645 2.1291826
-1.8968208 0.92787486 -0.56580228
-1.97735 0.96726769 -0.5702582
-2.0348797 0.99540967 -0.56680155
-2.1097856 1.0320518 -0.56696647
-2.1987422 1.0755669 -0.56938589
-2.2735937 1.1121824 -0.56663781
-2.3796473 1.164061 -0.56999099
-2.4869394 1.2165455 -0.57165807
-2.5883117 1.2661341 -0.57003355
-2.6907983 1.316268 -0.56677634
-2.8333218 1.3859866 -0.56968582
-2.9859316 1.4606392 -0.57188505
-3.1204019 1.5264186 -0.56795639
-3.3079174 1.6181463 -0.57070512
-3.5006938 1.7124475 -0.57083923
-3.7253726 1.8223544 -0.57231104
-3.9643464 1.9392542 -0.571688
-4.2499537 2.0789657 -0.57293558
-4.5689807 2.2350252 -0.57309276
-4.9406714 2.4168468 -0.57346439
-5.3941493 2.6386762 -0.57569188
-5.9150176 2.8934715 -0.57609463
-6.5589228 3.2084527 -0.57770211
-7.3662701 3.6033857 -0.58027506
-8.3610201 4.0899916 -0.58093506
-9.7028112 4.7463608 -0.58408731
-11.553791 5.6518111 -0.58834749
-14.259593 6.9754186 -0.59397238
-18.634314 9.1154165 -0.60359836
-26.818077 13.118699 -0.62040347
-47.933277 23.447701 -0.66526544
-19.289095 9.4357185 1.6989604
-18.728937 9.1617041 1.8241094
-17.801195 8.7078772 1.8998369
-17.134594 8.381793 1.9888145
-16.788473 8.2124805 2.1057987
-17.099092 8.3644266 2.305126
-1.92581 0.91288394 -0.57105798
-1.9771827 0.93723595 -0.56684345
-2.0492496 0.97139752 -0.56743419
-2.1211379 1.0054743 -0.56665176
-2.2043087 1.0448995 -0.56745726
-2.2939801 1.087406 -0.56834316
-2.3755848 1.1260889 -0.56565851
-2.4834764 1.1772323 -0.56749165
-2.6085613 1.2365258 -0.57110137
-2.7181957 1.2884953 -0.56916684
-2.8459778 1.3490673 -0.56885213
-2.9869132 1.4158744 -0.56869555
-3.1536949 1.4949331 -0.57062715
-3.3257031 1.5764697 -0.57038611
-3.532357 1.6744289 -0.57260162
-3.7486081 1.7769375 -0.57248056
-3.9916167 1.8921299 -0.57222211
-4.26828 2.0232756 -0.57200897
-4.6092596 2.1849089 -0.57473165
-4.9904437 2.3655999 -0.57582158
-5.413908 2.5663331 -0.57438934
-5.9491491 2.820051 -0.57599795
-6.597054 3.1271749 -0.5776301
-7.409297 3.5121989 -0.58021855
-8.4160233 3.9894133 -0.58130431
-9.7719965 4.6321802 -0.58477908
-11.621276 5.5087862 -0.5882901
-14.348625 6.801621 -0.59415227
-18.744286 8.8852777 -0.60357583
-27.00828 12.802626 -0.62111473
-48.274227 22.883236 -0.66604179
-20.071501 9.5144119 1.5717897
-19.509861 9.2481804 1.7082598
-18.709621 8.8688459 1.8114698
-17.639006 8.3613462 1.8714128
-17.048077 8.0812311 1.9670898
-16.707676 7.9198718 2.0832911
-16.980003 8.0489626 2.275557
-1.9276319 0.88488656 -0.56832868
-1.9910238 0.91398692 -0.56754655
-2.055439 0.94355696 -0.56589258
-2.1359918 0.98053503 -0.56735611
-2.2250378 1.0214119 -0.56951725
-2.324743 1.0671819 -0.57267034
-2.3900208 1.0971479 -0.56584072
-2.5086021 1.1515832 -0.56995422
-2.6207428 1.2030618 -0.57048643
-2.7280877 1.2523388 -0.56797069
-2.8611777 1.3134344 -0.56861913
-3.0176694 1.3852724 -0.57126504
-3.1693442 1.4548993 -0.57017863
-3.3473103 1.5365952 -0.57080817
-3.5386519 1.6244314 -0.57034099
-3.7738457 1.7323979 -0.57303822
-4.0132976 1.8423191 -0.57203937
-4.3004975 1.9741595 -0.57303005
-4.6256981 2.1234441 -0.57348228
-5.0097508 2.2997448 -0.57474291
-5.4518294 2.5026827 -0.57510412
-5.991569 2.750452 -0.57678694
-6.6278234 3.042527 -0.57700479
-7.4419203 3.4162412 -0.57943988
-8.4647923 3.8857944 -0.58132863
-9.8329859 4.5138688 -0.58506304
-11.687183 5.3650451 -0.58824241
-14.435952 6.6268778 -0.59434915
-18.849815 8.6530781 -0.60350215
-27.170692 12.472808 -0.62127566
-48.586525 22.303825 -0.66651624
-20.899069 9.5937958 1.6272352
-20.732172 9.5171814 1.8049008
-18.322121 8.4108381 1.7638052
-17.496229 8.0317097 1.8456473
-16.921991 7.7681031 1.941373
-16.649891 7.6431947 2.0642111
-16.876478 7.7472095 2.2487464
-1.9320605 0.85831708 -0.5664798
-2.0032926 0.8899619 -0.56788146
-2.0648558 0.91731137 -0.56533694
-2.1367021 0.94922894 -0.56440169
-2.2395694 0.99492782 -0.57006228
-2.3161688 1.028957 -0.56739855
-2.4146464 1.0727057 -0.56850505
-2.5212297 1.1200553 -0.56965095
-2.6325881 1.1695261 -0.56989133
-2.7693267 1.2302723 -0.57336354
-2.8801172 1.2794908 -0.56921327
-3.0278254 1.3451102 -0.57001334
-3.1904147 1.4173404 -0.57079071
-3.3730519 1.4984769 -0.57201242
-3.5680842 1.5851198 -0.57189995
-3.7807136 1.6795803 -0.57090187
-4.044353 1.7967021 -0.57327348
-4.3262696 1.9219434 -0.57327169
-4.6595697 2.0700119 -0.57448244
-5.0422201 2.2400043 -0.57526451
-5.4882684 2.4381609 -0.57574189
-6.0185552 2.6737406 -0.57617623
-6.673902 2.9648781 -0.57779872
-7.4990911 3.3314681 -0.58065778
-8.5211906 3.7855356 -0.58196104
-9.8802748 4.389308 -0.58462119
-11.754303 5.2218442 -0.58834434
-14.526862 6.4535527 -0.59477991
-18.967939 8.4264994 -0.60392094
-27.340191 12.145868 -0.62168932
-48.904343 21.725733 -0.66716087
-18.073553 8.0291691 1.7302412
-17.331722 7.6996102 1.8181688
-16.828758 7.4761686 1.9199849
-16.579067 7.3652439 2.0440478
-16.777466 7.4533825 2.2231734
-5.4694915 2.4298193 1.5504588
-4.9474401 2.1978981 1.4505887
-1.9488158 0.83722353 -0.56833106
-2.0111742 0.86401308 -0.56706107
-2.1006012 0.90243155 -0.57204229
-2.1592636 0.92763323 -0.56730539
-2.2417181 0.96305621 -0.56755191
-2.3358982 1.0035166 -0.56916571
-2.4231298 1.0409918 -0.56744564
-2.5353637 1.0892081 -0.56977516
-2.6306665 1.1301508 -0.56642419
-2.7648928 1.1878154 -0.56937844
-2.8890421 1.2411506 -0.56791794
-3.0423682 1.3070205 -0.56968248
-3.2106988 1.3793365 -0.57134211
-3.3871346 1.4551343 -0.57132304
-3.5747986 1.535756 -0.56990623
-3.8092504 1.6364779 -0.57212919
-4.0497737 1.7398082 -0.57096618
-4.3431101 1.8658274 -0.57241982
-4.6806226 2.0108249 -0.57398617
-5.0633764 2.1752584 -0.57458305
-5.5091906 2.3667831 -0.57484025
-6.0568142 2.6020455 -0.57673222
-6.7183628 2.886251 -0.57853156
-7.5133786 3.2277949 -0.57864708
-8.5716276 3.6824253 -0.58226913
-9.9191942 4.2613482 -0.58377939
-11.835242 5.0844946 -0.58922166
-14.597044 6.2709823 -0.59445125
-19.080257 8.1969995 -0.60424221
-27.493824 11.81152 -0.62183321
-49.222431 21.146267 -0.66790253
-17.842978 7.6654553 1.6990153
-17.210302 7.3936539 1.7957581
-16.729029 7.1868963 1.898381
-16.517548 7.0960426 2.0255518
-16.693933 7.1718187 2.2002523
-5.7502289 2.4703345 1.5107632
-5.1770296 2.2240844 1.4098247
-4.8318329 2.0757859 1.3623606
-4.5646615 1.9610074 1.3311874
-1.9536976 0.81101286 -0.56680357
-2.0242975 0.84032011 -0.56780493
-2.0885007 0.86697197 -0.56580102
-2.1744041 0.90263194 -0.56832421
-2.2650428 0.94025761 -0.5704869
-2.3527989 0.9766866 -0.57031435
-2.4444845 1.0147468 -0.56948137
-2.5469472 1.0572809 -0.56941366
-2.6687055 1.1078248 -0.57163829
-2.7730546 1.1511419 -0.56810129
-2.9052467 1.206017 -0.56814528
-3.071063 1.2748502 -0.57207698
-3.2167482 1.3353266 -0.5694536
-3.4041102 1.4131037 -0.57121235
-3.5998929 1.4943764 -0.57093424
-3.8302298 1.5899931 -0.57230037
-4.0752525 1.6917063 -0.57158238
-4.3810611 1.8186525 -0.57443082
-4.7193108 1.9590657 -0.57573289
-5.0792694 2.1084907 -0.57340109
-5.5468574 2.3025944 -0.57577264
-6.0815787 2.5245662 -0.57609075
-6.7320566 2.7945905 -0.57670808
-7.5608616 3.1386416 -0.57928783
-8.617856 3.5774176 -0.5823772
-9.9915133 4.147646 -0.58498979
-11.885571 4.9339018 -0.58866239
-14.6778 6.0930033 -0.59464383
-19.183918 7.9635692 -0.60437816
-27.667248 11.485143 -0.62251437
-49.527546 20.559721 -0.66856164
-17.629465 7.3182888 1.6699895
-17.06175 7.0826211 1.7710367
-16.642311 6.9085045 1.8787582
-16.457397 6.8317437 2.0077221
-16.615515 6.8973808 2.1785736
-6.146029 2.5513206 1.4897867
-5.4587126 2.2660038 1.3748631
-5.0759783 2.1071246 1.3267089
-4.780714 1.9845552 1.2951554
-4.5311399 1.8809528 1.2709612
-4.3282642 1.7967358 1.2557091
-1.9684126 0.78888994 -0.56821543
-2.0347331 0.8154695 -0.56787646
-2.1149921 0.84763533 -0.5701111
-2.1747248 0.87157464 -0.56556404
-2.2716286 0.9104113 -0.56928301
-2.3689969 0.94943404 -0.57136762
-2.461623 0.98655617 -0.5706048
-2.559649 1.0258425 -0.56939018
-2.6868055 1.0768037 -0.57263583
-2.7979157 1.1213338 -0.57032657
-2.927963 1.1734535 -0.56972277
-3.0574815 1.2253612 -0.56669736
-3.2351065 1.2965488 -0.56983811
-3.4183896 1.3700041 -0.57073843
-3.6153362 1.4489353 -0.57051462
-3.8465447 1.5415978 -0.57186252
-4.1003404 1.6433127 -0.57222372
-4.3985291 1.7628192 -0.57383567
-4.7272892 1.894578 -0.57382077
-5.1209989 2.0523667 -0.57521951
-5.573184 2.2335913 -0.57561094
-6.1047697 2.4466372 -0.57539421
-6.78548 2.7194488 -0.57837629
-7.6180739 3.0531313 -0.580751
-8.6579027 3.4698684 -0.58215612
-10.058286 4.0311065 -0.58595276
-11.957927 4.7924347 -0.58928275
-14.750063 5.9114518 -0.5945816
-19.296064 7.7333741 -0.60486966
-27.820118 11.1496 -0.62282211
-49.822601 19.967638 -0.66917956
-18.348568 7.353642 1.5639832
-17.445127 6.9915652 1.6442595
-16.938812 6.7886472 1.7494782
-16.558544 6.6362457 1.8599491
-16.381783 6.5654035 1.9884982
-16.545767 6.6311245 2.1585741
-6.6024981 2.6461141 1.468716
-5.7934694 2.321876 1.3429277
-5.3565545 2.1467717 1.291923
-5.0322299 2.0167904 1.2611053
-4.754425 1.9054533 1.2364471
-4.53234 1.8164471 1.2217243
-4.3195281 1.7311575 1.205543
-4.1630411 1.6684417 1.2017319
-1.9731994 0.76278591 -0.56684679
-2.0524073 0.79340553 -0.57004321
-2.1110482 0.81607455 -0.56630021
-2.1936464 0.84800482 -0.56773019
-2.2682059 0.87682748 -0.56568044
-2.3747087 0.91799861 -0.56997955
-2.4607215 0.95124882 -0.56764156
-2.5590346 0.98925412 -0.56650478
-2.6885114 1.0393064 -0.57023257
-2.8055155 1.084537 -0.56911433
-2.9289277 1.1322447 -0.56715852
-3.0960968 1.1968679 -0.57108366
-3.2416854 1.2531486 -0.56823975
-3.4383783 1.3291848 -0.57130378
-3.6430273 1.4082966 -0.57210845
-3.8608234 1.4924906 -0.57121372
-4.1260056 1.595003 -0.57302505
-4.408061 1.704038 -0.57230234
-4.7597866 1.8400058 -0.57497555
-5.1345787 1.9848903 -0.57395995
-5.5976424 2.1638982 -0.57534534
-6.1543961 2.3791242 -0.57727069
-6.8171349 2.6353214 -0.57826865
-7.6346612 2.951355 -0.57920504
-8.6990604 3.362823 -0.58209908
-10.106721 3.906987 -0.58593136
-12.009762 4.6426516 -0.58897936
-14.83879 5.7362776 -0.59526986
-19.388651 7.495132 -0.60483724
-27.958551 10.808025 -0.62289888
-50.104984 19.369242 -0.66972274
-17.976135 6.949091 1.5248392
-17.265875 6.6745238 1.6195064
-16.807354 6.4972715 1.7275188
-16.479174 6.3704062 1.8420956
-16.332659 6.3137674 1.9729624
-16.468117 6.3661318 2.1380696
-7.1025667 2.7456615 1.4407948
-6.2380881 2.4114773 1.3230968
-5.6955738 2.2017558 1.2608541
-5.3176918 2.0556769 1.2266902
-5.017065 1.9394625 1.2042001
-4.7672687 1.842898 1.1889356
-4.5565639 1.7614453 1.1792688
-4.3542066 1.6832193 1.1680397
-4.1869826 1.6185751 1.1629082
-4.0425839 1.5627544 1.161325
-1.9953125 0.74326581 -0.57053059
-2.0492561 0.7633602 -0.56651813
-2.125618 0.79180539 -0.56755388
-2.2199731 0.82695323 -0.57186872
-2.2950211 0.85490906 -0.56970328
-2.3776131 0.88567513 -0.56801975
-2.4649718 0.91821671 -0.56597465
-2.5835841 0.9624005 -0.56927657
-2.6843619 0.99994081 -0.56670165
-2.8308997 1.054527 -0.57159001
-2.9554942 1.1009393 -0.56963837
-3.1086328 1.1579843 -0.57072634
-3.2673035 1.2170901 -0.57006389
-3.4509323 1.2854929 -0.57072008
-3.6547236 1.3614063 -0.57127315
-3.8839991 1.446813 -0.57196718
-4.1502833 1.5460052 -0.57371318
-4.4369249 1.6527811 -0.57336783
-4.7687888 1.7764024 -0.57338101
-5.1566095 1.9208678 -0.57373887
-5.6299257 2.0971811 -0.57596946
-6.1791344 2.3017645 -0.57689267
-6.8594255 2.555177 -0.57914698
-7.6747422 2.8588874 -0.57953501
-8.7486229 3.2589142 -0.58269006
-10.142241 3.7780454 -0.58525312
-12.072514 4.4970837 -0.58930033
-14.902022 5.5510921 -0.59502327
-19.490814 7.2604446 -0.60519344
-28.093807 10.465112 -0.62299818
-50.394329 18.77219 -0.6704542
-17.712095 6.5978613 1.4954468
-17.10887 6.3731565 1.5973082
-16.691854 6.2178154 1.7076598
-16.41255 6.1137733 1.8261067
-16.252516 6.0541592 1.9541405
-16.414669 6.114562 2.1212084
-7.6850848 2.86274 1.4109355
-6.7492929 2.5141521 1.3008506
-6.1280661 2.2827413 1.2373244
-5.6660919 2.1106532 1.1961814
-5.317615 1.9808433 1.1717031
-5.0472331 1.8801246 1.1588799
-4.8066192 1.7904943 1.1483175
-4.5802803 1.7061818 1.1369833
-4.3938231 1.6367253 1.1318561
-4.2183313 1.5713536 1.126322
-4.0666075 1.5148356 1.1242162
-3.9429264 1.4687636 1.1274225
-1.9970117 0.71606266 -0.56845582
-2.0715292 0.74278218 -0.5701074
-2.1376061 0.76647526 -0.56819534
-2.2179468 0.79528266 -0.56878459
-2.2977469 0.82389647 -0.5678221
-2.3798814 0.85334718 -0.56601202
-2.4922554 0.89364076 -0.56967306
-2.5915561 0.92924672 -0.56847245
-2.7079256 0.97097301 -0.56911266
-2.8254251 1.0131044 -0.56792635
-2.9759996 1.0670955 -0.5710184
-3.1232574 1.1198972 -0.57083994
-3.2899878 1.1796813 -0.57144761
-3.4638524 1.2420235 -0.57028794
-3.675529 1.3179237 -0.57194883
-3.8965435 1.3971722 -0.57124132
-4.1620569 1.4923767 -0.5727607
-4.4651666 1.6010617 -0.57442981
-4.7985253 1.7205932 -0.57436913
-5.1863551 1.8596562 -0.57446074
-5.6575723 2.0286193 -0.57620227
-6.2058687 2.2252202 -0.57679039
-6.8774152 2.4660146 -0.57806194
-7.720118 2.7681801 -0.58034724
-8.7805271 3.1484079 -0.58219248
-10.187036 3.6527357 -0.58520186
-12.122737 4.3468146 -0.58909827
-14.988456 5.3743668 -0.59579068
-19.578865 7.0203366 -0.60520124
-28.249378 10.129297 -0.62363881
-50.647923 18.160679 -0.67080635
-18.707745 6.7079821 1.4063241
-17.489964 6.2713256 1.4700701
-16.967516 6.083993 1.5770074
-16.582674 5.9460015 1.6888825
-16.137407 5.7863426 1.7874416
-15.840925 5.6800342 1.8961114
-16.01387 5.7420468 2.0601346
-8.379262 3.0045276 1.37956
-7.3480873 2.6347823 1.2763108
-6.642345 2.3817263 1.2140261
-6.1043019 2.1888018 1.1712598
-5.6782904 2.0360479 1.1413684
-5.3558154 1.9204191 1.1256078
-5.0865898 1.8238838 1.1157721
-4.8339448 1.7332935 1.10493
-4.6388659 1.6633447 1.103271
-4.4413981 1.5925392 1.0975639
-4.2684116 1.530512 1.0946192
-4.1254621 1.479255 1.0965858
-3.9897192 1.430582 1.0980142
-3.8519454 1.3811809 1.0964687
-1.9950118 0.68778145 -0.56543642
-2.0831993 0.71818417 -0.5708456
-2.1570237 0.74363512 -0.57088292
-2.2223122 0.76614344 -0.56744528
-2.3065732 0.79519242 -0.56754398
-2.4041748 0.82884061 -0.56932276
-2.4841313 0.85640574 -0.56536627
-2.6027477 0.89729875 -0.5684641
-2.7135289 0.93549061 -0.56782973
-2.8511412 0.98293257 -0.5706228
-2.9923522 1.0316151 -0.57167888
-3.1280174 1.0783858 -0.56924331
-3.2936015 1.135471 -0.56960708
-3.4746337 1.1978821 -0.5695948
-3.68401 1.2700646 -0.57079524
-3.9273257 1.3539478 -0.57326996
-4.1763744 1.4398075 -0.57225132
-4.4751172 1.5427992 -0.57322603
-4.8152003 1.6600431 -0.57387835
-5.2067471 1.795029 -0.57423121
-5.6697488 1.9546492 -0.57495105
-6.2264276 2.1465645 -0.57620442
-6.9119773 2.3829081 -0.57846034
-7.7392445 2.6681089 -0.57927489
-8.8117847 3.0378678 -0.58174419
-10.239424 3.5300472 -0.58567345
-12.192357 4.2033224 -0.58992517
-15.061087 5.192318 -0.59609473
-19.660835 6.7780843 -0.60511297
-28.382624 9.7849255 -0.62387705
-50.91217 17.552 -0.67139685
-21.930958 7.5607104 1.4478574
-18.056812 6.2250962 1.3515348
-17.273792 5.9551497 1.4456362
-15.888274 5.4774919 1.4703285
-15.258235 5.2602854 1.5472887
-14.907195 5.1392641 1.6440547
-14.631964 5.0443778 1.7438458
-14.424957 4.9730124 1.8477194
-14.24163 4.9098096 1.9514033
-9.202774 3.1726618 1.3433248
-8.0624437 2.7795322 1.2491835
-7.2724848 2.5071933 1.1921746
-6.6427975 2.2901082 1.1488289
-6.1407027 2.1170108 1.1174983
-5.7270818 1.9744147 1.0941397
-5.4043331 1.863147 1.0816146
-5.1344781 1.7701143 1.0744346
-4.8919296 1.6864955 1.0684425
-4.6866484 1.6157247 1.0666395
-4.4954028 1.5497928 1.064538
-4.3347106 1.4943939 1.0665774
-4.1760316 1.4396894 1.0663081
-4.0312881 1.3897889 1.0669302
-3.8922725 1.3418632 1.0665742
-3.7770426 1.3021376 1.0705087
-2.0089936 0.66507876 -0.56703842
-2.0808685 0.68887299 -0.56784278
-2.1653097 0.71682733 -0.57069993
-2.2363765 0.74035406 -0.5686689
-2.3111808 0.76511806 -0.56632
-2.4072516 0.79692233 -0.56768793
-2.5131471 0.83197916 -0.56959856
-2.6234381 0.86849099 -0.57060742
-2.7314441 0.90424651 -0.56920886
-2.8549781 0.94514251 -0.5690217
-2.997246 0.99224043 -0.57023972
-3.1567543 1.0450457 -0.5720911
-3.3088384 1.0953933 -0.5698697
-3.5024557 1.1594905 -0.5717752
-3.6877487 1.2208319 -0.56900555
-3.9417188 1.3049088 -0.57298541
-4.1977401 1.3896648 -0.57279414
-4.4831576 1.4841524 -0.57187504
-4.8416748 1.6028398 -0.57464117
-5.2257771 1.7299972 -0.57394046
-5.7071676 1.8893619 -0.57634604
-6.2591343 2.0720909 -0.57682967
-6.9261117 2.2928941 -0.57724005
-7.7911396 2.5792623 -0.58074141
-8.8719587 2.9370682 -0.58328843
-10.286159 3.4052401 -0.58590734
-12.234123 4.0501151 -0.58949178
-15.102519 4.9996996 -0.59525633
-19.765528 6.5433917 -0.60581297
-28.509771 9.43818 -0.62407362
-51.161777 16.937143 -0.67189127
-16.978239 5.6206584 0.96709329
-15.939556 5.2768011 1.0479487
-15.402639 5.0990548 1.1480927
-15.016933 4.9713664 1.2515501
-14.713414 4.8708863 1.3559597
-14.445171 4.782084 1.4587651
-14.21082 4.7045021 1.5607564
-12.998643 4.3032098 1.5427628
-10.249355 3.3930564 1.3074157
-8.9319038 2.956913 1.2187848
-7.9924736 2.6459141 1.1618207
-7.2732124 2.4078021 1.122229
-6.68993 2.2147062 1.0921297
-6.2186866 2.0587006 1.0710226
-5.8089733 1.9230647 1.0527465
-5.5057259 1.8226744 1.0474894
