# .PCD v0.7 - Point Cloud Data file format
VERSION 0.7
FIELDS x y z
SIZE 4 4 4
TYPE F F F
COUNT 1 1 1
WIDTH 1468
HEIGHT 1
VIEWPOINT 0 0 0 1 0 0 0
POINTS 1468
DATA ascii
4.0314698 7.9302578 -0.55524474
4.6341085 9.1157017 -0.55296689
5.458406 10.737167 -0.55097002
6.6358371 13.053278 -0.54790789
8.4706087 16.662436 -0.54387856
11.69265 23.000475 -0.53618205
18.883249 37.14502 -0.51950204
0.92755324 1.8814949 -0.56207824
0.96165031 1.9506592 -0.56341016
0.99548435 2.0192897 -0.56330842
1.0260059 2.0812011 -0.56012946
1.0660402 2.1624086 -0.56082261
1.1124424 2.2565334 -0.5632351
1.1538606 2.3405478 -0.56147224
1.2042452 2.4427507 -0.56234854
1.2569903 2.5497413 -0.56238699
1.3181646 2.6738303 -0.5640527
1.3744899 2.7880833 -0.56143641
1.4401027 2.9211757 -0.56032741
1.5124993 3.0680285 -0.55926692
1.6016994 3.2489662 -0.56138092
1.695839 3.439924 -0.56177682
1.7991836 3.6495533 -0.56150985
1.9121239 3.8786469 -0.56017411
2.0406682 4.1393924 -0.55887353
2.1924512 4.4472766 -0.55866963
2.3700192 4.8074646 -0.55884564
2.5686612 5.2103996 -0.55692095
2.8130639 5.7061582 -0.55659193
3.114949 6.3185172 -0.55736786
3.4665592 7.0317402 -0.55475909
3.9278166 7.9673777 -0.55442017
4.5196714 9.1679258 -0.5527218
5.3228693 10.797172 -0.55064881
6.4806094 13.145589 -0.54839629
8.2698383 16.77495 -0.54419076
11.423374 23.171738 -0.53685933
18.460688 37.446575 -0.52050537
0.89890033 1.8813534 -0.55869168
0.9336623 1.9541085 -0.56104803
0.96253872 2.0145454 -0.5586409
0.99894452 2.0907409 -0.55934876
1.0426277 2.1821678 -0.56257957
1.0877258 2.2765555 -0.56485152
1.1200714 2.3442533 -0.55901486
1.1684241 2.4454534 -0.5596208
1.2232095 2.5601163 -0.56131536
1.26774 2.6533165 -0.5563947
1.3395448 2.8036003 -0.56120175
1.4051044 2.9408131 -0.56073767
1.4793699 3.0962472 -0.56105244
1.5537395 3.251899 -0.55854428
1.6468043 3.4466791 -0.55953068
1.7481749 3.6588426 -0.55958945
1.8680398 3.909714 -0.56130105
1.9862353 4.1570911 -0.55792338
2.1350727 4.4686003 -0.55800813
2.3070638 4.8285689 -0.55795902
2.5115595 5.2565684 -0.55851251
2.7504716 5.7565994 -0.55817091
3.0282927 6.3380651 -0.55576545
3.3858583 7.086432 -0.55574727
3.8311434 8.0183916 -0.55464995
4.4123597 9.234848 -0.55344355
5.1984973 10.880195 -0.5515812
6.3244667 13.236793 -0.54891527
8.0711718 16.892559 -0.54474527
11.152733 23.342112 -0.53758866
18.020187 37.715351 -0.52112198
0.88065439 1.9029692 -0.56185251
0.91393501 1.9748839 -0.56374365
0.94356984 2.0389204 -0.56214029
0.9744513 2.1056509 -0.56008971
1.0141902 2.1915209 -0.56173331
1.0572916 2.284657 -0.56359327
1.091835 2.3593006 -0.55935925
1.1442642 2.4725926 -0.56256902
1.192306 2.5764041 -0.56162953
1.2443141 2.688786 -0.56058174
1.3020227 2.8134861 -0.55993348
1.3670774 2.9540603 -0.56001592
1.4374714 3.1061716 -0.5596056
1.5090474 3.2608371 -0.55685019
1.6092281 3.4773135 -0.56124908
1.6969931 3.6669612 -0.55759752
1.8126287 3.9168334 -0.55908102
1.9402369 4.1925769 -0.55944163
2.0842137 4.5036902 -0.5591473
2.2434261 4.8477249 -0.55694276
2.440012 5.2725191 -0.55697727
2.6734495 5.7769451 -0.55691403
2.9554946 6.3864045 -0.55677533
3.3038561 7.139164 -0.55665457
3.7362511 8.0735083 -0.55524254
4.3024306 9.2969418 -0.5539524
5.0675054 10.95016 -0.55192745
6.1667895 13.325557 -0.5494101
7.8714666 17.009123 -0.54534161
10.879247 23.508509 -0.53829926
17.59741 38.025505 -0.52237809
0.8598718 1.9196409 -0.56361043
0.88870484 1.98401 -0.56318671
0.91592562 2.0447795 -0.56060815
0.95610857 2.1344869 -0.56458998
0.98635429 2.2020097 -0.56127053
1.022157 2.2819381 -0.55977964
1.0611504 2.3689902 -0.55852073
1.1108181 2.479872 -0.56107503
1.1610963 2.5921168 -0.56189996
1.2116055 2.7048771 -0.56078798
1.2683363 2.8315272 -0.56037772
1.3357476 2.9820209 -0.56216031
1.4031727 3.1325457 -0.56120622
1.4762801 3.2957561 -0.55967098
1.5607656 3.4843676 -0.55924773
1.6572074 3.6996715 -0.55943048
1.7681999 3.9474595 -0.56030661
1.8869267 4.2125134 -0.5589636
2.031842 4.5360332 -0.5600186
2.1880467 4.8847561 -0.55806386
2.3818817 5.3174877 -0.55859143
2.6057312 5.8172259 -0.55766618
2.8798215 6.4291253 -0.55737042
3.2127423 7.1723619 -0.55612075
3.6288157 8.1012344 -0.5540387
4.1865435 9.3463478 -0.55378693
4.9392185 11.026674 -0.55268097
6.0079532 13.412597 -0.5499112
7.6688647 17.120537 -0.54584908
10.600135 23.664518 -0.53884619
17.161116 38.311737 -0.5233717
0.83291978 1.9224885 -0.56139696
0.86128652 1.9879627 -0.56125998
0.8882997 2.0503128 -0.55908817
0.92673868 2.139035 -0.56273615
0.95766443 2.2104156 -0.56036919
0.99916977 2.3062153 -0.56267864
1.0388246 2.3977439 -0.56224567
1.0830215 2.4997561 -0.5625183
1.1259587 2.598861 -0.56031823
1.1772951 2.7173522 -0.56033063
1.2432197 2.8695149 -0.56482762
1.2941434 2.9870534 -0.56006676
1.3668451 3.1548586 -0.56215006
1.437831 3.3187034 -0.56052303
1.5125107 3.4910738 -0.55729687
1.6148345 3.7272506 -0.56055582
1.7222986 3.975292 -0.56120872
1.8339286 4.2329488 -0.5586406
1.9679008 4.5421743 -0.55774707
2.1337719 4.9250269 -0.55962479
2.3075116 5.3260403 -0.55646712
2.533294 5.8471761 -0.55750895
2.7957053 6.4528561 -0.55640537
3.1226902 7.2075801 -0.55583215
3.5394068 8.1694174 -0.5556832
4.0720253 9.3987703 -0.55388439
4.8055868 11.091928 -0.552948
5.8445206 13.489923 -0.55009347
7.4626102 17.224688 -0.54620272
10.319562 23.818907 -0.53943151
16.720285 38.592621 -0.52436054
0.81136465 1.9377091 -0.56288564
0.83606762 1.9967051 -0.56078327
0.87178898 2.082015 -0.56476706
0.89839047 2.1455452 -0.56150019
0.93772876 2.2394931 -0.56477487
0.97364807 2.3252761 -0.56436539
1.0046982 2.39943 -0.5597018
1.052866 2.5144651 -0.56287229
1.10086 2.6290848 -0.56387341
1.1473265 2.7400565 -0.56206071
1.1988502 2.8631058 -0.56062198
1.2633505 3.0171463 -0.56275386
1.3247213 3.1637127 -0.56078279
1.3907957 3.3215125 -0.55806679
1.4781497 3.5301318 -0.56058794
1.5698005 3.7490132 -0.56088334
1.6719277 3.9929144 -0.5607518
1.7877845 4.2696047 -0.56053466
1.9161541 4.5761786 -0.55898708
2.0732255 4.9512982 -0.55967087
2.2540157 5.3830628 -0.55948675
2.4594116 5.8735914 -0.55710196
2.7181926 6.4916148 -0.55682325
3.035661 7.2497959 -0.55616707
3.4388628 8.2127266 -0.55571085
3.95929 9.455616 -0.55432338
4.6723061 11.158448 -0.5533582
5.6776223 13.559355 -0.55003625
7.2539802 17.324028 -0.54648304
10.038724 23.974581 -0.5401206
16.276804 38.872425 -0.52540308
0.79055047 1.9551371 -0.56508178
0.81612945 2.0183973 -0.56401455
0.84254599 2.083729 -0.56237912
0.86827451 2.1473591 -0.55913848
0.89744896 2.2195115 -0.55691057
0.94348341 2.3333607 -0.56346923
0.98342294 2.4321368 -0.56446767
1.0200484 2.5227163 -0.56186908
1.0649269 2.6337068 -0.56201369
1.1088734 2.7423923 -0.55970061
1.1630666 2.8764195 -0.56038618
1.2185029 3.0135207 -0.55924064
1.291096 3.1930532 -0.56312686
1.3643831 3.3743021 -0.56407487
1.4272153 3.5296946 -0.55768943
1.5190578 3.7568331 -0.55921644
1.6199704 4.0064039 -0.55980641
1.7276845 4.2727952 -0.55812222
1.8575902 4.5940695 -0.55834007
2.0065541 4.9624772 -0.55810332
2.1829033 5.398612 -0.55827081
2.3951275 5.923471 -0.55899727
2.6446619 6.5406032 -0.55819362
2.950088 7.2959628 -0.55688375
3.3336546 8.2445736 -0.55505008
3.8479183 9.5164175 -0.55507201
4.5392542 11.226184 -0.55390739
5.5198474 13.651322 -0.55097193
7.0469079 17.427946 -0.54698634
9.7581167 24.133131 -0.54094845
15.825163 39.137745 -0.52631927
0.75940299 1.9466423 -0.55988532
0.78635794 2.015738 -0.56052703
0.81772667 2.0961483 -0.56297463
0.846178 2.16908 -0.56204247
0.87462682 2.2420053 -0.55981374
0.90788454 2.3272576 -0.55925727
0.95014423 2.4355855 -0.56251395
0.98610216 2.5277596 -0.56024933
1.0339035 2.6502929 -0.56279755
1.0774529 2.7619267 -0.56094098
1.1301998 2.8971372 -0.56167239
1.1838425 3.0346441 -0.56041688
1.2419969 3.1837163 -0.55874455
1.3131435 3.3660924 -0.55996084
1.3892165 3.5610967 -0.55990964
1.4740677 3.7786031 -0.55971658
1.5663633 4.015192 -0.55830091
1.6801606 4.3068986 -0.55983591
1.8048427 4.6265068 -0.55954278
1.9461653 4.988771 -0.55832684
2.1211915 5.4374304 -0.55954546
2.3241847 5.9577799 -0.55949569
2.5606906 6.5640359 -0.55746406
2.8621662 7.336834 -0.55727488
3.2395673 8.3042583 -0.55634433
3.7280493 9.5564251 -0.55468976
4.3965549 11.270062 -0.55336314
5.3540421 13.724471 -0.55122542
6.8376493 17.527527 -0.54743153
9.4686928 24.271906 -0.54140836
15.369962 39.399132 -0.52725291
0.73874938 1.964712 -0.56242722
0.76449287 2.0331771 -0.56271976
0.79056758 2.1025231 -0.56203336
0.8166002 2.1717572 -0.56009191
0.85344434 2.2697444 -0.56407702
0.87963021 2.339386 -0.55953026
0.91970134 2.4459558 -0.56225461
0.96053261 2.5545468 -0.56352603
0.99397147 2.6434779 -0.55871266
1.042793 2.7733192 -0.56060821
1.0929363 2.9066758 -0.56087381
1.1471176 3.050772 -0.56074792
1.2070765 3.2102332 -0.56075102
1.269819 3.3770976 -0.55915183
1.3467108 3.5815921 -0.56048602
1.4292735 3.8011682 -0.56041336
1.518932 4.0396161 -0.55905765
1.6244349 4.3202024 -0.55892652
1.7502621 4.6548409 -0.56032437
1.8920141 5.0318322 -0.56050003
2.0463216 5.442215 -0.55740631
2.2467546 5.9752679 -0.5585013
2.4796178 6.5945706 -0.55742568
2.7738423 7.3770638 -0.55769771
3.1379178 8.3453264 -0.55646861
3.6169846 9.6194096 -0.55572206
4.2568274 11.321078 -0.55325609
5.1890783 13.80041 -0.55167097
6.6316657 17.636986 -0.54826182
9.1830235 24.42235 -0.54220444
14.918606 39.676193 -0.52846575
0.71267241 1.9684983 -0.56096005
0.7367726 2.0350664 -0.56069285
0.7701816 2.1273468 -0.56609464
0.79417175 2.1936107 -0.5631668
0.82155424 2.2692449 -0.56139982
0.85441494 2.3600104 -0.56190783
0.8876431 2.4517913 -0.56104463
0.92808145 2.5634875 -0.56293827
0.96739322 2.6720719 -0.56219953
1.0094693 2.7882917 -0.56108314
1.0589763 2.9250369 -0.56186163
1.104768 3.0515201 -0.55834627
1.1687163 3.2281537 -0.56132859
1.2315402 3.4016819 -0.56067258
1.2988585 3.5876243 -0.55888838
1.3835857 3.8216522 -0.56088269
1.4664785 4.0506134 -0.55804187
1.5764819 4.3544583 -0.560808
1.6938857 4.6787434 -0.5606519
1.8223568 5.0335979 -0.5581584
1.987709 5.4903231 -0.55978799
2.1715994 5.9982538 -0.55811167
2.3975573 6.6223798 -0.55724221
2.679209 7.4003406 -0.5569247
3.0337944 8.3797541 -0.55623466
3.5005188 9.66891 -0.55605304
4.1198978 11.379719 -0.55360425
5.0198593 13.865537 -0.5517652
6.4201536 17.733339 -0.54876149
8.8926477 24.562706 -0.54285181
14.454003 39.923927 -0.52935809
0.68937999 1.9798843 -0.5617466
0.71257114 2.0464888 -0.56138337
0.73626596 2.1145396 -0.56023514
0.76865977 2.2075741 -0.56428242
0.80055839 2.2991862 -0.56632894
0.82553089 2.3709066 -0.56204271
0.85816789 2.4646394 -0.56152755
0.89770335 2.5781844 -0.56369907
0.93207884 2.6769102 -0.5607636
0.97724903 2.8066378 -0.56231433
1.0239887 2.9408734 -0.56244242
1.0735158 3.0831139 -0.56166929
1.1289061 3.2421937 -0.56131369
1.1950872 3.4322646 -0.56324857
1.2549284 3.6041267 -0.55901301
1.3386083 3.8444536 -0.56177086
1.4213455 4.0820732 -0.55992579
1.5209033 4.368001 -0.56010127
1.6355854 4.6973658 -0.56043106
1.7664051 5.0730772 -0.56008524
1.9175587 5.5071869 -0.55906099
2.0979319 6.0252147 -0.55817771
2.3215187 6.6673508 -0.55858201
2.5906279 7.440227 -0.55748695
2.9366004 8.4338531 -0.55738664
3.3808126 9.7096195 -0.55596137
3.9840946 11.442233 -0.55422026
4.8484526 13.92465 -0.55170333
6.2033329 17.815838 -0.54891247
8.5989971 24.696131 -0.54342264
13.992509 40.18618 -0.53051388
0.66624486 1.9919803 -0.56281161
0.68385166 2.0446224 -0.55852246
0.71421438 2.1354027 -0.56339324
0.73538572 2.1987021 -0.55966091
0.76523316 2.2879417 -0.56119907
0.78976929 2.3613014 -0.55742139
0.82876521 2.4778938 -0.56218296
0.86040425 2.5724902 -0.56009847
0.90177584 2.6961856 -0.5624361
0.93934089 2.8084998 -0.56033081
0.98515749 2.9454851 -0.56096524
1.0358402 3.0970194 -0.56183964
1.085664 3.245986 -0.55961668
1.148472 3.4337728 -0.56113613
1.2140396 3.629811 -0.5606389
1.2868729 3.8475726 -0.55987203
1.3748599 4.110642 -0.56148309
1.4683033 4.3900247 -0.5605678
1.5758535 4.7115846 -0.55977327
1.7028607 5.0913191 -0.55974513
1.8495221 5.5298162 -0.55900723
2.025326 6.0554457 -0.55862898
2.2383685 6.6924138 -0.55833364
2.5039608 7.4864979 -0.55860472
2.8336973 8.4723644 -0.55758685
3.2597611 9.7462368 -0.55572087
3.8436985 11.492129 -0.55430585
4.6874089 14.014707 -0.55294597
5.9870744 17.900528 -0.54921198
8.3011503 24.819296 -0.54384559
13.523341 40.432926 -0.53153586
0.64100915 1.9978621 -0.56220388
0.66626376 2.0765743 -0.56497002
0.68951094 2.1490297 -0.56470895
0.71548635 2.2299886 -0.56534249
0.7397716 2.3056796 -0.56327605
0.76887161 2.3963768 -0.56342709
0.7990517 2.4904404 -0.56275779
0.83284909 2.5957785 -0.56289661
0.86504966 2.6961393 -0.56016517
0.9068557 2.826438 -0.56164247
0.94867021 2.9567633 -0.56084907
1.0010278 3.1199484 -0.56372362
1.0478038 3.2657373 -0.56075817
1.1072474 3.4510076 -0.5616852
1.1690699 3.643693 -0.56052029
1.2430222 3.8741832 -0.5614776
1.3213662 4.1183615 -0.56027579
1.4133865 4.4051652 -0.56023949
1.5208699 4.7401633 -0.56090444
1.636937 5.1019154 -0.5586549
1.7840939 5.5605659 -0.5598557
1.9500301 6.0777464 -0.55843198
2.15503 6.7166796 -0.55810511
2.4081516 7.5055947 -0.55777794
2.7256932 8.4952908 -0.55684775
3.1392028 9.7840948 -0.55563653
3.7050014 11.547544 -0.55473936
4.5149283 14.071881 -0.55296957
5.7769012 18.005127 -0.55020022
8.006319 24.953653 -0.54459125
13.050204 40.67416 -0.53255731
0.61340201 1.9958513 -0.55947322
0.63780075 2.0752385 -0.56243026
0.65942502 2.1455982 -0.561634
0.68458021 2.2274468 -0.56252146
0.71258956 2.3185818 -0.56424481
0.73398578 2.3881996 -0.55934018
0.76827395 2.4997644 -0.56268746
0.80025852 2.6038339 -0.5624671
0.83210963 2.7074692 -0.56035089
0.87002534 2.830837 -0.56034839
0.9134391 2.9720943 -0.56158412
0.95807767 3.1173368 -0.56108069
1.0058588 3.272804 -0.55980551
1.0618078 3.4548476 -0.56014276
1.125646 3.6625607 -0.5612511
1.1938047 3.8843315 -0.56077856
1.271613 4.1374993 -0.56070977
1.3566407 4.4141574 -0.5592193
1.4613189 4.7547531 -0.56046212
1.5761065 5.1282425 -0.55937332
1.7179791 5.589859 -0.56063569
1.8732985 6.0952282 -0.55787957
2.080528 6.7694993 -0.56032586
2.3149776 7.5323377 -0.55760777
2.6262796 8.5452337 -0.55796248
3.0204854 9.827878 -0.55597162
3.5677245 11.608452 -0.55551577
4.3449264 14.137266 -0.5533976
5.5556407 18.076616 -0.5502556
7.7072105 25.077269 -0.54517949
12.574305 40.913532 -0.53362662
0.59140629 2.0120566 -0.56193483
0.61585367 2.0952303 -0.56575328
0.63263583 2.1523259 -0.56131637
0.6544798 2.2266424 -0.56024361
0.67533892 2.2976086 -0.55707777
0.70991695 2.4152484 -0.56358814
0.73561138 2.5026648 -0.56126177
0.76443642 2.6007321 -0.55972421
0.80408365 2.7356181 -0.56408775
0.83804572 2.8511624 -0.56228936
0.8782838 2.9880586 -0.56251746
0.91690683 3.1194601 -0.55939132
0.96958238 3.2986705 -0.56214815
1.0223869 3.4783201 -0.56186765
1.0771931 3.6647792 -0.55951899
1.1481338 3.9061306 -0.56184494
1.2195044 4.1489444 -0.56018627
1.3041781 4.4370174 -0.56004137
1.4022639 4.7707205 -0.56026947
1.5184689 5.1660681 -0.56142008
1.6480316 5.6068606 -0.56026602
1.8072352 6.1484966 -0.56067872
1.9913801 6.7749863 -0.55871099
2.2237577 7.5655713 -0.55800152
2.5186751 8.5689259 -0.55744505
2.9021797 9.8736687 -0.55650121
3.425498 11.654079 -0.55564159
4.1728749 14.196773 -0.55367655
5.3422332 18.175112 -0.55121249
7.4131241 25.220608 -0.54627264
12.095072 41.149323 -0.53472179
0.56561786 2.0155969 -0.56093878
0.58333594 2.0787358 -0.55932033
0.60740244 2.1644976 -0.5625003
0.62924153 2.2423217 -0.56219935
0.65748799 2.342979 -0.56607527
0.67956537 2.4216526 -0.56309003
0.70522594 2.5130947 -0.56161362
0.73635811 2.6240351 -0.56274813
0.76650512 2.7314649 -0.56124538
0.80241251 2.859422 -0.56192988
0.84049213 2.99512 -0.56185871
0.87786251 3.1282904 -0.5589968
0.92487496 3.295821 -0.55968207
0.9774456 3.4831579 -0.56066525
1.0371187 3.6958048 -0.56226629
1.0985571 3.9147427 -0.56109828
1.1722739 4.1774344 -0.5620442
1.2521932 4.4622297 -0.56123775
1.3465371 4.7984271 -0.56153637
1.4501539 5.1676693 -0.55961388
1.5745426 5.6109319 -0.55869597
1.7304788 6.1666155 -0.56034821
1.9101758 6.8069711 -0.55936939
2.1306493 7.5926356 -0.5580231
2.4167814 8.6122761 -0.55828965
2.7846112 9.923049 -0.55731237
3.2845206 11.704492 -0.55607748
4.0036311 14.267065 -0.554456
5.122179 18.253044 -0.55162418
7.1094356 25.334696 -0.54680896
11.613465 41.384949 -0.53588742
0.54298693 2.0306065 -0.5632152
0.56334835 2.1067522 -0.56495202
0.57821 2.1623302 -0.56004697
0.60079217 2.2467806 -0.56142259
0.62132043 2.32355 -0.55949295
0.64624071 2.4167445 -0.56005871
0.67503577 2.5244291 -0.56224912
0.70168543 2.6240909 -0.56086731
0.73289299 2.7407978 -0.56126887
0.76731128 2.8695116 -0.56201601
0.8012892 2.9965789 -0.5602417
0.84525836 3.16101 -0.5629437
0.88753331 3.3191056 -0.56174046
0.93498939 3.496577 -0.56093222
0.98772496 3.6937919 -0.56006992
1.0497526 3.9257565 -0.5607844
1.1198655 4.1879578 -0.56156486
1.1964376 4.4743142 -0.56086487
1.2848418 4.8049188 -0.56040478
1.3897986 5.1974258 -0.56094325
1.5091891 5.6439099 -0.56008947
1.6512195 6.1750603 -0.5592283
1.8265952 6.8309126 -0.55944878
2.0408034 7.6319871 -0.55902863
2.3087041 8.6338539 -0.55780596
2.6640909 9.9628925 -0.55766809
3.1397035 11.74154 -0.55596131
3.8241444 14.301141 -0.55391097
4.9024143 18.333544 -0.5521934
6.8088989 25.463219 -0.54773444
11.128496 41.617203 -0.53708237
0.52004749 2.0452664 -0.56546491
0.53642219 2.1096656 -0.56392187
0.55518275 2.1834481 -0.5637058
0.57446229 2.2592714 -0.56273615
0.59433383 2.3374233 -0.56103134
0.61910444 2.4348423 -0.562446
0.64506543 2.5369427 -0.56322694
0.67116052 2.6395707 -0.56236947
0.70121831 2.7577834 -0.56293899
0.72924399 2.8680041 -0.55992216
0.76217526 2.9975176 -0.55862278
0.80559576 3.1682837 -0.56243235
0.84644252 3.328928 -0.56159884
0.89718664 3.5284967 -0.5642404
0.94171196 3.7036078 -0.55976015
0.99924481 3.9298756 -0.55957526
1.0690472 4.2043977 -0.56196409
1.1402873 4.4845738 -0.56035095
1.2307984 4.8405399 -0.56275159
1.3258476 5.214354 -0.56096828
1.4377264 5.654356 -0.55932939
1.5777587 6.2050815 -0.5601477
1.7416734 6.8497329 -0.55919385
1.9422828 7.6386986 -0.55772871
2.2030132 8.6641102 -0.55796844
2.5407486 9.9923725 -0.5575273
2.9972126 11.787576 -0.55635399
3.6554081 14.376156 -0.55503356
4.6782651 18.398895 -0.55238736
6.4996276 25.562033 -0.54809934
10.639029 41.84166 -0.53825003
0.49170738 2.0384345 -0.56186187
0.50619614 2.0984995 -0.55923098
0.52755004 2.1870248 -0.56291187
0.54355747 2.2533855 -0.55956298
0.56651688 2.3485665 -0.56199145
0.59222245 2.4551322 -0.56540799
0.6121918 2.5379176 -0.56172967
0.64111465 2.6578209 -0.56453544
0.66581035 2.7602003 -0.56171864
0.69712877 2.8900344 -0.56250709
0.7306608 3.0290458 -0.56278145
0.76502573 3.1715097 -0.56129271
0.80555636 3.3395348 -0.56167465
0.84975785 3.5227776 -0.56161249
0.90074521 3.7341518 -0.56266004
0.95270038 3.9495387 -0.56066459
1.0144407 4.2054911 -0.56040061
1.0851108 4.4984622 -0.56037676
1.1691247 4.8467526 -0.56176007
1.2567672 5.2100854 -0.55880421
1.371971 5.6876774 -0.56091434
1.4991906 6.2150817 -0.55934405
1.65855 6.8757267 -0.5596087
1.8527951 7.680994 -0.55911112
2.0986726 8.7003098 -0.55859548
2.4216397 10.03921 -0.55843699
2.8554459 11.837608 -0.55701613
3.4790854 14.422984 -0.55514783
4.4583087 18.482477 -0.55320895
6.1909814 25.665489 -0.54864389
10.146079 42.06184 -0.5394367
0.46331128 2.0298886 -0.55789387
0.48325369 2.1172616 -0.56260484
0.49980217 2.189765 -0.56199282
0.51953876 2.2762361 -0.56360823
0.53726768 2.3539112 -0.561647
0.55839926 2.4464941 -0.56179494
0.58218551 2.5507081 -0.56293356
0.60570329 2.6537454 -0.56204534
0.63300955 2.7733817 -0.56277454
0.66222292 2.9013729 -0.56308645
0.69547439 3.0470564 -0.56449616
0.72294825 3.1674266 -0.55895448
0.76535827 3.353236 -0.56235373
0.80808407 3.5404291 -0.56279987
0.85357696 3.7397454 -0.56187886
0.90909737 3.9829948 -0.56378448
0.96262598 4.2175179 -0.56038356
1.029775 4.5117154 -0.56040794
1.1076032 4.8527017 -0.56082863
1.1966825 5.242981 -0.5607118
1.3019102 5.704011 -0.56090397
1.4230655 6.2348251 -0.55950373
1.5759271 6.9045515 -0.56033516
1.7559508 7.6932831 -0.55839175
1.9927653 8.7308292 -0.55893946
2.296066 10.059669 -0.5579623
2.711745 11.88087 -0.55744058
3.3053868 14.48177 -0.55580407
4.2301674 18.533478 -0.55313677
5.8844552 25.781347 -0.54953223
9.6456213 42.260006 -0.54041618
0.44271252 2.0558405 -0.56348771
0.45609784 2.1179984 -0.56126791
0.47141299 2.1891179 -0.56029671
0.49134016 2.2816544 -0.5634113
0.50576711 2.3486493 -0.55886537
0.53009373 2.4616158 -0.56372792
0.54705995 2.5404024 -0.55913228
0.57341635 2.6627946 -0.56242597
0.59807557 2.7773054 -0.56203592
0.62639099 2.9087949 -0.56298941
0.65485352 3.0409675 -0.56183392
0.68647492 3.187809 -0.5610193
0.72242218 3.3547385 -0.56107348
0.76114571 3.5345602 -0.56033677
0.80707926 3.7478638 -0.56156504
0.85753655 3.9821739 -0.56213319
0.91280031 4.2388043 -0.56167805
0.97672862 4.5356708 -0.56184918
1.0482042 4.8675842 -0.56101656
1.1327295 5.2600975 -0.56101036
1.2308282 5.715642 -0.56051701
1.3502748 6.2703209 -0.56115669
1.4894338 6.9165387 -0.55977935
1.6678622 7.7451129 -0.56062269
1.8850695 8.753767 -0.5588817
2.1732824 10.092152 -0.55823952
2.5645919 11.909289 -0.55725229
3.1293361 14.531814 -0.55620587
4.0083232 18.613598 -0.55401504
5.5709333 25.869949 -0.54991907
9.1423903 42.454853 -0.54142934
0.41548237 2.0516524 -0.56089705
0.43153709 2.1309304 -0.56324613
0.44416323 2.1932786 -0.55992138
0.46442634 2.2933376 -0.56484336
0.4803319 2.3718793 -0.56294501
0.50103676 2.4741201 -0.56513786
0.52150536 2.5751939 -0.56533563
0.54129022 2.6728916 -0.56311023
0.56474924 2.7887321 -0.56290048
0.58964145 2.9116502 -0.56209624
0.61900556 3.0566502 -0.56328249
0.64496249 3.1848254 -0.55905628
0.68266541 3.3710024 -0.56234711
0.71986735 3.5547059 -0.56208467
0.76117963 3.7587056 -0.56174463
0.80887002 3.9942009 -0.56238443
0.86317801 4.2623739 -0.56335223
0.91812557 4.5337048 -0.56016481
0.98990345 4.888144 -0.56194085
1.0688881 5.2781701 -0.56149358
1.1622436 5.7391596 -0.56137937
1.273674 6.2894034 -0.56142038
1.4057976 6.9418302 -0.56038487
1.572566 7.7653327 -0.56064421
1.7822781 8.8008909 -0.56044877
2.0497539 10.121687 -0.55843681
2.4191756 11.945891 -0.55753088
2.9522684 14.578304 -0.55655372
3.783967 18.685232 -0.55472034
5.2630167 25.988781 -0.55102777
8.6383801 42.656326 -0.54260308
0.39360535 2.0744224 -0.56575614
0.40317938 2.1248806 -0.56029421
0.42001322 2.2135999 -0.56374812
0.43628982 2.2993827 -0.56496817
0.44661561 2.3538029 -0.55730915
0.46836692 2.4684391 -0.56248218
0.48649123 2.5639598 -0.56151366
0.51149958 2.6957614 -0.56656045
0.53158575 2.8016222 -0.5641402
0.55584949 2.9294994 -0.56417996
0.57950747 3.0541842 -0.56147248
0.60971653 3.2133954 -0.56271273
0.63958609 3.3708174 -0.5609619
0.67693949 3.5676816 -0.5627777
0.71380848 3.7619925 -0.56088167
0.76038313 4.0074553 -0.56289154
0.80760348 4.2563214 -0.56119728
0.86556792 4.5618114 -0.56228
0.93037856 4.9033842 -0.56233513
1.0025451 5.2837243 -0.56073058
1.0890161 5.7394528 -0.56005585
1.1960828 6.3037281 -0.56134379
1.321865 6.966639 -0.56103301
1.475581 7.7767706 -0.56011766
1.6723087 8.8135862 -0.55990535
1.9263519 10.152472 -0.55878621
2.2736845 11.983024 -0.55791688
2.7767031 14.634088 -0.55733776
3.5579016 18.751247 -0.55533934
4.9479623 26.077297 -0.5515728
8.1291256 42.843018 -0.54366523
0.36757761 2.0763268 -0.56500018
0.38094932 2.1518593 -0.5661301
0.39201263 2.2143524 -0.56266958
0.40606442 2.2937264 -0.56230909
0.4206413 2.3760664 -0.56131345
0.44092274 2.4906299 -0.56626052
0.45570275 2.5741174 -0.56246847
0.47455192 2.6805902 -0.56210303
0.4955152 2.799005 -0.56234384
0.51851892 2.9289458 -0.56280285
0.54473108 3.0770094 -0.56439453
0.56809044 3.2089591 -0.56067026
0.59919614 3.384665 -0.56199771
0.63306326 3.5759695 -0.56281459
0.66832519 3.7751527 -0.56157607
0.7107935 4.0150423 -0.56268704
0.75817996 4.2827134 -0.56340528
0.80900794 4.5698242 -0.56199896
0.86975676 4.9129744 -0.56216592
0.93956214 5.3072824 -0.56196213
1.0226583 5.7766657 -0.56241751
1.1172953 6.3112392 -0.56074685
1.2353095 6.9778633 -0.56067127
1.3810396 7.8010459 -0.56060058
1.563272 8.8304176 -0.55971116
1.8026232 10.182435 -0.55917305
2.1276209 12.018242 -0.55829626
2.5981119 14.675893 -0.55767101
3.3287797 18.8032 -0.55562371
4.6345153 26.178877 -0.5524742
7.6219053 43.053677 -0.5451079
0.33738831 2.052511 -0.55734837
0.35271433 2.1457472 -0.56333846
0.36417028 2.21544 -0.56176561
0.37754548 2.2968082 -0.56188393
0.39380437 2.3957195 -0.56476957
0.40580201 2.4687076 -0.56009948
0.42284095 2.5723643 -0.56090689
0.44009939 2.6773567 -0.56024784
0.46048981 2.8014023 -0.56164539
0.48128116 2.927887 -0.56141979
0.50692898 3.0839164 -0.56447536
0.52943528 3.220834 -0.5615651
0.55578822 3.3811529 -0.56023747
0.58703554 3.5712466 -0.56089276
0.62173676 3.7823524 -0.56146735
0.66109592 4.0217953 -0.56245166
0.70328921 4.2784791 -0.5616681
0.75162786 4.5725484 -0.56115496
0.80550677 4.9003224 -0.5595426
0.87322074 5.3122621 -0.56131005
0.95026827 5.780983 -0.56165767
1.0430079 6.3451667 -0.56257921
1.149635 6.9938359 -0.56077641
1.2849408 7.8169727 -0.56056732
1.4558475 8.8566875 -0.56019926
1.6788889 10.213567 -0.55970669
1.979057 12.039647 -0.55811799
2.4182978 14.71178 -0.55786258
3.1022496 18.87262 -0.5565058
4.317575 26.266085 -0.55315238
7.1065016 43.232597 -0.54622555
0.31530738 2.0774648 -0.56302911
0.32489312 2.1406224 -0.56090176
0.33687428 2.2195628 -0.56171817
0.34966418 2.3038316 -0.56250775
0.35948679 2.3685498 -0.5572803
0.37780973 2.489274 -0.56366897
0.39126092 2.5778997 -0.5610224
0.41055706 2.7050362 -0.56494075
0.42652488 2.8102434 -0.56232387
0.44433048 2.9275591 -0.56026691
0.46636263 3.0727222 -0.56133431
0.49326903 3.2500002 -0.56555009
0.51720303 3.4076943 -0.56353879
0.54587859 3.5966289 -0.56378239
0.57584298 3.794055 -0.56211096
0.60980594 4.0178266 -0.56080562
0.65018916 4.2838993 -0.5612877
0.69309008 4.5665607 -0.55933195
0.74873847 4.9332108 -0.56220418
0.81088686 5.3426881 -0.56342876
0.88060766 5.8020573 -0.56261063
0.96585017 6.3636942 -0.56312633
1.0630885 7.0043683 -0.56053042
1.18917 7.8350806 -0.56077486
1.3473343 8.8771782 -0.56040496
1.5537852 10.23742 -0.55992454
1.8349041 12.089627 -0.55934668
2.2386048 14.749489 -0.55820644
2.8699491 18.909225 -0.55650252
4.0000043 26.354816 -0.55394334
6.5863452 43.395435 -0.54721832
0.28882116 2.0745847 -0.56124359
0.29744777 2.1365492 -0.55883384
0.31284723 2.2471626 -0.56768656
0.3223162 2.3151777 -0.56426769
0.33387092 2.3981745 -0.56324196
0.34891072 2.5062046 -0.56648839
0.36027583 2.5878394 -0.56217897
0.37634143 2.7032378 -0.56355608
0.39254093 2.8195975 -0.56318718
0.41048563 2.9484932 -0.56326467
0.42913914 3.0824804 -0.56211048
0.45087016 3.2385728 -0.56255424
0.47409582 3.4054015 -0.5621531
0.49941322 3.5872548 -0.56130791
0.53042603 3.8100176 -0.56346697
0.56240553 4.0397248 -0.56285429
0.59937966 4.3053079 -0.56308442
0.64040196 4.5999684 -0.56241679
0.69082934 4.9621854 -0.56449538
0.7435171 5.3406382 -0.56220591
0.80846179 5.8071318 -0.56209624
0.88505173 6.3572731 -0.56155258
0.97750115 7.0213313 -0.56088358
1.0924573 7.8470545 -0.560628
1.2374706 8.8886757 -0.56012791
1.4293996 10.26729 -0.5605545
1.6884418 12.127975 -0.56011796
2.0587835 14.788116 -0.55866802
2.6406112 18.967348 -0.55721533
3.6804233 26.436256 -0.55466193
6.0654263 43.567589 -0.54840726
0.26407495 2.0841649 -0.56291431
0.27199695 2.146688 -0.56056851
0.28168869 2.2231784 -0.56071013
0.29223233 2.3063922 -0.56120819
0.30329829 2.3937283 -0.56127942
0.3149175 2.485431 -0.56087512
0.32987249 2.6034606 -0.56464857
0.34227934 2.7013793 -0.56224877
0.35715857 2.8188109 -0.56211036
0.37404901 2.9521158 -0.56303549
0.39023426 3.079855 -0.5607143
0.41221073 3.2533004 -0.56418937
0.43294016 3.416904 -0.5631305
0.45671102 3.604511 -0.56308675
0.48229599 3.8064361 -0.56201774
0.51247394 4.04461 -0.56261444
0.54702789 4.3173208 -0.56373322
0.58397293 4.6089034 -0.56258869
0.62737429 4.9514413 -0.56235301
0.67939246 5.3619852 -0.5635311
0.73576289 5.806879 -0.56115359
0.80695736 6.3687687 -0.56164908
0.89163041 7.0370359 -0.56121981
0.99668556 7.8661652 -0.56107533
1.1303422 8.9210262 -0.56124818
1.3032987 10.286056 -0.56066167
1.5392307 12.148107 -0.56013125
1.8782847 14.82403 -0.55910999
2.4087648 19.010752 -0.55757815
3.3584874 26.506269 -0.55522239
5.5430088 43.747219 -0.54976881
0.23755848 2.0796332 -0.56085896
0.24675605 2.1601505 -0.56324911
0.25414062 2.2247965 -0.56028771
0.2638168 2.3095036 -0.56113356
0.27468938 2.4046841 -0.56301373
0.28678846 2.510602 -0.5657168
0.29965475 2.6232359 -0.56809545
0.31020024 2.7155533 -0.56436229
0.32278255 2.8257012 -0.56265032
0.33726361 2.9524713 -0.56226981
0.35287109 3.0891023 -0.5615654
0.37136012 3.2509589 -0.56294882
0.38993436 3.4135611 -0.5617469
0.41191643 3.6059966 -0.56248504
0.43715188 3.8269126 -0.56420475
0.46351227 4.0576768 -0.56359655
0.49199539 4.3070235 -0.56155622
0.52755904 4.6183543 -0.56290799
0.56589788 4.95398 -0.56180865
0.61179966 5.3558135 -0.56204933
0.66311425 5.8050313 -0.56014472
0.7294414 6.3856721 -0.56230628
0.80519605 7.0488429 -0.56132942
0.90076733 7.8854923 -0.56162143
1.0208423 8.9366522 -0.56139904
1.177698 10.309798 -0.56112403
1.3890246 12.159792 -0.5598402
1.695596 14.843577 -0.55901855
2.1772857 19.060383 -0.55820638
3.0352385 26.57107 -0.55575597
5.0164046 43.914585 -0.55105525
0.21184519 2.0811677 -0.56052792
0.22105721 2.1716666 -0.56550038
0.2273189 2.2331815 -0.56165296
0.23653151 2.3236861 -0.56383014
0.24438596 2.4008484 -0.56136966
0.25506115 2.5057216 -0.56386769
0.26514155 2.6047513 -0.56334376
0.27562371 2.7077281 -0.56198913
0.28842279 2.8334663 -0.56344771
0.29993251 2.9465377 -0.56039506
0.31444702 3.0891283 -0.56082487
0.33126462 3.2543447 -0.56278718
0.35060471 3.4443419 -0.56606001
0.36718073 3.6071844 -0.56192356
0.38854116 3.8170295 -0.56200081
0.41171068 4.0446467 -0.56104118
0.43986338 4.321219 -0.56265932
0.46998832 4.6171665 -0.56201631
0.50653034 4.9761558 -0.56357449
0.54641777 5.3680096 -0.5625816
0.59282053 5.8238707 -0.56121677
0.6505968 6.3914647 -0.56206936
0.71773177 7.0509987 -0.56075591
0.80543792 7.9126244 -0.56280583
0.91080874 8.9477873 -0.56135261
1.0508277 10.323335 -0.56111509
1.2401966 12.183695 -0.56019616
1.513962 14.873167 -0.55938953
1.9438128 19.096024 -0.55850792
2.7126615 26.649193 -0.55665028
4.4840989 44.051804 -0.55204344
0.18603002 2.081265 -0.55989569
0.19362077 2.1661887 -0.56341136
0.20019874 2.2397816 -0.56265128
0.20824991 2.3298564 -0.56466329
0.2168662 2.4262536 -0.56664354
0.22457077 2.5124507 -0.56471789
0.23271354 2.6035504 -0.56242257
0.24320334 2.7209082 -0.56406134
0.25316751 2.8323851 -0.56257117
0.26415765 2.9553406 -0.56140906
0.2776894 3.1067309 -0.56335807
0.29154775 3.2617753 -0.56340963
0.30663541 3.430573 -0.56313491
0.32277039 3.6110876 -0.56187081
0.34228548 3.8294184 -0.56316262
0.36373216 4.0693593 -0.56380606
0.38629559 4.321794 -0.56207323
0.41345948 4.6256981 -0.56239343
0.44439325 4.9717784 -0.56241739
0.48077798 5.3788438 -0.56305486
0.52265316 5.8473344 -0.56281596
0.57111174 6.3894782 -0.56123471
0.6328606 7.0803118 -0.56242573
0.70581436 7.8965039 -0.56099951
0.80015457 8.9519625 -0.56095481
0.92402476 10.337796 -0.56124109
1.0912905 12.209129 -0.56070632
1.3321967 14.904338 -0.55990344
1.7112939 19.145599 -0.55930012
2.3881483 26.718105 -0.55743414
3.9493833 44.184875 -0.55306065
0.16164154 2.099185 -0.56413913
0.16705731 2.1695178 -0.56370032
0.17335506 2.2513046 -0.56496775
0.17924421 2.327785 -0.56358445
0.18693447 2.4276559 -0.56639141
0.19235666 2.4980719 -0.56091195
0.20131403 2.6143982 -0.5641886
0.20923002 2.7172008 -0.56271684
0.21807787 2.8321047 -0.56194037
0.22730722 2.9519632 -0.56019413
0.23933265 3.1081336 -0.56303614
0.25079399 3.256978 -0.56200588
0.26450038 3.4349787 -0.56328166
0.27920741 3.6259739 -0.56361026
0.29343668 3.8107648 -0.5598464
0.31392431 4.0768309 -0.56426376
0.33274242 4.3212152 -0.56142336
0.35726923 4.6397367 -0.56352353
0.38401777 4.9871111 -0.56357503
0.41500261 5.3895006 -0.56359363
0.44913226 5.8327312 -0.56083643
0.49263513 6.3976884 -0.56138134
0.5453487 7.082262 -0.56200546
0.60907972 7.9099159 -0.56137782
0.69059789 8.968565 -0.56142062
0.79756987 10.357775 -0.56175083
0.94213885 12.235244 -0.56133115
1.1495697 14.92908 -0.56025958
1.4767921 19.178608 -0.55969161
2.0612104 26.768255 -0.55790949
3.4135835 44.331074 -0.55432338
0.1349462 2.0875168 -0.56051505
0.14129502 2.1857281 -0.56741786
0.14526878 2.2471993 -0.56344664
0.14958179 2.3139184 -0.55973953
0.15655231 2.4217472 -0.56452107
0.16320109 2.5245988 -0.56637484
0.16907744 2.6155016 -0.56393534
0.17640083 2.7287886 -0.56462473
0.18380849 2.8433797 -0.56368649
0.1925595 2.9787512 -0.56478572
0.20133312 3.1144726 -0.5636934
0.21118528 3.2668784 -0.56322348
0.22220704 3.4373767 -0.56318426
0.23427916 3.6241233 -0.5628323
0.24853653 3.8446741 -0.56433648
0.26226887 4.0571032 -0.56104451
0.28020468 4.3345566 -0.56266654
0.300203 4.6439157 -0.5635401
0.3213073 4.9703832 -0.56119579
0.34802869 5.3837433 -0.56250155
0.37892285 5.8616529 -0.5631268
0.41442245 6.4108052 -0.56204265
0.45891884 7.0991306 -0.56285369
0.5132907 7.9402232 -0.56303829
0.58081293 8.9847412 -0.56194371
0.6704011 10.370604 -0.56195706
0.79140306 12.242413 -0.56117111
0.96646452 14.950483 -0.56057441
1.243209 19.231514 -0.56074703
1.7346494 26.833729 -0.55878729
2.8743882 44.464634 -0.55550945
0.10995791 2.1021917 -0.56404972
0.11339894 2.1679778 -0.56240541
0.11764562 2.2491665 -0.56353456
0.12190885 2.3306715 -0.56338692
0.12636136 2.4157951 -0.56272882
0.13185689 2.5208595 -0.56512952
0.13657363 2.6110349 -0.56256765
0.14195515 2.7139196 -0.56114453
0.14940552 2.8563571 -0.56585217
0.15556267 2.9740703 -0.56349289
0.16290081 3.1143618 -0.56326824
0.1712625 3.2742221 -0.56408387
0.17993365 3.4399984 -0.5632087
0.1899911 3.6322782 -0.56369334
0.20180054 3.8580527 -0.56589323
0.21348712 4.0814786 -0.56400967
0.22701974 4.3401971 -0.56299376
0.24288927 4.6435933 -0.56309599
0.26131254 4.9958119 -0.56366152
0.28154463 5.3826122 -0.56197917
0.30685332 5.8664675 -0.56318426
0.33647218 6.432725 -0.56355906
0.37141159 7.1007023 -0.56257367
0.41472772 7.9288263 -0.56182605
0.47064027 8.9977703 -0.56235415
0.54289275 10.379105 -0.56201345
0.64134359 12.261302 -0.56163299
0.7833609 14.976411 -0.56114298
1.0064065 19.240631 -0.5606097
1.4069978 26.899193 -0.55974793
2.3336763 44.61557 -0.55699456
0.084874973 2.1227164 -0.56923372
0.086885206 2.1729922 -0.56338644
0.089761674 2.2449324 -0.56215465
0.093213417 2.3312602 -0.56320959
0.096262537 2.4075184 -0.5604828
0.1001801 2.5054965 -0.56136674
0.10458752 2.6157255 -0.56325865
0.10898057 2.7255955 -0.56323904
0.11412678 2.8543019 -0.56512427
0.11984316 2.997268 -0.56756598
0.12441432 3.1115925 -0.5624482
0.13074134 3.2698309 -0.56300783
0.13664371 3.4174485 -0.55919939
0.14498296 3.6260126 -0.56240177
0.15383683 3.8474472 -0.56401747
0.1629796 4.076107 -0.56294793
0.17374375 4.3453178 -0.56333834
0.18576463 4.6459589 -0.56306332
0.19948906 4.9892058 -0.5625968
0.21578416 5.3967452 -0.56313509
0.23455656 5.8662415 -0.56284308
0.25743601 6.4384546 -0.56374109
0.28385943 7.0993018 -0.56214368
0.31765908 7.9446287 -0.56262648
0.36030605 9.0112267 -0.56287563
0.41520017 10.384125 -0.56196636
0.49123237 12.285683 -0.56243056
0.59981948 15.001438 -0.56176192
0.77032226 19.265699 -0.56102169
1.078247 26.966873 -0.56083798
1.788783 44.73732 -0.55819768
0.05820632 2.1032813 -0.5637874
0.059723467 2.1581032 -0.55929357
0.062310714 2.2515934 -0.56358814
0.065051354 2.350626 -0.56765205
0.067036279 2.4223514 -0.56370145
0.069908433 2.5261364 -0.56575584
0.072473757 2.6188343 -0.56369352
0.075462066 2.7268164 -0.56325704
0.078676738 2.8429785 -0.5626483
0.082599632 2.9847319 -0.56495708
0.086396173 3.1219199 -0.56408024
0.090633668 3.2750413 -0.56367046
0.095578492 3.4537222 -0.56489986
0.10023355 3.6219323 -0.5615353
0.10598207 3.8296549 -0.56117576
0.11293828 4.0810165 -0.56339157
0.12029207 4.3467455 -0.56328905
0.12865199 4.6488304 -0.56317705
0.13791232 4.9834518 -0.56171435
0.1492285 5.3923612 -0.56244367
0.16257507 5.8746386 -0.56341439
0.17836569 6.4452314 -0.56409973
0.19690876 7.115284 -0.5631749
0.21993387 7.9472952 -0.56258124
0.24936144 9.0106583 -0.5626061
0.28798819 10.406433 -0.56293947
0.34021035 12.293477 -0.56255335
0.41572887 15.022334 -0.56231046
0.5342598 19.305441 -0.5619452
0.74662101 26.979099 -0.56085891
1.2411071 44.847317 -0.55933744
0.032183718 2.0936108 -0.56104672
0.033340544 2.1688643 -0.56193364
0.034574971 2.249166 -0.56283158
0.035941366 2.3380525 -0.5644663
0.037442382 2.4356966 -0.56665701
0.038638238 2.513489 -0.56277442
0.040197171 2.6149006 -0.56269789
0.041948721 2.7288423 -0.56352627
0.043922693 2.8572526 -0.56532365
0.045812644 2.9801974 -0.56394958
0.047773939 3.1077833 -0.56137741
0.050662465 3.2956872 -0.56707382
0.052789006 3.4340227 -0.56152916
0.055883333 3.6353145 -0.56346089
0.059200391 3.8510954 -0.56416821
0.062873684 4.0900497 -0.56448925
0.066803716 4.345706 -0.56300533
0.071639605 4.6602893 -0.56441575
0.076597184 4.982789 -0.56149101
0.082976975 5.3978062 -0.56286263
0.090342954 5.876977 -0.5634895
0.0989291 6.4355216 -0.56310087
0.1092864 7.109283 -0.56255102
0.12234961 7.9590693 -0.56326562
0.13867325 9.0209513 -0.56309974
0.15991215 10.402582 -0.56258225
0.1890441 12.29767 -0.56259632
0.23114106 15.036155 -0.56267887
0.29712141 19.328299 -0.56246167
0.41560838 27.036097 -0.56189507
0.69116086 44.961296 -0.56061059
0.0064539183 2.0986309 -0.56232828
0.006691691 2.1759479 -0.56370497
0.0069484878 2.2594509 -0.56534117
0.0071769408 2.3337374 -0.56336057
0.0074772807 2.4313993 -0.56559312
0.007738268 2.5162649 -0.56333202
0.0080809006 2.6276793 -0.56538361
0.0084002167 2.7315118 -0.56401366
0.0087676467 2.8509896 -0.56402051
0.0091625089 2.9793875 -0.56373239
0.0095902439 3.118475 -0.56324482
0.010081842 3.2783287 -0.56402302
0.010595273 3.445282 -0.56330633
0.011180045 3.6354332 -0.56341541
0.011851417 3.853744 -0.56449223
0.012589489 4.0937443 -0.56493503
0.013410498 4.360713 -0.5648855
0.014335636 4.6615419 -0.56450343
0.015427525 5.016593 -0.56523615
0.016609905 5.4010696 -0.56313902
0.018057734 5.8718619 -0.56293523
0.019816002 6.4436011 -0.56374389
0.021864202 7.1096177 -0.56251371
0.024511795 7.97054 -0.56401348
0.027751794 9.0240955 -0.56323212
0.03200968 10.408639 -0.56284595
0.037900664 12.32422 -0.56374699
0.046292327 15.05295 -0.56324345
0.059485208 19.342901 -0.56282276
0.08327084 27.077314 -0.56268787
0.13860719 45.071121 -0.56191623
-0.019448239 2.1091652 -0.56517226
-0.020117683 2.1817665 -0.56523371
-0.020763073 2.2517593 -0.56343794
-0.021542344 2.3362713 -0.56399357
-0.022379544 2.4270658 -0.56460643
-0.023075547 2.5025475 -0.56028217
-0.024138359 2.6178095 -0.5632813
-0.025157403 2.7283251 -0.5633769
-0.026234586 2.8451457 -0.56288564
-0.027448509 2.9767959 -0.5632633
-0.028647503 3.106827 -0.56116223
-0.03017693 3.2726939 -0.56307483
-0.031702537 3.4381464 -0.56216091
-0.033422779 3.6247067 -0.56177425
-0.035439849 3.8434584 -0.56300688
-0.0376793 4.0863271 -0.56393278
-0.040213399 4.3611507 -0.56496352
-0.042815018 4.6432967 -0.56231529
-0.04622199 5.0127835 -0.56482822
-0.049899332 5.411592 -0.5642575
-0.054199226 5.8779163 -0.56353694
-0.059473839 6.4499493 -0.56432056
-0.065648265 7.1195664 -0.56332213
-0.073497698 7.9708395 -0.56405592
-0.083330072 9.0371628 -0.56406897
-0.096082233 10.420136 -0.56348896
-0.11355054 12.314577 -0.56332719
-0.13888577 15.062187 -0.56361037
-0.17864855 19.37447 -0.56376261
-0.25008172 27.12141 -0.56362551
-0.4164921 45.168648 -0.56315345
-0.045521237 2.1153252 -0.56693006
-0.04683898 2.1765594 -0.56399131
-0.048515271 2.2544549 -0.56421906
-0.049977433 2.3224001 -0.5607509
-0.052141204 2.4229484 -0.5637551
-0.054118253 2.5148199 -0.56313622
-0.056127276 2.6081772 -0.5613147
-0.058985721 2.7410061 -0.56610239
-0.061180573 2.8429985 -0.56256717
-0.063986361 2.9733808 -0.5627234
-0.067182884 3.1219199 -0.56399494
-0.070797712 3.2898972 -0.56614172
-0.073917426 3.4348671 -0.56173092
-0.077888571 3.6194024 -0.56105816
-0.082859091 3.8503771 -0.56412691
-0.08780019 4.0799851 -0.56316394
-0.093721896 4.3551602 -0.56429416
-0.10014849 4.6537981 -0.56369352
-0.10775555 5.0072899 -0.56431586
-0.11640817 5.4093685 -0.56413221
-0.1264725 5.8770475 -0.56356013
-0.1385099 6.4364133 -0.56324273
-0.15333261 7.1252093 -0.56387514
-0.17161068 7.9745731 -0.56442678
-0.19434489 9.0310078 -0.56379139
-0.22437264 10.426367 -0.56393248
-0.26507661 12.317838 -0.56358284
-0.32398674 15.055332 -0.56346041
-0.41707844 19.381208 -0.56406528
-0.58388925 27.132736 -0.56396747
-0.97414654 45.26759 -0.56449372
-0.071227886 2.1057668 -0.56456029
-0.073581345 2.175344 -0.56386817
-0.076258607 2.254494 -0.56442082
-0.079148293 2.3399239 -0.56517434
-0.082185254 2.429708 -0.56552029
-0.085300334 2.5218015 -0.56489176
-0.088833861 2.6262662 -0.56540006
-0.092370421 2.7308204 -0.56419069
-0.096418425 2.8504946 -0.56424242
-0.10061091 2.9744406 -0.56311554
-0.10588532 3.1303718 -0.5657143
-0.11071464 3.2731452 -0.56345057
-0.11680258 3.4531276 -0.56490934
-0.12286612 3.6323888 -0.56326288
-0.13051738 3.8585892 -0.56552249
-0.1384823 4.0940623 -0.56529939
-0.14723474 4.3528175 -0.56418252
-0.15759414 4.659081 -0.56452549
-0.16918029 5.0016117 -0.56386775
-0.18228729 5.3891044 -0.5622102
-0.19894986 5.8817129 -0.56419945
-0.21782315 6.4396791 -0.56372029
-0.24085425 7.1205659 -0.56369942
-0.26939821 7.9644341 -0.56390107
-0.30578363 9.0401249 -0.56455261
-0.35313356 10.439968 -0.56486028
-0.41709086 12.33079 -0.56436741
-0.50975758 15.070369 -0.56421506
-0.65584511 19.389271 -0.56449199
-0.91905898 27.170872 -0.56495231
-1.5338268 45.345741 -0.56566072
-0.096849293 2.098994 -0.56302124
-0.10069577 2.1823575 -0.56596434
-0.10328884 2.2385569 -0.5607065
-0.10763402 2.3327291 -0.56371361
-0.11192847 2.4258018 -0.56488872
-0.1164118 2.5229678 -0.56543088
-0.12102876 2.6230302 -0.5649811
-0.12626781 2.7365751 -0.56565762
-0.13170031 2.8543124 -0.56527597
-0.13671269 2.9629445 -0.56121492
-0.14431746 3.1277611 -0.56552047
-0.15152636 3.283998 -0.56559682
-0.15902288 3.4464686 -0.56409723
-0.16749866 3.6301625 -0.56319445
-0.17774919 3.8523197 -0.56488127
-0.18838097 4.0827403 -0.56401324
-0.20031807 4.3414502 -0.56298584
-0.2145547 4.6499977 -0.56370193
-0.23075214 5.0010414 -0.56408072
-0.24947707 5.4068627 -0.56434017
-0.27138776 5.8817282 -0.5644784
-0.29702494 6.4373579 -0.5637942
-0.3288067 7.1261563 -0.56441945
-0.36729065 7.9602113 -0.56387919
-0.41687959 9.0349417 -0.56450635
-0.48109865 10.426747 -0.56442237
-0.56881595 12.327825 -0.56450921
-0.69545907 15.072534 -0.56457359
-0.89509237 19.399143 -0.5650571
-1.2552738 27.205278 -0.56594592
-2.0965595 45.438282 -0.56709379
-0.12373952 2.1162739 -0.56802148
-0.12678126 2.1682956 -0.56267935
-0.13134642 2.2463722 -0.56302601
-0.13586624 2.3236732 -0.56188643
-0.14218669 2.4317694 -0.5666427
-0.1472566 2.5184784 -0.56478786
-0.15255792 2.6091452 -0.56235188
-0.15995103 2.7355869 -0.56581712
-0.16547418 2.8300474 -0.56083101
-0.17424308 2.9800189 -0.56481218
-0.18245366 3.1204414 -0.56455994
-0.19188699 3.2817767 -0.56557786
-0.20208457 3.4561822 -0.56605101
-0.21183358 3.6229162 -0.56243181
-0.22480106 3.8446944 -0.56412584
-0.23918599 4.0907149 -0.56547844
-0.25448591 4.3523836 -0.56476676
-0.27147338 4.6429152 -0.56320542
-0.29152721 4.9858885 -0.56273335
-0.31495741 5.3866072 -0.56258768
-0.34372592 5.8786249 -0.56454349
-0.37693483 6.4465852 -0.56496561
-0.41703328 7.1323752 -0.56527543
-0.4650088 7.9528837 -0.56372255
-0.52845621 9.038002 -0.56506085
-0.61038369 10.439179 -0.56545889
-0.72090566 12.329399 -0.56494451
-0.88206595 15.085668 -0.56542909
-1.1351204 19.413568 -0.56584108
-1.5909528 27.209511 -0.56639808
-2.6607349 45.505623 -0.56829959
-0.14832672 2.0944822 -0.56261945
-0.153991 2.1744659 -0.56472915
-0.15942311 2.2511711 -0.56467754
-0.16557364 2.3380213 -0.56580549
-0.17177306 2.4255617 -0.56564558
-0.17806926 2.5144687 -0.56433707
-0.18587004 2.6246214 -0.56613725
-0.19342911 2.7313609 -0.56539226
-0.20205729 2.8531971 -0.5658682
-0.21132052 2.9840009 -0.56601655
-0.22174129 3.1311495 -0.56694776
-0.23211747 3.277669 -0.56531912
-0.243641 3.4403896 -0.56391257
-0.25714681 3.6311016 -0.56415075
-0.27266967 3.8502955 -0.5653969
-0.28925341 4.0844703 -0.56506419
-0.30837169 4.3544345 -0.56548214
-0.3292127 4.648725 -0.56435859
-0.35366079 4.9939499 -0.56409138
-0.38217616 5.3966074 -0.56408036
-0.41630414 5.87852 -0.5649823
-0.4563024 6.443325 -0.56512886
-0.50458068 7.1250486 -0.56514376
-0.5641402 7.966074 -0.56510651
-0.63957399 9.0312538 -0.56508791
-0.73861718 10.429816 -0.56540096
-0.8734833 12.334226 -0.565615
-1.0683669 15.086124 -0.5658958
-1.3747181 19.412027 -0.56624603
-1.9274248 27.216652 -0.56699723
-3.226599 45.561943 -0.56945544
-0.17527145 2.1069632 -0.56650823
-0.17977805 2.1611378 -0.56179941
-0.18769777 2.2563417 -0.56651062
-0.19211666 2.3094621 -0.55942357
-0.20140043 2.4210634 -0.56513143
-0.20953457 2.5188451 -0.56585479
-0.21774553 2.6175501 -0.56514686
-0.22641018 2.7217093 -0.56392801
-0.23601916 2.8372202 -0.56323254
-0.2471551 2.971087 -0.56410086
-0.2595979 3.1206634 -0.56558424
-0.27181908 3.2675762 -0.56411219
-0.28653803 3.4445148 -0.5651235
-0.30356169 3.6491587 -0.56749326
-0.31885144 3.8329589 -0.56338423
-0.33983606 4.085218 -0.56570297
-0.36158448 4.3466592 -0.56500715
-0.3861236 4.6416473 -0.56403309
-0.41519526 4.9911218 -0.56430596
-0.44805056 5.3860798 -0.56351322
-0.48864958 5.8741269 -0.56509483
-0.53608221 6.4443216 -0.56575161
-0.59235811 7.120822 -0.5653435
-0.66174072 7.9548802 -0.56484693
-0.75019097 9.0181532 -0.56480271
-0.86685121 10.420543 -0.56543332
-1.0260133 12.333852 -0.56613368
-1.2543745 15.079017 -0.56616497
-1.6134835 19.395918 -0.56631207
-2.2657998 27.237505 -0.56796914
-3.7963111 45.636002 -0.5709213
-0.19985862 2.090987 -0.56283081
-0.20765647 2.1725707 -0.56539249
-0.21352696 2.2339897 -0.56151533
-0.22163308 2.3187983 -0.56230271
-0.23090017 2.4157538 -0.56451207
-0.23943415 2.5050392 -0.56337208
-0.25000179 2.6156013 -0.56534708
-0.25909448 2.710732 -0.56227118
-0.27217814 2.8476176 -0.56591821
-0.28389063 2.9701574 -0.5645445
-0.29657939 3.1029115 -0.5629853
-0.31239057 3.2683334 -0.56486338
-0.3292101 3.4443049 -0.56571048
-0.34737918 3.6343958 -0.56581897
-0.36610329 3.8302934 -0.56361151
-0.3886252 4.0659251 -0.56365055
-0.41380617 4.3293767 -0.56337947
-0.44306967 4.635541 -0.56391054
-0.47693682 4.9898705 -0.56478482
-0.51570928 5.3955207 -0.56512165
-0.5616585 5.8762565 -0.56592137
-0.61524987 6.4369473 -0.56572568
-0.67823952 7.0959659 -0.56398964
-0.75943232 7.9454317 -0.56479645
-0.86197877 9.0183067 -0.56543338
-0.99635321 10.424176 -0.56625247
-1.1780642 12.325296 -0.56636304
-1.4408798 15.074961 -0.56663513
-1.8536458 19.393456 -0.56686282
-2.6049564 27.253914 -0.56893623
-4.3666182 45.685001 -0.57216281
-0.22722496 2.1038489 -0.56700212
-0.23526597 2.1782997 -0.5675934
-0.24284917 2.2485116 -0.56587321
-0.25009716 2.3156197 -0.56223518
-0.2609351 2.415967 -0.56526893
-0.27085751 2.5078375 -0.56470782
-0.27998871 2.5923822 -0.56103009
-0.29315001 2.714241 -0.56370413
-0.30603603 2.8335512 -0.56382793
-0.32102016 2.9722874 -0.56565684
-0.33559531 3.1072371 -0.56447619
-0.35207602 3.25983 -0.56409931
-0.3707504 3.432734 -0.56451607
-0.39002129 3.6111608 -0.56290573
-0.41515467 3.8438675 -0.56631726
-0.43854925 4.0604753 -0.5636
-0.46752471 4.3287554 -0.56400412
-0.50032383 4.6324387 -0.56423891
-0.53777236 4.9791703 -0.56427956
-0.58304507 5.3983445 -0.56612557
-0.63218206 5.8532987 -0.56441629
-0.69407266 6.4263363 -0.56550044
-0.76855248 7.1159358 -0.56628513
-0.85971785 7.9600248 -0.56654245
-0.9733699 9.0123158 -0.56576544
-1.1248754 10.415088 -0.56646729
-1.3289741 12.304813 -0.56612992
-1.6266792 15.061229 -0.56682795
-2.0966535 19.412664 -0.5681349
-2.94174 27.237221 -0.56929988
-4.9378204 45.718693 -0.57330185
-0.2497199 2.0730376 -0.55948353
-0.25959748 2.1550357 -0.56232083
-0.2713601 2.2526827 -0.56771976
-0.27996543 2.3241196 -0.56509209
