# .PCD v0.7 - Point Cloud Data file format
VERSION 0.7
FIELDS x y z
SIZE 4 4 4
TYPE F F F
COUNT 1 1 1
WIDTH 1462
HEIGHT 1
VIEWPOINT 0 0 0 1 0 0 0
POINTS 1462
DATA ascii
-2.0967212 6.1431494 -0.5678978
-2.3207459 6.7995167 -0.56844807
-2.5946798 7.6021109 -0.56841016
-2.9505351 8.6447258 -0.57011288
-3.410249 9.9916344 -0.57089734
-4.0340328 11.819248 -0.57126892
-4.9504056 14.504114 -0.57344484
-6.4055762 18.767595 -0.57701164
-9.0560207 26.533089 -0.58260703
-15.432081 45.214207 -0.59562659
-0.70532012 1.9862733 -0.56477845
-0.73293608 2.0640435 -0.56742376
-0.75248045 2.1190829 -0.56265336
-0.78345031 2.2062979 -0.56517625
-0.81535178 2.2961366 -0.56680131
-0.8496803 2.3928101 -0.56846225
-0.8806923 2.480144 -0.56628239
-0.91411024 2.5742533 -0.56405711
-0.95708984 2.6952896 -0.56583518
-0.99875897 2.8126352 -0.56473494
-1.0482259 2.9519405 -0.56578034
-1.0953131 3.0845439 -0.56314546
-1.1598011 3.266151 -0.5666846
-1.2238338 3.4464753 -0.56680411
-1.2899886 3.6327758 -0.56467551
-1.3715527 3.8624709 -0.56562459
-1.4658107 4.1279135 -0.56743848
-1.5693718 4.4195552 -0.56793797
-1.6877184 4.7528343 -0.56827557
-1.8199834 5.1253099 -0.56707597
-1.9835134 5.5858316 -0.56827128
-2.1753347 6.1260252 -0.56874454
-2.4081671 6.7817121 -0.56939214
-2.6939502 7.586514 -0.56967777
-3.0511436 8.5924177 -0.56909448
-3.5313935 9.9448633 -0.57066303
-4.1832457 11.780564 -0.57184219
-5.1354094 14.46198 -0.57423228
-6.6397781 18.698479 -0.57735324
-9.3945246 26.456203 -0.58341122
-16.026625 45.13306 -0.59710854
-0.73222512 1.9843234 -0.56674129
-0.76275414 2.0670567 -0.57078737
-0.78199202 2.1191912 -0.56519258
-0.81429809 2.2067404 -0.56781161
-0.84755045 2.2968538 -0.56950796
-0.87358177 2.3673985 -0.56493443
-0.91128743 2.4695807 -0.56638616
-0.95068812 2.5763562 -0.56703645
-0.98462802 2.6683328 -0.5626753
-1.0324535 2.7979395 -0.56429064
-1.0836908 2.9367919 -0.5653882
-1.1394266 3.0878356 -0.56626159
-1.1997942 3.251431 -0.56664753
-1.2649621 3.4280355 -0.5662868
-1.334399 3.616209 -0.56460822
-1.4198015 3.8476489 -0.56596792
-1.5154796 4.106936 -0.56707358
-1.621308 4.3937297 -0.56713825
-1.7439833 4.7261786 -0.56760961
-1.8866366 5.1127677 -0.56821215
-2.0533814 5.5646448 -0.56864154
-2.2503288 6.0983706 -0.56870306
-2.4885862 6.7440457 -0.56875592
-2.7846243 7.5463061 -0.56918669
-3.1678658 8.5848875 -0.57113254
-3.6580341 9.9132385 -0.57138622
-4.335876 11.750184 -0.57291222
-5.3170571 14.409176 -0.5746882
-6.8791375 18.642399 -0.57818985
-9.7275114 26.361465 -0.58391565
-16.611898 45.018089 -0.59824473
-0.75511169 1.971368 -0.56565028
-0.77771282 2.0303726 -0.56325579
-0.81184983 2.1194942 -0.56789285
-0.8396439 2.1920559 -0.56664699
-0.87062454 2.2729371 -0.56618941
-0.90875721 2.3724899 -0.56877297
-0.94002837 2.4541295 -0.56545079
-0.97846198 2.5544679 -0.5648244
-1.0247713 2.6753678 -0.56677312
-1.0709614 2.7959557 -0.5665037
-1.128392 2.9458899 -0.56976789
-1.1773249 3.0736389 -0.56627017
-1.2405843 3.23879 -0.56706017
-1.3135343 3.4292402 -0.56911093
-1.3820146 3.6080217 -0.56594044
-1.4678952 3.8322299 -0.56631207
-1.5687561 4.0955472 -0.56812161
-1.669553 4.3586974 -0.56522357
-1.7996806 4.698421 -0.56689084
-1.9461561 5.0808244 -0.5672788
-2.1219366 5.5397339 -0.56871933
-2.3239257 6.0670667 -0.56840575
-2.5766602 6.7268796 -0.56993723
-2.8821592 7.5244451 -0.57016778
-3.2704022 8.5380297 -0.57064748
-3.7819662 9.8735685 -0.57173693
-4.4827542 11.703114 -0.57326144
-5.4987397 14.355544 -0.57520241
-7.117559 18.581791 -0.57898074
-10.059929 26.263428 -0.58443993
-17.201641 44.908276 -0.59955096
-0.7822547 1.9693892 -0.56779963
-0.80609429 2.0294073 -0.56569493
-0.83446807 2.1008406 -0.56560147
-0.86206126 2.1703086 -0.56372285
-0.89454114 2.2520792 -0.56369114
-0.92919201 2.3393157 -0.56351644
-0.97221494 2.4476292 -0.56666476
-1.0093298 2.541069 -0.56456333
-1.0553538 2.6569378 -0.56557518
-1.1083568 2.7903774 -0.56809193
-1.1583364 2.9162052 -0.56673855
-1.2137358 3.0556777 -0.56566793
-1.2825949 3.2290361 -0.56807083
-1.3477244 3.3930047 -0.5658049
-1.4279779 3.5950494 -0.56661701
-1.5152028 3.8146451 -0.56642395
-1.6151693 4.0663185 -0.56677932
-1.7299726 4.3553452 -0.56750447
-1.8578594 4.6773105 -0.56705725
-2.00928 5.0585241 -0.56750458
-2.1899958 5.5134907 -0.56874675
-2.3998802 6.0418911 -0.56876886
-2.6564968 6.6879444 -0.56936294
-2.9775431 7.4962044 -0.57075906
-3.3720787 8.48948 -0.57013077
-3.906142 9.8340263 -0.57218528
-4.6264343 11.647421 -0.5732767
-5.6816583 14.304031 -0.57589418
-7.3483229 18.499994 -0.57920372
-10.397374 26.176228 -0.58530027
-17.784704 44.774426 -0.60063821
-0.80676663 1.960488 -0.5680505
-0.83126587 2.0200226 -0.56588542
-0.85435212 2.0761235 -0.56173283
-0.89266819 2.1692336 -0.56625193
-0.92673141 2.2520092 -0.56648302
-0.96072114 2.3346062 -0.56518501
-1.0026618 2.4365244 -0.56690532
-1.0411974 2.5301678 -0.56494319
-1.0867145 2.6407771 -0.56493688
-1.1329719 2.753185 -0.56331366
-1.1941154 2.9017673 -0.56674337
-1.2571537 3.0549538 -0.56835264
-1.3201203 3.2079663 -0.567177
-1.3868006 3.3700032 -0.56477022
-1.4685594 3.5686815 -0.56526458
-1.5575035 3.7848206 -0.56479651
-1.6689267 4.0555854 -0.56810075
-1.7776442 4.3197746 -0.56567508
-1.9177696 4.6602869 -0.56780946
-2.0786419 5.0512156 -0.56950915
-2.2615891 5.4957881 -0.56974626
-2.4708824 6.0043821 -0.56805509
-2.7386384 6.6550441 -0.56938595
-3.0650487 7.4482393 -0.56993359
-3.4764347 8.4479303 -0.5701682
-4.0252676 9.7816257 -0.57197303
-4.7679772 11.586452 -0.57311815
-5.8596935 14.239384 -0.57614881
-7.5841222 18.42984 -0.57988322
-10.733495 26.082993 -0.58612239
-18.375942 44.654564 -0.60201597
-0.83322394 1.956085 -0.56970036
-0.85560524 2.0086277 -0.56559783
-0.88231337 2.0713279 -0.56332821
-0.91585618 2.1500733 -0.56414753
-0.94983131 2.2298338 -0.56380022
-0.99247158 2.3299365 -0.56696606
-1.0309945 2.4203734 -0.56605434
-1.0719837 2.5165999 -0.56481421
-1.1188582 2.6266429 -0.56481373
-1.1720825 2.7515929 -0.56589395
-1.2333796 2.8954945 -0.5684374
-1.2941456 3.0381496 -0.56814396
-1.3516282 3.1730962 -0.56390774
-1.433764 3.3659189 -0.56699747
-1.5152495 3.5572152 -0.56635684
-1.6075605 3.7739255 -0.56607771
-1.7157233 4.0278492 -0.56712794
-1.8396639 4.3188138 -0.56846857
-1.9764223 4.6398692 -0.56823987
-2.1334615 5.0085359 -0.56761205
-2.3216109 5.4502373 -0.56794065
-2.5487895 5.9835639 -0.56900758
-2.8243093 6.6303773 -0.57020372
-3.1557767 7.4085336 -0.5698216
-3.5896027 8.4269886 -0.57169062
-4.1499338 9.7424278 -0.57262158
-4.9163456 11.541663 -0.57384968
-6.0377531 14.174291 -0.57647544
-7.8191099 18.356222 -0.58054823
-11.065931 25.978495 -0.58678758
-18.966396 44.525707 -0.60337734
-0.84882075 1.9266458 -0.56412351
-0.87742019 1.9915605 -0.56378746
-0.90959686 2.0645947 -0.56449622
-0.94658458 2.1485493 -0.56675881
-0.98207122 2.2290964 -0.56662434
-1.0216622 2.3189595 -0.56730914
-1.0614184 2.4091978 -0.56645036
-1.1065903 2.5117288 -0.56673205
-1.1511687 2.6129124 -0.56486231
-1.2081133 2.7421646 -0.56696731
-1.2633158 2.8674626 -0.56594115
-1.3306451 3.0202861 -0.56782031
-1.3946345 3.1655288 -0.56556779
-1.4700347 3.3366716 -0.56507295
-1.562595 3.5467641 -0.56770915
-1.6544561 3.7552695 -0.56628811
-1.7702515 4.0181012 -0.56877732
-1.8907582 4.291626 -0.56790721
-2.0281544 4.6034865 -0.56679553
-2.2026289 4.999507 -0.56961519
-2.3911247 5.4273534 -0.56857687
-2.6178682 5.9420137 -0.56807458
-2.9058404 6.5956502 -0.57024699
-3.2543688 7.3867369 -0.57117981
-3.6895466 8.3744993 -0.57116437
-4.2698503 9.6916676 -0.57268077
-5.0569973 11.478327 -0.57374895
-6.2147212 14.106118 -0.57676727
-8.0464153 18.26368 -0.58070672
-11.398951 25.873234 -0.58753163
-19.552309 44.379654 -0.6046105
-0.8701117 1.9109373 -0.56261432
-0.90441263 1.9862689 -0.565395
-0.93934333 2.0629838 -0.56717098
-0.96922845 2.1286173 -0.5646022
-1.0041182 2.2052422 -0.56365663
-1.0411625 2.2865987 -0.56248194
-1.0895928 2.3929613 -0.56574017
-1.1337825 2.4900105 -0.56493467
-1.1866207 2.6060536 -0.56649113
-1.2397529 2.7227423 -0.56606072
-1.3003713 2.8558724 -0.56676662
-1.366493 3.0010889 -0.56732732
-1.4397459 3.1619668 -0.56805146
-1.5159113 3.329241 -0.56692851
-1.6064938 3.5281782 -0.56785321
-1.7076129 3.7502556 -0.56865537
-1.8153273 3.9868176 -0.5674659
-1.9403223 4.2613311 -0.56701279
-2.0938597 4.5985298 -0.56931227
-2.2585664 4.9602585 -0.56826472
-2.4603102 5.4033275 -0.56918627
-2.6944258 5.9174914 -0.56885469
-2.9871149 6.5602946 -0.57032281
-3.3407948 7.3370457 -0.57047081
-3.7896774 8.3228807 -0.57077891
-4.3948574 9.6519756 -0.57348537
-5.2021332 11.424913 -0.57423311
-6.3935218 14.041438 -0.57729346
-8.2752419 18.174068 -0.58104891
-11.734938 25.772243 -0.58847052
-20.141752 44.235271 -0.60597181
-0.90798008 1.9307967 -0.57170522
-0.92906821 1.9756402 -0.56557864
-0.96453005 2.0510488 -0.56710762
-0.9946413 2.1150796 -0.56421286
-1.0342084 2.199218 -0.5653246
-1.0769958 2.2902045 -0.56658375
-1.1196053 2.3808124 -0.56607997
-1.1673741 2.4823916 -0.56642002
-1.2227293 2.6001031 -0.56842297
-1.2723916 2.7057085 -0.56572944
-1.3303252 2.828903 -0.56461811
-1.40843 2.9949908 -0.56940544
-1.4721128 3.1304107 -0.56559163
-1.5562499 3.3093262 -0.56675309
-1.647512 3.5033925 -0.56708175
-1.7456939 3.7121739 -0.56609315
-1.8699459 3.9763927 -0.5692119
-1.9959768 4.2443943 -0.56798196
-2.148777 4.5693202 -0.56892419
-2.3183279 4.9298658 -0.5680058
-2.5256245 5.370677 -0.56897527
-2.7710552 5.8925791 -0.56969237
-3.0761406 6.5413351 -0.57191968
-3.430788 7.2954841 -0.57047629
-3.9003363 8.2939663 -0.57204187
-4.5185628 9.6086092 -0.5741666
-5.3503613 11.377409 -0.57510871
-6.5695238 13.969926 -0.57763094
-8.5039415 18.083418 -0.58144993
-12.065103 25.656137 -0.58916241
-20.727392 44.076279 -0.60723937
-0.92465031 1.9050618 -0.56740892
-0.95124066 1.9598461 -0.56436306
-0.98532885 2.0300782 -0.56461668
-1.0242605 2.1102893 -0.56625193
-1.0629249 2.1899495 -0.56625909
-1.1079357 2.2826855 -0.5680511
-1.1482581 2.365762 -0.56581593
-1.1887927 2.4492757 -0.5621568
-1.2514838 2.5784385 -0.56700814
-1.3122991 2.7037368 -0.5686481
-1.3703395 2.8233178 -0.5668236
-1.4437196 2.9745028 -0.56884241
-1.5152051 3.1217849 -0.56735659
-1.5963461 3.2889602 -0.56658411
-1.6844623 3.4705064 -0.5650686
-1.7960585 3.7004287 -0.56762707
-1.9174416 3.9505148 -0.56883961
-2.0465703 4.2165594 -0.56758183
-2.2005093 4.5337205 -0.56781781
-2.3817034 4.9070358 -0.56870669
-2.5943215 5.3450942 -0.56960154
-2.8468144 5.8653064 -0.5703969
-3.1457083 6.4811192 -0.56999373
-3.5196691 7.2515926 -0.57038534
-4.0021138 8.245575 -0.57205522
-4.6296225 9.538435 -0.57333171
-5.4913211 11.313797 -0.57526296
-6.7382588 13.88287 -0.57741362
-8.735713 17.998234 -0.5821209
-12.392239 25.531794 -0.58976167
-21.318228 43.922054 -0.60868013
-0.94288462 1.8833228 -0.56434464
-0.97695833 1.9513819 -0.56534231
-1.0122101 2.0217941 -0.56573159
-1.0445608 2.0864115 -0.56324875
-1.090219 2.1776094 -0.56649184
-1.1349223 2.2668998 -0.5675528
-1.1857439 2.3684115 -0.56989366
-1.222223 2.4412751 -0.56372726
-1.2781097 2.5529032 -0.56480616
-1.347048 2.6906011 -0.5693261
-1.404456 2.8052683 -0.56662428
-1.4773577 2.9508824 -0.56775641
-1.5473769 3.090739 -0.56512958
-1.6406165 3.2769766 -0.5679521
-1.7413095 3.478101 -0.5697484
-1.8337833 3.6628087 -0.56527251
-1.9653271 3.9255552 -0.56868243
-2.0960805 4.1867228 -0.56699216
-2.2540317 4.5022154 -0.56730044
-2.4432127 4.8800864 -0.56902218
-2.6568468 5.3067999 -0.56895924
-2.9189506 5.830328 -0.57044268
-3.2302547 6.4521284 -0.57089424
-3.6170912 7.2247977 -0.57173294
-4.1007781 8.1909161 -0.57171822
-4.7508454 9.4893646 -0.57385027
-5.6396098 11.264587 -0.57624334
-6.9138951 13.809852 -0.577869
-8.9672441 17.911222 -0.58282894
-12.717218 25.401442 -0.5903182
-21.888926 43.721058 -0.60957867
-0.96999955 1.8793949 -0.56669897
-0.99759626 1.9328642 -0.56348878
-1.0339744 2.0033474 -0.56408501
-1.0666505 2.0666583 -0.56141454
-1.1196134 2.1692748 -0.56786221
-1.1684656 2.2639272 -0.57036263
-1.2063525 2.3373337 -0.56594223
-1.2597301 2.4407542 -0.56714106
-1.3135228 2.5449786 -0.56658351
-1.3764946 2.6669879 -0.56786817
-1.4415118 2.7929599 -0.56767559
-1.5124654 2.930434 -0.56735748
-1.5851914 3.0713422 -0.56510431
-1.6792982 3.2536762 -0.56744975
-1.7853709 3.4591944 -0.57020444
-1.8879404 3.6579251 -0.56805861
-2.0107942 3.895957 -0.56793362
-2.1533175 4.1720991 -0.56855458
-2.31303 4.481545 -0.56823677
-2.5029426 4.8495049 -0.56900197
-2.7242987 5.2783871 -0.56946146
-2.9870028 5.7873816 -0.56979138
-3.3048146 6.4031491 -0.57011306
-3.7026341 7.173933 -0.57126755
-4.2098823 8.1567373 -0.57290256
-4.8664656 9.4288816 -0.57376802
-5.7726679 11.184668 -0.57574266
-7.0972233 13.751022 -0.57901531
-9.2006693 17.826494 -0.58370918
-13.049469 25.283627 -0.59126461
-22.478334 43.552258 -0.61103266
-0.99424505 1.8696027 -0.56738985
-1.0259929 1.9293022 -0.56608552
-1.0564671 1.9866066 -0.56298649
-1.1004249 2.0692658 -0.56575596
-1.1432097 2.1497195 -0.56638014
-1.1902732 2.2382188 -0.56753021
-1.239028 2.3298984 -0.567788
-1.2927407 2.4309013 -0.56850231
-1.3425487 2.5245614 -0.56567055
-1.4008693 2.6342287 -0.56451803
-1.4770525 2.7774854 -0.56817895
-1.5464119 2.9079106 -0.56663549
-1.6313796 3.0676861 -0.56807959
-1.7217156 3.2375562 -0.56828767
-1.8190095 3.4205101 -0.56747192
-1.9280587 3.6255689 -0.56667274
-2.0571191 3.868257 -0.56754017
-2.2009254 4.1386738 -0.56764472
-2.3698626 4.4563475 -0.56869382
-2.56444 4.8222356 -0.56945932
-2.7907357 5.2477679 -0.56981725
-3.0633049 5.7603135 -0.57079172
-3.3908651 6.376266 -0.57138872
-3.8000638 7.1457334 -0.57269961
-4.3117061 8.1078377 -0.57314849
-4.9906468 9.3845339 -0.57476026
-5.9120936 11.117246 -0.57597071
-7.2666993 13.664479 -0.57908994
-9.4157906 17.705683 -0.58350039
-13.376868 25.15419 -0.59203953
-23.057796 43.358444 -0.61224508
-1.0148942 1.8531038 -0.56612724
-1.0493548 1.9160256 -0.56593323
-1.0848696 1.9808724 -0.56509924
-1.1255611 2.0551713 -0.56564373
-1.1713645 2.1388042 -0.56725633
-1.2186459 2.2251356 -0.56796956
-1.267982 2.3152189 -0.56796736
-1.313296 2.397958 -0.56453198
-1.3682828 2.498359 -0.56352681
-1.4354011 2.6209106 -0.5654037
-1.5062425 2.7502606 -0.56635576
-1.5792711 2.883604 -0.56564045
-1.6674531 3.0446162 -0.56756151
-1.759024 3.2118165 -0.56752336
-1.8670045 3.4089789 -0.56932449
-1.9778801 3.6114278 -0.56822091
-2.1090393 3.8509123 -0.56875736
-2.2565498 4.1202531 -0.56888098
-2.4260042 4.4296613 -0.5690521
-2.6244524 4.7920094 -0.56965774
-2.851222 5.2060699 -0.56905347
-3.12782 5.7111125 -0.56968451
-3.4640472 6.3250327 -0.57057154
-3.8739691 7.0735121 -0.5706861
-4.4097762 8.0518475 -0.57298034
-5.0976443 9.3078308 -0.5738582
-6.048492 11.043991 -0.57598525
-7.4393568 13.583583 -0.5794946
-9.6439476 17.608965 -0.58417684
-13.704247 25.022697 -0.59286606
-23.640875 43.166069 -0.61358714
-1.0329607 1.8322514 -0.56359464
-1.0698655 1.8977128 -0.56436723
-1.1121562 1.9727274 -0.56663412
-1.1519105 2.0432432 -0.56621641
-1.195154 2.1199477 -0.56611013
-1.2492696 2.2159374 -0.56949973
-1.2923561 2.2923636 -0.56621623
-1.3523948 2.3988595 -0.56861621
-1.4009629 2.485009 -0.56435859
-1.4678048 2.6035721 -0.56551421
-1.546329 2.7428572 -0.56870377
-1.6212151 2.875689 -0.56795537
-1.692542 3.0022078 -0.56349307
-1.7960997 3.1858969 -0.5668031
-1.9001489 3.3704581 -0.56675053
-2.0187132 3.580766 -0.56725937
-2.1607425 3.8326955 -0.5699479
-2.3105109 4.0983524 -0.56973684
-2.4821887 4.4028726 -0.56948864
-2.6818583 4.7570434 -0.56937832
-2.9250088 5.1883407 -0.57100385
-3.2015164 5.6788063 -0.5703457
-3.5454814 6.2889266 -0.57120413
-3.9764194 7.0533185 -0.57295847
-4.5130129 8.0051203 -0.57356089
-5.219615 9.258482 -0.57472926
-6.1941624 10.987121 -0.57694793
-7.609149 13.497005 -0.57974887
-9.8633165 17.495415 -0.58438927
-14.029948 24.886131 -0.59367305
-24.227058 42.973625 -0.61503977
-1.0563748 1.8210735 -0.56410927
-1.0970136 1.8911303 -0.56637853
-1.1345294 1.9558033 -0.56573731
-1.1751405 2.0258124 -0.56534767
-1.2214814 2.1056993 -0.56627333
-1.2697452 2.1889007 -0.56652105
-1.3231713 2.2810011 -0.56738555
-1.3802545 2.3794062 -0.56798524
-1.4394208 2.4814026 -0.56751639
-1.5005525 2.5867867 -0.56583333
-1.5744282 2.7141404 -0.56672084
-1.6527754 2.8492024 -0.56669521
-1.7383921 2.9967961 -0.56644666
-1.8391681 3.1705227 -0.56804836
-1.9425858 3.3488035 -0.56708306
-2.0740833 3.5754907 -0.5704208
-2.2047253 3.8007028 -0.56917882
-2.3551223 4.0599709 -0.56838405
-2.532896 4.3664331 -0.56876093
-2.7424927 4.7277546 -0.56986594
-2.9832332 5.1427646 -0.56998205
-3.2677028 5.6331587 -0.56975365
-3.6281967 6.2546105 -0.57209623
-4.053616 6.9879866 -0.57165724
-4.6173897 7.9598699 -0.57434338
-5.3452845 9.2146797 -0.57604682
-6.3290796 10.910634 -0.57697463
-7.7784019 13.409105 -0.58003777
-10.090319 17.394596 -0.58512187
-14.342937 24.725641 -0.5940069
-24.804651 42.760483 -0.61630791
-1.0878841 1.8233638 -0.56891948
-1.1205944 1.8781883 -0.56658643
-1.1565279 1.9384151 -0.56477851
-1.2028357 2.0160298 -0.56670249
-1.2472287 2.0904357 -0.56625015
-1.2975137 2.1747165 -0.56693643
-1.3562161 2.2731054 -0.56952673
-1.3995452 2.3457277 -0.56401128
-1.467823 2.4601657 -0.56674445
-1.5325665 2.56868 -0.56595206
-1.6110116 2.7001591 -0.56789494
-1.6949642 2.8408689 -0.56914014
-1.7782885 2.980526 -0.56746155
-1.8698745 3.1340299 -0.56558692
-1.9852157 3.3273492 -0.56754088
-2.1141145 3.5433919 -0.56940424
-2.2429414 3.7593141 -0.56706804
-2.4067681 4.0338979 -0.56883413
-2.5958824 4.3508658 -0.57084787
-2.8009353 4.6945477 -0.56997168
-3.0440781 5.1020708 -0.5695774
-3.3489211 5.6130071 -0.57183731
-3.6989858 6.199738 -0.57119429
-4.1505675 6.9566183 -0.57322294
-4.711875 7.8974051 -0.57397348
-5.4551101 9.143115 -0.57572287
-6.4717722 10.847107 -0.57777983
-7.9554324 13.333817 -0.58096862
-10.318929 17.295187 -0.58600187
-14.665249 24.579901 -0.5947929
-25.370823 42.523132 -0.61733675
-1.1048114 1.801031 -0.56614733
-1.1445292 1.8657779 -0.56704533
-1.1880375 1.9367038 -0.56849337
-1.2246069 1.996318 -0.56535161
-1.2623852 2.0579033 -0.56160021
-1.3236008 2.1576951 -0.56669921
-1.3746597 2.2409296 -0.5656575
-1.4389595 2.3457494 -0.56822795
-1.5019038 2.4483593 -0.56823611
-1.57486 2.5672903 -0.56986946
-1.6339881 2.6636794 -0.56440562
-1.7265645 2.8145945 -0.56808668
-1.8183559 2.9642303 -0.56857306
-1.9099017 3.1134655 -0.56607121
-2.0248487 3.3008487 -0.56722474
-2.1509912 3.5064824 -0.56768042
-2.2915449 3.7356093 -0.56769991
-2.4609244 4.0117264 -0.56993169
-2.6444626 4.310925 -0.56983083
-2.8560133 4.6557889 -0.56948668
-3.1119039 5.0729342 -0.57055336
-3.4140258 5.565444 -0.57122535
-3.7741055 6.1524358 -0.57106876
-4.2326279 6.8999052 -0.57279509
-4.8120804 7.8445115 -0.57438636
-5.5655437 9.0727854 -0.57556009
-6.5994663 10.758255 -0.577326
-8.1202583 13.237406 -0.5810746
-10.536539 17.176355 -0.58632112
-14.988554 24.433899 -0.59567481
-25.947884 42.299477 -0.61867517
-1.1316624 1.7949077 -0.56855381
-1.1657038 1.8489001 -0.5662294
-1.2058942 1.9126453 -0.56574118
-1.251565 1.9850827 -0.5664854
-1.293039 2.050864 -0.56397557
-1.3503002 2.141685 -0.56681234
-1.4086608 2.2342494 -0.5683006
-1.4620392 2.318912 -0.56603909
-1.5266873 2.4214489 -0.56630474
-1.5955399 2.5306549 -0.56604964
-1.678242 2.6618268 -0.5683428
-1.7683481 2.8047426 -0.57044393
-1.845311 2.9268119 -0.56570542
-1.9574929 3.1047413 -0.56881833
-2.0711746 3.2850499 -0.56884331
-2.2060039 3.4988999 -0.57080126
-2.3434513 3.7169023 -0.56919318
-2.5082228 3.9782436 -0.5695135
-2.692292 4.2701921 -0.56877965
-2.9232304 4.6364789 -0.57147837
-3.1659124 5.0213919 -0.5690918
-3.4855697 5.5283947 -0.57177854
-3.8588333 6.1204205 -0.57245815
-4.3155627 6.84483 -0.57258505
-4.9103608 7.7882276 -0.57464284
-5.6776934 9.0052786 -0.57566309
-6.7459621 10.699639 -0.57858819
-8.2825394 13.136775 -0.58108401
-10.746183 17.044312 -0.58628011
-15.306345 24.277096 -0.59639549
-26.51466 42.054386 -0.61981225
-1.1486911 1.7732085 -0.56611174
-1.1865804 1.8316973 -0.56538677
-1.2363918 1.9085901 -0.56899559
-1.2777869 1.9724908 -0.56733292
-1.3137077 2.027941 -0.56207162
-1.3777385 2.1267838 -0.56730938
-1.4330469 2.2121623 -0.5671218
-1.4926842 2.3042231 -0.56689101
-1.5569332 2.4034026 -0.56651878
-1.6280203 2.5131381 -0.56656647
-1.708105 2.6367631 -0.567433
-1.7976657 2.7750161 -0.56885082
-1.8900774 2.9176698 -0.56838757
-1.9904963 3.0726843 -0.56738651
-2.1102912 3.2576091 -0.56854206
-2.2419422 3.4608355 -0.5690459
-2.3818014 3.676733 -0.5674839
-2.5516541 3.9389307 -0.5683344
-2.7526152 4.2491498 -0.57044214
-2.9693074 4.583653 -0.56942445
-3.2320576 4.989254 -0.56991065
-3.5487549 5.4781332 -0.57105023
-3.9332356 6.0716472 -0.57237667
-4.4064355 6.802115 -0.57350105
-5.000031 7.7184353 -0.57398629
-5.7937026 8.9436083 -0.57623136
-6.8778081 10.617117 -0.5786553
-8.450779 13.045278 -0.58158928
-10.960274 16.919127 -0.58656555
-15.619309 24.111176 -0.59699255
-27.088305 41.815605 -0.62115526
-1.1715236 1.7606291 -0.56665194
-1.2034858 1.8086637 -0.56280231
-1.2502341 1.8789195 -0.56469065
-1.3050762 1.9613392 -0.56869823
-1.3552116 2.0366852 -0.56907099
-1.4084741 2.1167312 -0.56920469
-1.4641324 2.2003775 -0.56867313
-1.5239249 2.2902369 -0.56801736
-1.596161 2.3987973 -0.57001656
-1.6621109 2.4979103 -0.56769812
-1.7423531 2.6185026 -0.56807101
-1.827038 2.7457716 -0.5674184
-1.9305992 2.9014091 -0.56980139
-2.0366502 3.0607882 -0.56977123
-2.1497996 3.230835 -0.5684399
-2.2858491 3.4352977 -0.56942546
-2.4346602 3.6589394 -0.5693152
-2.6064067 3.9170489 -0.56975836
-2.8055875 4.2163887 -0.57063234
-3.0279675 4.5505934 -0.56989986
-3.2974005 4.955512 -0.57064468
-3.6149485 5.4327402 -0.5709089
-4.002089 6.0145564 -0.57159066
-4.4857965 6.741498 -0.57299763
-5.1016579 7.667047 -0.57478648
-5.9044261 8.8734913 -0.57634801
-7.0055962 10.528389 -0.57847077
-8.6191206 12.95328 -0.58216894
-11.187448 16.813101 -0.5876146
-15.927456 23.936642 -0.59747523
-27.660259 41.569332 -0.62250233
-1.1982529 1.7536578 -0.56910741
-1.2355247 1.8082055 -0.56734437
-1.2845908 1.8800144 -0.5697239
-1.3240575 1.9377744 -0.56654346
-1.3765734 2.014632 -0.56759578
-1.4257171 2.0865545 -0.56576145
-1.4832813 2.1708002 -0.56570011
-1.5587759 2.2812877 -0.57050854
-1.6063091 2.350853 -0.56327474
-1.6884967 2.4711356 -0.56628895
-1.7703443 2.5909204 -0.56676704
-1.8613918 2.7241697 -0.56764138
-1.9649858 2.8757808 -0.56947047
-2.0671618 3.0253167 -0.56785697
-2.1954072 3.2130053 -0.57000947
-2.3196681 3.3948624 -0.56740808
-2.4787419 3.6276689 -0.5691492
-2.6582296 3.8903513 -0.57058644
-2.8517163 4.173522 -0.56953353
-3.0858996 4.5162516 -0.57030815
-3.3656592 4.9256835 -0.57193232
-3.6857932 5.3942032 -0.57157874
-4.077342 5.9672403 -0.57181549
-4.5686512 6.6862769 -0.57303566
-5.194478 7.6021819 -0.57466871
-6.0153437 8.8035288 -0.57656461
-7.1400204 10.449507 -0.57891679
-8.7826319 12.853489 -0.5824936
-11.397971 16.68107 -0.58785403
-16.242964 23.771774 -0.59830022
-28.223648 41.305656 -0.62370372
-1.21193 1.7276806 -0.56547058
-1.2533501 1.7867274 -0.56539822
-1.2944353 1.8452967 -0.56398386
-1.3462656 1.9191841 -0.56590545
-1.4069774 2.0057325 -0.56991965
-1.4507443 2.0681248 -0.56555855
-1.5145675 2.1591089 -0.56746382
-1.575287 2.2456682 -0.56640208
-1.6494057 2.3513291 -0.56820548
-1.7208182 2.4531317 -0.56696934
-1.8064678 2.5752306 -0.56815106
-1.9005082 2.709291 -0.56936759
-2.0034313 2.856014 -0.57039142
-2.1021976 2.9968116 -0.56731564
-2.2355497 3.186913 -0.57021421
-2.369149 3.377367 -0.56931001
-2.5287652 3.6049097 -0.57041383
-2.7023809 3.8524096 -0.56985223
-2.9049184 4.1411395 -0.56994587
-3.1375844 4.4728189 -0.56965244
-3.4219871 4.8782525 -0.5712676
-3.762089 5.3630886 -0.57314026
-4.1622691 5.9335699 -0.57345015
-4.6606503 6.6440425 -0.5742842
-5.2885108 7.5390964 -0.57477224
-6.1210661 8.725955 -0.57636994
-7.2781863 10.375501 -0.57973111
-8.9428225 12.748542 -0.58267695
-11.619891 16.564867 -0.58874977
-16.550644 23.593958 -0.59890175
-28.782715 41.031525 -0.62486136
-1.2309486 1.7096865 -0.56449258
-1.283687 1.782936 -0.56915045
-1.3193674 1.8324931 -0.56498641
-1.3753703 1.9102765 -0.56822276
-1.41855 1.9702497 -0.56475103
-1.4723001 2.044904 -0.56411666
-1.5358922 2.1332283 -0.56558269
-1.6070348 2.2320395 -0.56790584
-1.6751344 2.3266244 -0.56717026
-1.7551408 2.4377465 -0.5683586
-1.8396267 2.5550904 -0.56865543
-1.920523 2.667449 -0.56549454
-2.0365651 2.8286219 -0.56987911
-2.1447625 2.9788992 -0.5688743
-2.2672505 3.149025 -0.56838048
-2.4139035 3.3527141 -0.57011473
-2.5678535 3.5665376 -0.56929541
-2.7446642 3.8121133 -0.56884086
-2.9500027 4.0973115 -0.56886339
-3.1946979 4.4371734 -0.57007259
-3.4734759 4.8243732 -0.56991673
-3.824362 5.3117251 -0.57263345
-4.2204504 5.8618598 -0.57149208
-4.7270164 6.5654378 -0.57247084
-5.3832698 7.4769201 -0.57503515
-6.2316194 8.6552076 -0.57671475
-7.4036207 10.283022 -0.57960683
-9.1080332 12.650311 -0.58326197
-11.824529 16.423302 -0.58884156
-16.852596 23.406874 -0.59936774
-29.337101 40.746826 -0.62597209
-1.251173 1.6934693 -0.56417519
-1.2931063 1.7502263 -0.56374198
-1.3433501 1.8182313 -0.56563944
-1.3871318 1.8774902 -0.56350136
-1.4493909 1.9617581 -0.56738275
-1.4981594 2.0277667 -0.56442845
-1.564566 2.1176484 -0.5665099
-1.6352708 2.2133477 -0.56822324
-1.7018178 2.3034194 -0.56657195
-1.779453 2.408499 -0.5665983
-1.8672296 2.5273051 -0.56753868
-1.9631894 2.6571872 -0.56839377
-2.0638175 2.7933879 -0.56785041
-2.1794086 2.949841 -0.56839985
-2.3065817 3.1219707 -0.56857359
-2.4531143 3.320303 -0.56968963
-2.6149178 3.539305 -0.57003784
-2.7958839 3.7842436 -0.56976914
-3.006 4.0686369 -0.56997102
-3.2548077 4.4053993 -0.57108921
-3.5393116 4.7904768 -0.57101059
-3.8898454 5.2649264 -0.57270145
-4.3006129 5.8209023 -0.57261139
-4.8203211 6.5243297 -0.57401127
-5.4781275 7.4146743 -0.57538509
-6.3493209 8.5938396 -0.57778418
-7.5281644 10.18941 -0.57950431
-9.2667465 12.54259 -0.58350503
-12.037409 16.292696 -0.58942127
-17.161303 23.227915 -0.60014337
-29.901024 40.471195 -0.62733871
-1.2779368 1.6859208 -0.56685269
-1.3209454 1.7426598 -0.56649387
-1.368621 1.8055561 -0.56688887
-1.4196668 1.8728982 -0.56731969
-1.4758191 1.9469773 -0.56831348
-1.5356593 2.0259216 -0.56912798
-1.5909708 2.0988915 -0.56668282
-1.6606255 2.1907835 -0.56762981
-1.7233239 2.2734985 -0.56438202
-1.8092847 2.3869026 -0.56670868
-1.8915282 2.4954023 -0.56555486
-2.0062103 2.6466968 -0.5713836
-2.102952 2.7743237 -0.56918859
-2.2156134 2.9229524 -0.56842542
-2.3494647 3.0995362 -0.56970626
-2.4911811 3.2864957 -0.56910193
-2.6596084 3.5086937 -0.57033175
-2.8438416 3.7517438 -0.57009786
-3.0494697 4.0230188 -0.5687905
-3.3009384 4.3547697 -0.56974465
-3.594435 4.7419658 -0.57045341
-3.9543753 5.2168179 -0.57271433
-4.3770137 5.7743845 -0.57328653
-4.9043412 6.4700623 -0.57449913
-5.5682034 7.3458638 -0.57531512
-6.4530964 8.5132608 -0.57765794
-7.6596904 10.105062 -0.58002007
-9.423316 12.431729 -0.5836941
-12.238448 16.145597 -0.58949941
-17.471632 23.049486 -0.60103869
-30.452568 40.174614 -0.62849838
-1.3053663 1.6788216 -0.56981957
-1.3395382 1.72277 -0.56533992
-1.3860414 1.7825774 -0.56498265
-1.4326067 1.8424646 -0.56339449
-1.4896504 1.9158281 -0.56452525
-1.5685164 2.017257 -0.57206887
-1.6232221 2.0876136 -0.56898385
-1.6794869 2.1599753 -0.56495559
-1.7588547 2.2620497 -0.56686598
-1.8442264 2.3718455 -0.56847495
-1.9242766 2.4747975 -0.56620491
-2.0314105 2.6125815 -0.56936812
-2.1342535 2.7448473 -0.56848246
-2.25528 2.9004984 -0.56940877
-2.3878853 3.0710411 -0.56982267
-2.5343478 3.2594056 -0.56976426
-2.7080882 3.4828515 -0.57150078
-2.8834212 3.7083461 -0.56884807
-3.1042871 3.9924002 -0.56981528
-3.363699 4.3260279 -0.57135254
-3.6697776 4.7196732 -0.57315689
-4.0138063 5.1621256 -0.57208526
-4.4504814 5.7237306 -0.57364738
-4.9817672 6.4070129 -0.57429671
-5.6599541 7.2792239 -0.57550329
-6.5613766 8.4385366 -0.57801849
-7.7866979 10.014413 -0.58026886
-9.5747976 12.314075 -0.58365381
-12.454882 16.018129 -0.59039247
-17.770233 22.854162 -0.60159791
-31.012396 39.884808 -0.62988275
-1.3236231 1.6597773 -0.56883693
-1.3724831 1.7210462 -0.57026935
-1.4158471 1.775423 -0.56819016
-1.4624411 1.8338503 -0.56621647
-1.5188631 1.9046015 -0.56667763
-1.5793469 1.980446 -0.56709421
-1.6519278 2.07146 -0.57007444
-1.7155145 2.1511955 -0.56813365
-1.7855363 2.2390003 -0.56654906
-1.8675038 2.3417847 -0.5667311
-1.9670192 2.4665735 -0.56981409
-2.0561008 2.578279 -0.56735957
-2.1715541 2.7230532 -0.56945598
-2.294924 2.8777547 -0.57044065
-2.4246976 3.0404866 -0.56964236
-2.5798013 3.2349811 -0.57099682
-2.7403336 3.4362829 -0.56934559
-2.9264834 3.6697083 -0.56839824
-3.1624928 3.965656 -0.57150525
-3.4170804 4.2848997 -0.57142687
-3.7225704 4.6679735 -0.57239407
-4.0806437 5.1169848 -0.57260019
-4.5091219 5.6542821 -0.57220078
-5.0636992 6.3497028 -0.57469743
-5.7535744 7.2147822 -0.57595837
-6.6631899 8.3554087 -0.57789302
-7.915637 9.9259338 -0.58073807
-9.7429457 12.217315 -0.58470184
-12.665465 15.882052 -0.59107256
-18.06251 22.649759 -0.60201836
-31.563545 39.57959 -0.63114429
-1.335212 1.6327156 -0.56514651
-1.3904284 1.700235 -0.56899577
-1.4201612 1.7365927 -0.56130946
-1.4898109 1.8217613 -0.56809717
-1.5414937 1.8849596 -0.56643045
-1.6039875 1.9613779 -0.56723899
-1.6768959 2.0505314 -0.56994635
-1.744923 2.1337159 -0.56914091
-1.8154478 2.2199545 -0.56733561
-1.8970708 2.3197641 -0.5670045
-1.9880042 2.430959 -0.56719095
-2.0859249 2.5506978 -0.56689161
-2.1969879 2.686507 -0.56741989
-2.3190405 2.8357546 -0.56772488
-2.4673607 3.0171227 -0.57090622
-2.6163781 3.199343 -0.57034194
-2.7895627 3.4111156 -0.57081586
-2.9784791 3.6421254 -0.56975561
-3.2038531 3.9177158 -0.57023078
-3.4739058 4.2479396 -0.57215136
-3.7751458 4.6163001 -0.57170677
-4.1515355 5.0765548 -0.57374507
-4.5920763 5.6152544 -0.57392216
-5.1298389 6.2728376 -0.57340628
-5.8454051 7.1478419 -0.57630897
-6.7721353 8.2810602 -0.57846653
-8.0309191 9.8203182 -0.58029264
-9.8913345 12.095261 -0.58463722
-12.861655 15.727409 -0.59115851
-18.363861 22.455582 -0.60281354
-32.106144 39.259834 -0.63229305
-1.3588481 1.6205422 -0.56667364
-1.4057174 1.6764377 -0.56677365
-1.4471411 1.725839 -0.56354272
-1.5076398 1.7979889 -0.56642228
-1.5706682 1.8731557 -0.56864417
-1.628456 1.9420725 -0.56740397
-1.6927828 2.0187876 -0.56686592
-1.7707472 2.1117668 -0.56905121
-1.844961 2.2002733 -0.5680607
-1.9300175 2.3017104 -0.56834948
-2.0225956 2.4121177 -0.56855476
-2.1139164 2.5210254 -0.56603128
-2.2325356 2.6624889 -0.5681023
-2.3558989 2.8096101 -0.56824738
-2.5011914 2.9828839 -0.57020402
-2.6576028 3.1694179 -0.57078975
-2.8252695 3.3693748 -0.56960142
-3.0346985 3.6191366 -0.57195371
-3.25704 3.8842978 -0.57115293
-3.5170195 4.1943455 -0.57071453
-3.8223073 4.5584273 -0.57031721
-4.2155395 5.02739 -0.57400358
-4.6656075 5.5641341 -0.57451761
-5.221117 6.2266269 -0.57500738
-5.9344435 7.0773296 -0.57646376
-6.8725281 8.1960754 -0.57838947
-8.1672201 9.7401056 -0.58144325
-10.052642 11.988631 -0.58541387
-13.071692 15.589106 -0.59195691
-18.666252 22.261095 -0.60370862
-32.646305 38.933498 -0.63345468
-1.3789592 1.6040473 -0.56679219
-1.4284329 1.6615967 -0.56765157
-1.4749618 1.7157204 -0.56611812
-1.5245529 1.7734064 -0.5645411
-1.5872915 1.8463857 -0.56639981
-1.6647341 1.9364694 -0.57170445
-1.7251649 2.0067644 -0.56940341
-1.790745 2.0830491 -0.56720346
-1.8618338 2.1657417 -0.56501341
-1.9682922 2.2895775 -0.57128674
-2.0500033 2.3846262 -0.56797355
-2.1443202 2.4943385 -0.56591678
-2.2655075 2.6353073 -0.56820363
-2.3938677 2.7846198 -0.56910354
-2.529227 2.9420738 -0.56830502
-2.6802065 3.117698 -0.56736779
-2.8603561 3.3272533 -0.56838369
-3.0737159 3.5754399 -0.57097799
-3.3038063 3.8430882 -0.57102382
-3.570406 4.1532049 -0.57104725
-3.8844125 4.5184669 -0.57125044
-4.2695231 4.9664392 -0.57299542
-4.7234526 5.4944639 -0.57327771
-5.2943358 6.1585326 -0.57468754
-6.0237403 7.0069981 -0.57672477
-6.9769406 8.1157894 -0.57873434
-8.289031 9.6420536 -0.58163053
-10.203799 11.86937 -0.58567286
-13.271237 15.437508 -0.59235233
-18.959871 22.054701 -0.60438824
-33.18029 38.596325 -0.63455904
-1.3960892 1.5841475 -0.56578374
-1.4380549 1.6317661 -0.56345898
-1.5000513 1.7021135 -0.56767172
-1.5581169 1.768001 -0.5688765
-1.6143605 1.8318206 -0.56797838
-1.6690139 1.893836 -0.56513405
-1.7466551 1.9819357 -0.56840968
-1.8195611 2.0646625 -0.5682463
-1.9014022 2.1575279 -0.56892723
-1.9752213 2.2412906 -0.565256
-2.0907445 2.3723752 -0.57113582
-2.1866128 2.4811575 -0.56898355
-2.3011317 2.6111023 -0.56904262
-2.4254155 2.7521279 -0.5685153
-2.5684619 2.914443 -0.56902546
-2.7289162 3.0965111 -0.56957573
-2.909379 3.3012826 -0.57001549
-3.1072602 3.5258195 -0.56911254
-3.3530369 3.804703 -0.57140338
-3.6225374 4.1105065 -0.57125789
-3.9484441 4.4803138 -0.57252181
-4.3308077 4.9141831 -0.57306719
-4.7971506 5.4433441 -0.57405525
-5.37396 6.0978522 -0.57514799
-6.1119428 6.9352436 -0.57696104
-7.07898 8.0325441 -0.57896161
-8.4050512 9.5372419 -0.58149856
-10.347569 11.741424 -0.58559364
-13.456772 15.269447 -0.59220815
-19.246815 21.83943 -0.60492885
-33.723064 38.265686 -0.63589257
-1.4182389 1.5699364 -0.56689388
-1.4769588 1.634937 -0.57078201
-1.5125383 1.6743222 -0.56456327
-1.5780596 1.7468517 -0.56827217
-1.6344966 1.8093253 -0.56719238
-1.6952558 1.8765835 -0.56616348
-1.7723473 1.961921 -0.5688768
-1.8450638 2.0424154 -0.56832457
-1.9268217 2.1329181 -0.5686425
-2.0131607 2.228492 -0.56822836
-2.109381 2.3350043 -0.56834036
-2.2092123 2.4455137 -0.56699646
-2.3275468 2.5765054 -0.56769729
-2.4615536 2.7248461 -0.56908923
-2.6030619 2.8814902 -0.56879807
-2.7632854 3.0588515 -0.56885564
-2.9470153 3.2622337 -0.56948704
-3.1578553 3.4956253 -0.57046336
-3.3948712 3.757993 -0.57061458
-3.6754613 4.0685954 -0.57167113
-4.0066071 4.4351616 -0.57300431
-4.3926401 4.8624854 -0.57329392
-4.8657494 5.386199 -0.5742951
-5.451766 6.0348973 -0.57548958
-6.1976643 6.8605781 -0.57704586
-7.1815424 7.9496937 -0.57931113
-8.5307894 9.4432592 -0.58212006
-10.511083 11.635367 -0.58670598
-13.664003 15.12553 -0.5930981
-19.530573 21.6196 -0.60544616
-34.246284 37.909332 -0.63692051
-1.4443486 1.5598462 -0.56962049
-1.4903015 1.6094738 -0.56824714
-1.5376856 1.660647 -0.56628495
-1.5913366 1.7185881 -0.5654006
-1.6625451 1.7954909 -0.56922114
-1.727039 1.865142 -0.56907558
-1.789452 1.9325459 -0.56669664
-1.8657957 2.0149944 -0.56703562
-1.9517379 2.1078091 -0.5683037
-2.045249 2.2087977 -0.56957626
-2.1351671 2.3059063 -0.5676055
-2.2531497 2.4333234 -0.57055056
-2.3712053 2.5608191 -0.57062232
-2.4944 2.6938653 -0.56898183
-2.6388752 2.8498936 -0.56892323
-2.8153846 3.0405173 -0.57184094
-2.993793 3.2331922 -0.5708006
-3.1909919 3.4461601 -0.56875134
-3.4446864 3.7201414 -0.57125556
-3.7389224 4.0379062 -0.57377559
-4.0528092 4.3768926 -0.57187152
-4.4505424 4.8064313 -0.57309401
-4.9283738 5.3224721 -0.57391852
-5.5279412 5.9699841 -0.57573795
-6.2764692 6.778368 -0.57657903
-7.2817082 7.8639917 -0.57954693
-8.6507549 9.342514 -0.58242303
-10.64974 11.501348 -0.58650714
-13.862705 14.971239 -0.5936873
-19.818588 21.403385 -0.60617
-34.783329 37.564785 -0.63826954
-1.4573604 1.5355859 -0.56726235
-1.5079885 1.5889316 -0.56749839
-1.5558034 1.639313 -0.5654909
-1.6172302 1.7040368 -0.56711286
-1.6737878 1.7636304 -0.56560266
-1.745072 1.8387407 -0.56752449
-1.8198981 1.9175832 -0.56882823
-1.891693 1.9932318 -0.5674144
-1.9779599 2.0841291 -0.56843382
-2.0669999 2.1779485 -0.56813246
-2.1711671 2.2877071 -0.56965435
-2.2789667 2.4012928 -0.56956786
-2.3990223 2.5277927 -0.56979334
-2.5250194 2.6605527 -0.56846076
-2.6742435 2.8177865 -0.56903529
-2.8377161 2.9900339 -0.56886595
-3.0242484 3.1865785 -0.56909341
-3.2455871 3.4197977 -0.57094395
-3.5044832 3.6925905 -0.5735988
-3.7741659 3.9767487 -0.57163662
-4.116601 4.337564 -0.5733034
-4.513525 4.7557936 -0.57363051
-4.9826689 5.2501192 -0.57268006
-5.6030354 5.9037848 -0.57595462
-6.3715401 6.7135401 -0.57768536
-7.3810272 7.7772126 -0.57979655
-8.7599077 9.2301054 -0.5820865
-10.798285 11.377896 -0.58693844
-14.044293 14.798137 -0.59362632
-20.105928 21.185137 -0.60694498
-35.301174 37.196007 -0.6393308
-1.4662298 1.5073717 -0.56345743
-1.5195172 1.5621543 -0.56456536
-1.5792226 1.623535 -0.56670403
-1.6364684 1.6823871 -0.56656182
-1.7025441 1.7503169 -0.56800407
-1.7640606 1.8135595 -0.56640464
-1.8419253 1.8936089 -0.56839216
-1.9176058 1.971413 -0.56787282
-1.9997214 2.0558329 -0.56737995
-2.0933404 2.1520786 -0.56805587
-2.1929162 2.2544487 -0.5680443
-2.3022552 2.3668556 -0.56807154
-2.4320557 2.5002983 -0.57029378
-2.5611541 2.6330192 -0.5692637
-2.7153068 2.7914975 -0.57042587
-2.8859291 2.9669073 -0.57117432
-3.0730438 3.1592724 -0.57092214
-3.2895026 3.3818047 -0.57131088
-3.5319269 3.6310315 -0.57073957
-3.8271947 3.9345844 -0.57229722
-4.1603446 4.2770824 -0.5720278
-4.5766668 4.7050867 -0.57425892
-5.062396 5.2044454 -0.57444471
-5.6852369 5.8447623 -0.57697302
-6.4509044 6.6319141 -0.5774436
-7.4680514 7.6776023 -0.57917279
-8.8933287 9.1428728 -0.58343756
-10.941762 11.248784 -0.5871743
-14.24121 14.640813 -0.59429514
-20.378044 20.949844 -0.607337
-35.823994 36.829201 -0.64054912
-1.4952786 1.4998881 -0.5674901
-1.5446891 1.5494508 -0.566796
-1.607756 1.6127123 -0.56978393
-1.6607541 1.6658736 -0.56783497
-1.725484 1.7308031 -0.56851393
-1.7924861 1.7980118 -0.56838971
-1.8631122 1.8688557 -0.56779587
-1.9488817 1.9548895 -0.56997305
-2.0221589 2.0283926 -0.56662643
-2.1174479 2.1239753 -0.56746751
-2.2232254 2.2300787 -0.56874919
-2.3304787 2.3376627 -0.56789988
-2.4519138 2.4594724 -0.56781572
-2.6010253 2.6090436 -0.57095182
-2.7501585 2.7586365 -0.57057816
-2.9173393 2.9263325 -0.57022607
-3.1118596 3.1214526 -0.57095945
-3.3279829 3.3382421 -0.5708217
-3.5831685 3.5942142 -0.5718348
-3.8721306 3.8840673 -0.5718317
-4.2188153 4.2318206 -0.57286912
-4.6328125 4.6470942 -0.57409036
-5.1421008 5.1579523 -0.57624847
-5.7466741 5.764389 -0.57597101
-6.5286856 6.5488114 -0.57715416
-7.5726695 7.596014 -0.57999861
-8.9946823 9.0224104 -0.58276439
-11.086493 11.12067 -0.58755851
-14.42657 14.471043 -0.59455967
-20.653744 20.717413 -0.60791534
-36.334259 36.446266 -0.64161116
-1.5159674 1.4836991 -0.56837487
-1.5651678 1.5318522 -0.56735575
-1.6182084 1.5837638 -0.56654364
-1.674401 1.6387603 -0.56556839
-1.7407058 1.7036538 -0.56658411
-1.804129 1.7657269 -0.56515408
-1.8822377 1.8421731 -0.56667823
-1.9638175 1.9220164 -0.56738627
-2.0566828 2.0129049 -0.56932169
-2.1450582 2.0993993 -0.56790566
-2.2569237 2.2088838 -0.57037836
-2.3624487 2.3121626 -0.56871927
-2.4851475 2.4322495 -0.5685429
-2.6215434 2.5657423 -0.56848735
-2.7905204 2.7311225 -0.57194132
-2.9481442 2.885391 -0.56926924
-3.1501253 3.0830729 -0.57098132
-3.36253 3.2909565 -0.56976318
-3.634706 3.5573392 -0.57303548
-3.9360538 3.8522723 -0.57423288
-4.2684326 4.1775761 -0.57258791
-4.6925478 4.5926642 -0.57445109
-5.191298 5.0807981 -0.57471693
-5.815814 5.6920209 -0.57584214
-6.6245847 6.4835763 -0.57854021
-7.6684151 7.505188 -0.58021963
-9.1081696 8.9142971 -0.58297122
-11.24298 11.003666 -0.58863646
-14.61506 14.303969 -0.59503406
-20.936523 20.490877 -0.60877633
-36.849976 36.065601 -0.64283812
-1.5262086 1.4574157 -0.56545275
-1.5843227 1.5129104 -0.56751275
-1.6400352 1.5661116 -0.56740016
-1.710126 1.6330432 -0.57080948
-1.7656068 1.6860231 -0.56789809
-1.8420855 1.7590547 -0.57022524
-1.9131193 1.8268867 -0.56916934
-1.998915 1.9088151 -0.57070202
-2.0722785 1.9788718 -0.5668602
-2.1694252 2.0716398 -0.56756973
-2.2759297 2.1733437 -0.56838471
-2.3862827 2.2787225 -0.56766856
-2.5094223 2.3963115 -0.5673123
-2.6713901 2.5509789 -0.57245117
-2.8108723 2.6841741 -0.56930476
-2.9873807 2.8527265 -0.57002902
-3.1951611 3.0511413 -0.57230067
-3.4133193 3.2594662 -0.57153463
-3.6677599 3.5024378 -0.57141352
-3.9607799 3.7822502 -0.5710119
-4.3161654 4.1216168 -0.57214916
-4.7453012 4.5314097 -0.57404453
-5.2510371 5.0143499 -0.57446098
-5.8925471 5.6269445 -0.57654524
-6.6929903 6.3913078 -0.5776071
-7.7575507 7.4078836 -0.58002782
-9.2245741 8.8087826 -0.58344471
-11.378942 10.866043 -0.5887149
-14.806331 14.138945 -0.59569794
-21.20524 20.249428 -0.60930365
-37.352489 35.66885 -0.64390439
-1.5575043 1.4511098 -0.57039362
-1.603003 1.4935005 -0.56758291
-1.6675795 1.5536656 -0.57027698
-1.7146404 1.5975116 -0.5657168
-1.7937505 1.6712177 -0.57029748
-1.8544786 1.7277975 -0.567442
-1.924425 1.7929658 -0.5659309
-2.0040867 1.8671856 -0.56558067
-2.091332 1.9484711 -0.56547546
-2.1988959 2.0486875 -0.56864631
-2.2942488 2.1375265 -0.56635278
-2.4178941 2.2527256 -0.56855589
-2.5510221 2.3767595 -0.57006669
-2.6850572 2.5016384 -0.56874508
-2.8354533 2.6417608 -0.56766111
-3.0194907 2.8132265 -0.56951225
-3.2307565 3.0100605 -0.57200348
-3.4442725 3.2089911 -0.57006723
-3.7113903 3.4578617 -0.5715434
-4.0149155 3.740653 -0.572142
-4.3794804 4.0803137 -0.57384777
-4.8024864 4.4744244 -0.5742631
-5.3191199 4.9557662 -0.57519913
-5.9539461 5.5472269 -0.57583517
-6.7780848 6.3150678 -0.57820559
-7.8608108 7.3238316 -0.58097106
-9.3354931 8.6977768 -0.58365148
-11.505041 10.719121 -0.58837509
-14.98876 13.964864 -0.59608376
-21.474503 20.007559 -0.60992533
-37.856422 35.270416 -0.64506632
-1.5702714 1.4273435 -0.56859851
-1.6200237 1.4725673 -0.56715524
-1.6815788 1.5285196 -0.5685938
-1.7370665 1.5789567 -0.5666672
-1.7942874 1.6309694 -0.56404924
-1.883211 1.7117991 -0.56974989
-1.9569215 1.7788004 -0.56901199
-2.0433021 1.8573184 -0.57015938
-2.1323543 1.9382651 -0.57007998
-2.2335558 2.0302551 -0.57111025
-2.3410239 2.1279414 -0.57139707
-2.4431064 2.2207322 -0.56802034
-2.5682933 2.3345246 -0.5674684
-2.7257643 2.4776623 -0.57087106
-2.8880777 2.6252017 -0.57169074
-3.0548728 2.7768149 -0.56970251
-3.2595868 2.9628956 -0.57061428
-3.4915576 3.1737521 -0.57139105
-3.7507885 3.4093876 -0.57111138
-4.0606542 3.6910491 -0.57214892
-4.4253025 4.0225067 -0.57332742
-4.8536406 4.4118567 -0.57384944
-5.3940601 4.9030871 -0.57673967
-6.0256 5.4771433 -0.57620788
-6.8589125 6.2346067 -0.57851708
-7.9459095 7.2226644 -0.58065265
-9.451519 8.5912313 -0.58425653
-11.645799 10.585785 -0.58887213
-15.159148 13.779346 -0.59607655
-21.744402 19.765202 -0.61064196
-38.353424 34.862453 -0.64618158
-1.5872926 1.4075646 -0.56845164
-1.6441002 1.45794 -0.56926489
-1.700591 1.5080343 -0.56870931
-1.7619848 1.5624768 -0.5684855
-1.8270701 1.6201924 -0.56804895
-1.890174 1.676151 -0.5655781
-1.9677622 1.7449541 -0.56588244
-2.0652046 1.831363 -0.56994414
-2.1487036 1.9054074 -0.56814408
-2.2461197 1.9917933 -0.5680173
-2.3562365 2.0894418 -0.56879604
-2.4810412 2.2001147 -0.57050705
-2.6110775 2.3154273 -0.57058769
-2.7486866 2.4374549 -0.56935155
-2.9128354 2.5830173 -0.57026112
-3.0965509 2.7459309 -0.57113498
-3.2972534 2.923908 -0.570871
-3.5205839 3.1219509 -0.56981575
-3.7989097 3.368762 -0.57208782
-4.1098905 3.6445305 -0.57272851
-4.4811459 3.9737494 -0.57418841
-4.9159617 4.3593316 -0.57483661
-5.438684 4.822866 -0.57512653
-6.0852561 5.3962274 -0.57552385
-6.9359002 6.1505537 -0.57858783
-8.0446148 7.1337295 -0.58141148
-9.5637474 8.4808521 -0.58470345
-11.781171 10.447199 -0.58917695
-15.340759 13.603738 -0.59659505
-22.004702 19.513126 -0.61116743
-38.838043 34.440441 -0.64716244
-1.6117567 1.3942368 -0.57102996
-1.6566927 1.4331083 -0.5674805
-1.7207918 1.4885569 -0.56930059
-1.7949096 1.5526718 -0.572905
-1.8353089 1.5876188 -0.56449825
-1.9302133 1.6697152 -0.57137203
-1.9907243 1.7220597 -0.56635344
-2.0726449 1.7929244 -0.56587046
-2.173718 1.8803568 -0.56860149
-2.2644944 1.9588822 -0.56652987
-2.3741918 2.0537751 -0.56699121
-2.5049934 2.166924 -0.56984472
-2.6359079 2.2801704 -0.56984365
-2.7849042 2.4090583 -0.57067436
-2.9392796 2.5425997 -0.56927431
-3.131521 2.7088964 -0.57139802
-3.3378005 2.887337 -0.57170093
-3.578233 3.0953209 -0.57294273
-3.8429263 3.3242917 -0.5725174
-4.1635857 3.6016753 -0.57399607
-4.5255356 3.9147775 -0.57366472
-4.9650455 4.2949719 -0.57435715
-5.5071473 4.7639122 -0.57612818
-6.164259 5.3323412 -0.57675076
-7.0167527 6.0697842 -0.57906252
-8.1165152 7.0211244 -0.58032435
-9.664856 8.3605042 -0.58455551
-11.909651 10.302345 -0.58922231
-15.526484 13.431057 -0.59734982
-22.255493 19.25193 -0.61151171
-39.328629 34.020908 -0.64831734
-1.6186054 1.3657309 -0.5674637
-1.6735679 1.4121066 -0.56727016
-1.7256223 1.4560286 -0.5649327
-1.7891003 1.5095894 -0.56508321
-1.8724307 1.5799012 -0.56989759
-1.9385786 1.6357147 -0.56785142
-2.0095048 1.6955601 -0.56572205
-2.1060061 1.7769852 -0.56897002
-2.1776536 1.8374389 -0.56367821
-2.3036838 1.9437796 -0.57031143
-2.4077756 2.0316093 -0.56900257
-2.5255935 2.1310205 -0.56852692
-2.6565938 2.2415545 -0.5683139
-2.8157012 2.3758047 -0.57095563
-2.9754989 2.5106373 -0.57026684
-3.1618559 2.6678796 -0.57090402
-3.3667979 2.8408036 -0.57064128
-3.6133745 3.0488575 -0.57252342
-3.8709559 3.2661972 -0.57066667
-4.1976051 3.5418139 -0.57263869
-4.577065 3.8619909 -0.57413352
-5.0200896 4.2358017 -0.57465595
-5.5614152 4.6925559 -0.57572544
-6.2237902 5.2514482 -0.57623535
-7.0856862 5.9786901 -0.57864058
-8.2159462 6.9323702 -0.58129478
-9.7665224 8.2406998 -0.58453161
-12.038915 10.158077 -0.5893932
-15.695515 13.243406 -0.59754252
-22.511774 18.994762 -0.61208951
-39.799801 33.581882 -0.64922816
-1.6295313 1.340999 -0.56547034
-1.691543 1.3920306 -0.56751812
-1.7501786 1.4402839 -0.56713098
-1.8191657 1.4970559 -0.56872201
-1.8974296 1.5614619 -0.57161921
-1.9611194 1.6138747 -0.56859815
-2.0346751 1.6744062 -0.56696892
-2.1332469 1.7555244 -0.57045442
-2.231215 1.8361458 -0.57165498
-2.3249009 1.9132432 -0.56969672
-2.4340754 2.0030866 -0.56935388
-2.5621567 2.1084895 -0.57087803
-2.6855443 2.2100294 -0.5686506
-2.8432124 2.3397801 -0.57065701
-3.0174527 2.4831686 -0.57241213
-3.1874213 2.6230419 -0.56965327
-3.4035034 2.8008635 -0.57098198
-3.6514909 3.004941 -0.57266486
-3.9188414 3.2249532 -0.57183671
-4.2378774 3.4874992 -0.5722391
-4.6168427 3.7993634 -0.57321954
-5.069396 4.1717854 -0.57438451
-5.6221113 4.6266346 -0.57607579
-6.295414 5.1807189 -0.57692492
-7.1623816 5.8941774 -0.57894123
-8.2945328 6.8258643 -0.58087254
-9.8716249 8.1237097 -0.58479923
-12.167471 10.013042 -0.58961451
-15.86832 13.058601 -0.59796298
-22.776041 18.74321 -0.61296201
-40.26532 33.135757 -0.65012628
-1.6453738 1.3204422 -0.56529081
-1.7118965 1.3738279 -0.56863606
-1.7633418 1.4151137 -0.56571507
-1.837907 1.4749535 -0.56886798
-1.9037964 1.5278311 -0.56783462
-1.9745754 1.5846325 -0.56680715
-2.0657406 1.6577942 -0.569902
-2.1485472 1.7242481 -0.56883317
-2.2515664 1.8069227 -0.57113332
-2.3377752 1.8761069 -0.5671556
-2.4570942 1.9718626 -0.56902361
-2.5811009 2.0713801 -0.56938082
-2.7201052 2.1829336 -0.57024187
-2.8710139 2.3040404 -0.57050747
-3.040313 2.4399061 -0.57101417
-3.2197323 2.5838933 -0.56970638
-3.433161 2.7551739 -0.57023072
-3.6861203 2.9581783 -0.57234782
-3.9642289 3.1813653 -0.57270801
-4.2852488 3.4389899 -0.57288235
-4.6665754 3.7450113 -0.57363337
-5.1363702 4.1220298 -0.57618642
-5.6739187 4.5534225 -0.57560354
-6.3689318 5.1111832 -0.57785892
-7.2439499 5.8134007 -0.57971251
-8.394062 6.7363863 -0.58199769
-9.9764328 8.0062675 -0.58513165
-12.308885 9.8781023 -0.59053653
-16.02342 12.859084 -0.59780395
-23.030912 18.482723 -0.61365837
-40.742226 32.696373 -0.65128565
-1.6709672 1.3075315 -0.56851697
-1.725179 1.3499522 -0.56749129
-1.7846007 1.3964497 -0.56698358
-1.8499999 1.4476244 -0.56705844
-1.9199336 1.5023476 -0.56709486
-1.98913 1.5564939 -0.56544834
-2.0897703 1.6352448 -0.57094079
-2.1712878 1.6990323 -0.56927955
-2.2638924 1.7714953 -0.56869143
-2.3662717 1.8516071 -0.56850231
-2.4692695 1.9322029 -0.56629813
-2.6008205 2.0351417 -0.56816751
-2.7416484 2.1453393 -0.56918484
-2.8918746 2.2628913 -0.56908047
-3.0608466 2.3951118 -0.56929624
-3.265965 2.5556169 -0.57228321
-3.4760022 2.7199709 -0.57174796
-3.7228925 2.9131627 -0.57245219
-3.9980474 3.1284714 -0.57199293
-4.3281636 3.3867869 -0.57300866
-4.7159572 3.6902354 -0.5740822
-5.1782541 4.0519829 -0.57525212
-5.7318392 4.4851632 -0.57584095
-6.4271355 5.0292325 -0.5774852
-7.3102298 5.7202535 -0.57934391
-8.4942093 6.6467166 -0.5832305
