# .PCD v0.7 - Point Cloud Data file format
VERSION 0.7
FIELDS x y z
SIZE 4 4 4
TYPE F F F
COUNT 1 1 1
WIDTH 1420
HEIGHT 1
VIEWPOINT 0 0 0 1 0 0 0
POINTS 1420
DATA ascii
-3.1216636 -2.7003694 -0.56959933
-3.3449068 -2.8934841 -0.57291806
-3.5698123 -3.0880368 -0.57159442
-3.8508399 -3.3311374 -0.57369632
-4.1487432 -3.5888362 -0.5719499
-4.5281968 -3.9170794 -0.57400209
-4.9685493 -4.2980027 -0.57476246
-5.5086756 -4.7652345 -0.57628804
-6.178946 -5.3450465 -0.57812494
-7.022295 -6.0745783 -0.57951993
-8.1348429 -7.0369787 -0.58163476
-9.6831322 -8.3763142 -0.58566093
-11.921114 -10.312262 -0.58978945
-15.541257 -13.443836 -0.59791821
-22.318581 -19.306503 -0.61324519
-39.520935 -34.18726 -0.65148741
-12.48007 -10.795781 0.068573229
-12.448265 -10.768269 0.20520486
-12.550199 -10.856446 0.34484044
-12.790661 -11.064456 0.49209461
-12.978069 -11.226572 0.64208162
-13.064482 -11.301322 0.79017371
-13.04555 -11.284946 0.93274647
-12.980171 -11.228391 1.071198
-12.799997 -11.072533 1.1976149
-12.532589 -10.841213 1.3110923
-12.388759 -10.716793 1.4331332
-17.07435 -14.770026 2.1643744
-16.901115 -14.620171 2.3300047
-16.116491 -13.941439 2.4010274
-1.5936315 -1.4131858 -0.57072181
-1.6359389 -1.4507028 -0.56643903
-1.678676 -1.4886009 -0.56138051
-1.7570206 -1.5580745 -0.5668838
-1.8252382 -1.6185679 -0.56747943
-1.8944772 -1.6799672 -0.56686574
-1.9756447 -1.7519441 -0.56814927
-2.0548322 -1.8221653 -0.56708169
-2.1430259 -1.9003726 -0.56664282
-2.2387204 -1.9852318 -0.56614614
-2.3634014 -2.0957954 -0.57052565
-2.4788086 -2.1981351 -0.56999373
-2.6075635 -2.3123112 -0.56981975
-2.7453363 -2.434484 -0.56865758
-2.9125571 -2.5827706 -0.57020664
-3.093303 -2.7430506 -0.5705359
-3.2947848 -2.9217191 -0.57044357
-3.5355697 -3.1352398 -0.57224125
-3.8134127 -3.3816228 -0.57427192
-4.1047134 -3.63994 -0.57200718
-4.4822588 -3.974736 -0.57433099
-4.9056106 -4.350152 -0.57362622
-5.4469318 -4.8301802 -0.57599872
-6.1160789 -5.4235601 -0.57843894
-6.9425311 -6.1564336 -0.57914096
-8.0517006 -7.1400132 -0.5819236
-9.5617018 -8.4790382 -0.58457839
-11.799818 -10.463734 -0.59010947
-15.371088 -13.630632 -0.59777451
-22.066517 -19.567944 -0.61288434
-39.027908 -34.608807 -0.65032619
-12.350697 -10.952237 0.34303322
-12.347279 -10.949205 0.48017994
-12.376296 -10.974937 0.61893916
-12.392478 -10.989287 0.75764489
-12.377492 -10.975998 0.89456308
-12.346062 -10.948127 1.0298996
-12.321193 -10.926074 1.1652986
-12.29843 -10.905889 1.3005266
-18.682217 -16.566845 2.3938324
-16.964657 -15.043762 2.3640883
-16.144648 -14.316601 2.4312651
-1.568447 -1.4256852 -0.56793791
-1.6174141 -1.4701953 -0.56624162
-1.6722137 -1.5200069 -0.56542712
-1.7342455 -1.5763925 -0.56574696
-1.8090013 -1.6443441 -0.56867474
-1.8760104 -1.705254 -0.5675714
-1.9542489 -1.776371 -0.56823492
-2.0398109 -1.8541451 -0.5691852
-2.1344421 -1.9401629 -0.57063818
-2.2177017 -2.0158441 -0.56705642
-2.3226349 -2.1112261 -0.56690866
-2.443434 -2.22103 -0.56809652
-2.5790169 -2.3442721 -0.56983781
-2.7162578 -2.4690211 -0.56888008
-2.8774962 -2.6155834 -0.56959611
-3.0523973 -2.7745647 -0.56924081
-3.2638223 -2.9667456 -0.57135576
-3.4822288 -3.1652725 -0.56986439
-3.7509627 -3.4095459 -0.57113791
-4.063211 -3.693373 -0.57250911
-4.4223566 -4.0198288 -0.57294577
-4.859436 -4.4171247 -0.57453465
-5.3811045 -4.8913107 -0.57535446
-6.0421906 -5.4922237 -0.57779437
-6.8689966 -6.243773 -0.57936764
-7.9613981 -7.236743 -0.58178449
-9.4550924 -8.5944796 -0.58447748
-11.66562 -10.603803 -0.58987445
-15.189504 -13.806939 -0.59727019
-21.798803 -19.814651 -0.61216968
-38.534496 -35.027046 -0.64923233
-17.027876 -15.47798 2.3992391
-16.179455 -14.706783 2.4635541
-1.5497828 -1.4439156 -0.5675658
-1.6000973 -1.4907932 -0.56655407
-1.6671444 -1.5532602 -0.57012814
-1.7293252 -1.6111933 -0.57056177
-1.7923454 -1.6699086 -0.56985074
-1.861158 -1.7340206 -0.56948578
-1.9335445 -1.8014623 -0.56861275
-2.0128109 -1.875314 -0.56804281
-2.1035023 -1.9598101 -0.56876624
-2.1889679 -2.0394375 -0.56607884
-2.305418 -2.1479328 -0.56910998
-2.4271252 -2.2613261 -0.57072651
-2.5468526 -2.3728747 -0.56913489
-2.6843402 -2.5009704 -0.5685932
-2.8476021 -2.6530797 -0.57009333
-3.0229838 -2.8164811 -0.57017106
-3.2291517 -3.0085654 -0.57171935
-3.4432566 -3.2080445 -0.56989914
-3.7134924 -3.4598203 -0.57186711
-4.0133324 -3.7391779 -0.5719164
-4.3748589 -4.0760083 -0.57324225
-4.7973313 -4.4696212 -0.57364666
-5.3195701 -4.9561853 -0.57524782
-5.9608727 -5.5536799 -0.57650501
-6.7865295 -6.3229356 -0.57892597
-7.8736796 -7.3358212 -0.58192217
-9.3430119 -8.7047815 -0.58412158
-11.521743 -10.734682 -0.58922923
-15.018071 -13.992173 -0.59724945
-21.538143 -20.066853 -0.61173284
-38.047092 -35.448059 -0.64831531
-17.082003 -15.915114 2.4342556
-16.225138 -15.116783 2.4986243
-1.5392615 -1.4698802 -0.57028878
-1.5786632 -1.5075059 -0.56548548
-1.6323344 -1.5587579 -0.56473595
-1.7007896 -1.6241276 -0.56769317
-1.7623733 -1.6829355 -0.56685811
-1.8446995 -1.7615509 -0.57103443
-1.9070669 -1.8211071 -0.56736875
-1.9815528 -1.8922356 -0.56574506
-2.0779305 -1.9842691 -0.56840628
-2.1550949 -2.0579553 -0.5638206
-2.2845275 -2.1815538 -0.5705319
-2.3967285 -2.2886975 -0.57015342
-2.5138514 -2.4005411 -0.5683136
-2.6538224 -2.5342031 -0.5686866
-2.8056736 -2.6792097 -0.56825179
-2.9901173 -2.8553398 -0.57055122
-3.1923518 -3.0484586 -0.57179749
-3.4129195 -3.2590842 -0.5714677
-3.6765084 -3.510792 -0.5727765
-3.9663134 -3.7875342 -0.57180965
-4.3261676 -4.1311684 -0.573475
-4.7424049 -4.5286441 -0.57369411
-5.2629251 -5.025702 -0.57576156
-5.9035645 -5.6374655 -0.57762319
-6.7112064 -6.4087033 -0.57917917
-7.7708712 -7.4206042 -0.58102381
-9.2298546 -8.8138247 -0.58377874
-11.385127 -10.87195 -0.58903491
-14.821514 -14.153444 -0.59630883
-21.265547 -20.307016 -0.61103648
-37.556942 -35.864086 -0.64742887
-17.147926 -16.374994 2.4721572
-16.266161 -15.532974 2.534164
-1.5041976 -1.4721798 -0.5639621
-1.5706258 -1.537194 -0.56933421
-1.6248751 -1.5902886 -0.56887764
-1.6751065 -1.6394508 -0.56580669
-1.7494839 -1.7122451 -0.56944132
-1.8049036 -1.7664851 -0.56539673
-1.8941708 -1.8538522 -0.57027084
-1.9726596 -1.9306704 -0.56994092
-2.0521514 -2.0084701 -0.56806737
-2.1425915 -2.0969851 -0.56725258
-2.2329326 -2.1854031 -0.5643152
-2.364574 -2.3142426 -0.56923079
-2.4896035 -2.4366107 -0.56956232
-2.6272931 -2.5713694 -0.56973416
-2.7745392 -2.7154815 -0.56866586
-2.948843 -2.886075 -0.56940413
-3.1590092 -3.0917678 -0.57259166
-3.3738403 -3.302026 -0.57167965
-3.6303511 -3.5530767 -0.57234889
-3.9246345 -3.8410962 -0.57256693
-4.2826514 -4.1914926 -0.57449538
-4.685895 -4.5861526 -0.57363665
-5.2025585 -5.0918193 -0.57596362
-5.8204498 -5.696558 -0.5763011
-6.6244602 -6.4834547 -0.57852936
-7.6926012 -7.5288596 -0.58204961
-9.1274004 -8.9331179 -0.58420211
-11.250305 -11.010836 -0.58902001
-14.643806 -14.332104 -0.59620446
-20.999832 -20.552839 -0.61061716
-37.040432 -36.252003 -0.6461606
-17.224623 -16.857985 2.5129089
-16.307886 -15.960763 2.5710464
-1.4939771 -1.4985825 -0.56699616
-1.5486296 -1.5534036 -0.56824195
-1.6019769 -1.6069152 -0.56773579
-1.6547514 -1.6598525 -0.56578255
-1.7249601 -1.7302775 -0.56834131
-1.7920321 -1.7975564 -0.56824577
-1.8643354 -1.8700826 -0.56816864
-1.9460831 -1.9520823 -0.56915456
-2.0299575 -2.0362151 -0.56881171
-2.1166592 -2.1231842 -0.56725615
-2.2240763 -2.2309325 -0.56896687
-2.3384485 -2.3456571 -0.56984204
-2.4592428 -2.4668241 -0.56951302
-2.5915346 -2.5995235 -0.56886852
-2.7460287 -2.7544937 -0.56972134
-2.914418 -2.9234023 -0.56965506
-3.1175864 -3.127197 -0.57201016
-3.3237526 -3.3339987 -0.57009608
-3.5811989 -3.5922387 -0.57152051
-3.866622 -3.8785415 -0.57101816
-4.2245851 -4.2376084 -0.57365263
-4.6272144 -4.6414785 -0.57339662
-5.1346207 -5.1504493 -0.57541019
-5.7465224 -5.7642369 -0.57595581
-6.5449591 -6.5651355 -0.57859278
-7.5789018 -7.6022654 -0.58047593
-9.0067797 -9.0345449 -0.58354813
-11.096662 -11.130869 -0.58809733
-14.46619 -14.510785 -0.59619254
-20.718327 -20.782196 -0.60981631
-36.532825 -36.645447 -0.64511752
-19.352808 -19.412466 2.6279004
-17.291822 -17.345129 2.5536361
-16.354094 -16.404509 2.609936
-1.4744006 -1.5157717 -0.5665974
-1.518222 -1.5608227 -0.56408417
-1.575927 -1.620147 -0.56552142
-1.6299586 -1.6756947 -0.56430811
-1.6952868 -1.7428559 -0.56558287
-1.7711136 -1.8208104 -0.56866926
-1.8397256 -1.8913476 -0.56771338
-1.9227614 -1.9767134 -0.5693996
-1.998933 -2.0550222 -0.5671562
-2.0968056 -2.1556411 -0.56899619
-2.1924119 -2.2539303 -0.56791371
-2.2959783 -2.3604026 -0.56652278
-2.4301045 -2.4982924 -0.56983626
-2.5610723 -2.632935 -0.56924552
-2.7097347 -2.7857687 -0.56925529
-2.8708918 -2.951448 -0.5681982
-3.0606291 -3.1465094 -0.56861573
-3.288646 -3.3809242 -0.5711621
-3.5391195 -3.6384261 -0.57190186
-3.8261664 -3.9335272 -0.5721435
-4.1724572 -4.2895346 -0.57369316
-4.5646763 -4.6927595 -0.57275438
-5.0639992 -5.2060933 -0.57462662
-5.6830511 -5.8425155 -0.57675117
-6.4618497 -6.643167 -0.57842332
-7.4861121 -7.6961699 -0.58057344
-8.8999453 -9.1496744 -0.58387166
-10.965951 -11.273651 -0.58847237
-14.269826 -14.670233 -0.59548932
-20.445082 -21.018764 -0.60933495
-36.010216 -37.020653 -0.64387894
-18.690073 -19.21451 2.3451433
-18.543362 -19.063683 2.5496249
-17.364542 -17.851784 2.5965962
-16.397833 -16.85795 2.6497977
-1.4679863 -1.5467823 -0.57139844
-1.5061191 -1.5869619 -0.56679487
-1.5578014 -1.6414182 -0.56621712
-1.6197822 -1.706726 -0.56800777
-1.6821893 -1.7724828 -0.56844169
-1.7466955 -1.8404514 -0.56805253
-1.82689 -1.9249504 -0.57101357
-1.8922139 -1.9937807 -0.56757069
-1.9780906 -2.0842669 -0.56847143
-2.0817201 -2.193459 -0.57217848
-2.1683958 -2.2847869 -0.56892717
-2.28054 -2.4029508 -0.56996113
-2.392648 -2.5210762 -0.56827939
-2.5209124 -2.6562252 -0.56753612
-2.6683021 -2.8115263 -0.56777108
-2.8402538 -2.9927077 -0.56937468
-3.0345783 -3.1974628 -0.57103729
-3.2511768 -3.4256876 -0.57192731
-3.4889648 -3.676239 -0.57105881
-3.7730219 -3.9755433 -0.57146335
-4.1085973 -4.3291311 -0.57218879
-4.5133042 -4.7555614 -0.57360244
-4.9983435 -5.2666354 -0.57448167
-5.605701 -5.9065938 -0.57622868
-6.3668747 -6.7086239 -0.57726234
-7.3851609 -7.7815681 -0.58012128
-8.7848911 -9.2564306 -0.58374661
-10.818763 -11.399472 -0.5880515
-14.078773 -14.834467 -0.59508371
-20.154556 -21.236376 -0.60841292
-35.484001 -37.388645 -0.6426419
-17.84441 -18.802229 2.4851236
-17.433413 -18.369171 2.6404715
-16.431938 -17.31394 2.6895089
-1.4387393 -1.5537884 -0.56740826
-1.4783547 -1.5965716 -0.56369185
-1.5366246 -1.659501 -0.56589413
-1.5947791 -1.722306 -0.56662369
-1.6449707 -1.7765111 -0.56320399
-1.723356 -1.8611646 -0.56786203
-1.792451 -1.9357847 -0.56764638
-1.8704649 -2.0200369 -0.56845462
-1.9412416 -2.0964735 -0.56524742
-2.0231957 -2.1849809 -0.56343472
-2.139123 -2.3101785 -0.5686571
-2.2439029 -2.423337 -0.56820899
-2.3621187 -2.5510061 -0.56843567
-2.484663 -2.6833494 -0.56676072
-2.6444588 -2.8559234 -0.57012701
-2.8068881 -3.0313416 -0.57011521
-2.9928393 -3.2321625 -0.57061875
-3.2087657 -3.4653554 -0.57191932
-3.4456866 -3.7212217 -0.57142144
-3.73229 -4.0307431 -0.57275778
-4.0533738 -4.3775024 -0.57195121
-4.4497728 -4.8055997 -0.57299489
-4.9377441 -5.332592 -0.5750097
-5.5370355 -5.9798055 -0.57668513
-6.2826018 -6.7849913 -0.57714242
-7.2827106 -7.8650742 -0.57962674
-8.657486 -9.3497839 -0.58287627
-10.651393 -11.503133 -0.58659816
-13.901541 -15.01318 -0.5953505
-19.883041 -21.472992 -0.60814136
-34.972363 -37.768936 -0.6417383
-17.47032 -18.867336 2.4651489
-17.251823 -18.631369 2.6474674
-16.485806 -17.804096 2.7339523
-1.4266486 -1.5792456 -0.5702554
-1.4659076 -1.6227038 -0.56651121
-1.5244151 -1.6874694 -0.56899637
-1.5734382 -1.7417361 -0.56660795
-1.6338503 -1.80861 -0.56696808
-1.6964476 -1.8779029 -0.56656152
-1.7703147 -1.9596709 -0.56822437
-1.842465 -2.0395386 -0.56752408
-1.9307858 -2.1373062 -0.56981236
-1.9999589 -2.2138782 -0.56450212
-2.1216974 -2.3486381 -0.57165885
-2.2208271 -2.4583709 -0.56997734
-2.3306243 -2.5799122 -0.56844795
-2.4694841 -2.7336247 -0.57092267
-2.6098268 -2.8889787 -0.57027626
-2.7567384 -3.0516043 -0.56750786
-2.9547105 -3.2707517 -0.57097405
-3.1432605 -3.4794695 -0.56782687
-3.4002659 -3.7639649 -0.57152134
-3.6897302 -4.0843906 -0.57389045
-4.0018826 -4.4299316 -0.57232863
-4.3983316 -4.8687854 -0.57403672
-4.8685002 -5.3892441 -0.57461983
-5.4531178 -6.0363936 -0.57563227
-6.2058845 -6.8696771 -0.57781118
-7.1870189 -7.9557557 -0.57975292
-8.5368567 -9.449975 -0.58253407
-10.51284 -11.637313 -0.58680409
-13.683675 -15.147306 -0.59395194
-19.595398 -21.691359 -0.60745567
-34.436363 -38.11974 -0.64045566
-17.612972 -19.496889 2.7394731
-16.518398 -18.285236 2.7764349
-1.3950826 -1.5830052 -0.5653758
-1.4475214 -1.6425078 -0.56716818
-1.5039295 -1.7065142 -0.56913942
-1.5548823 -1.7643305 -0.5676955
-1.6082897 -1.8249321 -0.56584251
-1.6840314 -1.9108764 -0.57021904
-1.7439129 -1.9788243 -0.56751728
-1.8143868 -2.0587912 -0.56663036
-1.8943403 -2.1495147 -0.56681418
-1.9876717 -2.2554183 -0.56881899
-2.0810621 -2.3613887 -0.5684908
-2.1788566 -2.4723566 -0.56696528
-2.3034708 -2.6137567 -0.56962109
-2.4349334 -2.7629275 -0.57074624
-2.5715442 -2.9179406 -0.56970829
-2.7314317 -3.0993655 -0.57010072
-2.9045031 -3.2957501 -0.56906021
-3.1185024 -3.5385759 -0.57117152
-3.3601031 -3.8127213 -0.57260758
-3.6218514 -4.1097279 -0.57114971
-3.943876 -4.4751301 -0.57185942
-4.3420644 -4.9269562 -0.57455671
-4.8027358 -5.4496813 -0.57472354
-5.3749642 -6.0989914 -0.57525545
-6.1163015 -6.9401889 -0.57737243
-7.0861144 -8.0406389 -0.57954508
-8.4194632 -9.5535955 -0.58249563
-10.367858 -11.764446 -0.58674186
-13.501166 -15.319822 -0.59416193
-19.302235 -21.902315 -0.60667074
-33.907013 -38.474411 -0.63936114
-17.741016 -20.130795 2.7976785
-16.573477 -18.805983 2.8243473
-1.3811651 -1.6066134 -0.5676989
-1.4248627 -1.6574438 -0.5662328
-1.4766011 -1.7176273 -0.56674737
-1.5314945 -1.7814811 -0.56711161
-1.5973305 -1.8580633 -0.56998211
-1.6567662 -1.9272008 -0.56896806
-1.7251968 -2.0068016 -0.56941396
-1.792922 -2.0855815 -0.56789303
-1.8655144 -2.1700232 -0.5661304
-1.964255 -2.2848811 -0.57011491
-2.0604212 -2.3967445 -0.57085991
-2.1439676 -2.4939287 -0.56582373
-2.2691975 -2.6395996 -0.56912911
-2.3941777 -2.7849803 -0.56917721
-2.5339041 -2.9475143 -0.56935596
-2.6922176 -3.1316695 -0.56991041
-2.8670619 -3.3350537 -0.56971622
-3.0706685 -3.5718951 -0.57041186
-3.3025041 -3.8415732 -0.57079875
-3.5785172 -4.1626401 -0.5723446
-3.8897645 -4.5246925 -0.57203752
-4.2820005 -4.9809537 -0.57467002
-4.734704 -5.5075517 -0.57464325
-5.304328 -6.170156 -0.57577223
-6.0322399 -7.0168853 -0.57753849
-6.9814501 -8.1210356 -0.57910836
-8.3058825 -9.6616564 -0.58281296
-10.209644 -11.876169 -0.58600831
-13.299213 -15.47005 -0.59360099
-19.00881 -22.111626 -0.60594821
-33.376099 -38.824097 -0.63830382
-18.700554 -21.753054 2.9909484
-16.613941 -19.325842 2.8715231
-1.3572929 -1.6186875 -0.56602514
-1.4073205 -1.6783496 -0.56742007
-1.4522934 -1.7319835 -0.56554914
-1.5128458 -1.8041974 -0.56837815
-1.5674891 -1.8693644 -0.5674932
-1.6300138 -1.9439304 -0.56794679
-1.7012218 -2.028852 -0.56969196
-1.771786 -2.1130059 -0.56938505
-1.8407793 -2.195286 -0.56677312
-1.931497 -2.3034747 -0.56878519
-2.0202777 -2.4093533 -0.56790316
-2.1236777 -2.5326667 -0.568645
-2.2368231 -2.6676021 -0.5691933
-2.3672431 -2.823139 -0.57098365
-2.4971597 -2.9780757 -0.56928492
-2.6482227 -3.1582313 -0.56877512
-2.821178 -3.3644953 -0.56877655
-3.0341432 -3.6184745 -0.57184905
-3.2688334 -3.8983622 -0.57322097
-3.5196793 -4.1975174 -0.57114613
-3.8273807 -4.5644779 -0.57107419
-4.2085452 -5.0190487 -0.57305121
-4.6671839 -5.5660143 -0.57471174
-5.2174902 -6.222302 -0.57460797
-5.9453034 -7.0902805 -0.57751864
-6.8763323 -8.2006121 -0.57870966
-8.1769724 -9.7517357 -0.58213753
-10.072239 -12.012004 -0.58655518
-13.088837 -15.609552 -0.59273338
-18.715664 -22.320024 -0.60530674
-32.8367 -39.160564 -0.6371491
-16.674791 -19.886108 2.924083
-1.3345599 -1.6319182 -0.56487054
-1.3804505 -1.6880339 -0.56491262
-1.4279808 -1.7461545 -0.56440014
-1.4864852 -1.8176945 -0.56682903
-1.5431914 -1.8870357 -0.56705433
-1.6033596 -1.9606102 -0.56701696
-1.673597 -2.0464973 -0.56882507
-1.7468029 -2.1360147 -0.56975406
-1.8164401 -2.221168 -0.56764573
-1.9027852 -2.3267519 -0.56871247
-1.9971242 -2.442111 -0.56979293
-2.0851684 -2.5497725 -0.56668597
-2.1978631 -2.687577 -0.56764591
-2.331924 -2.8515089 -0.57087886
-2.4642742 -3.0133483 -0.57019204
-2.6122665 -3.1943154 -0.56944567
-2.781888 -3.401731 -0.56924546
-2.9899573 -3.6561608 -0.57195127
-3.2090523 -3.9240735 -0.57115614
-3.4719508 -4.2455492 -0.57182932
-3.7759066 -4.6172304 -0.57182199
-4.1407132 -5.0633211 -0.57224947
-4.5873785 -5.6095095 -0.57333499
-5.1426511 -6.2885046 -0.57483846
-5.8514609 -7.1552472 -0.57690603
-6.7735529 -8.282794 -0.57858765
-8.0580263 -9.8534651 -0.58225131
-9.9312649 -12.144088 -0.58699739
-12.896141 -15.769579 -0.59274358
-18.419525 -22.523649 -0.60464078
-32.291409 -39.486378 -0.63594162
-16.732664 -20.460932 2.9781265
-1.3097558 -1.6423882 -0.56287736
-1.3673054 -1.7145534 -0.56811798
-1.4106033 -1.7688475 -0.56608576
-1.4616549 -1.8328644 -0.56591201
-1.5201954 -1.9062721 -0.56717473
-1.5780694 -1.9788442 -0.56663555
-1.6463405 -2.0644538 -0.56814623
-1.7119601 -2.1467385 -0.56695658
-1.7824876 -2.2351775 -0.56558174
-1.8666363 -2.3406968 -0.56646788
-1.9688184 -2.4688299 -0.57033527
-2.0532174 -2.5746632 -0.56656384
-2.1661437 -2.7162688 -0.56803715
-2.2810512 -2.860359 -0.56699234
-2.4124162 -3.0250862 -0.56675708
-2.5742037 -3.227962 -0.56975788
-2.7421844 -3.4386039 -0.5697301
-2.9418252 -3.6889462 -0.57137799
-3.1636057 -3.9670515 -0.57170635
-3.4120791 -4.2786283 -0.57059056
-3.7131689 -4.6561847 -0.57094848
-4.0872254 -5.1252384 -0.57352376
-4.5172834 -5.6645164 -0.57323653
-5.0629535 -6.3487673 -0.57461274
-5.7603741 -7.2233086 -0.576639
-6.6754017 -8.3707218 -0.57895207
-7.9286628 -9.9422674 -0.58169371
-9.7625761 -12.241931 -0.58587992
-12.691605 -15.91483 -0.59229249
-18.126381 -22.729851 -0.60414714
-31.74909 -39.812256 -0.63485444
-16.794029 -21.059128 3.0349081
-1.3032848 -1.6761446 -0.56891096
-1.3494114 -1.7354677 -0.56950676
-1.3914944 -1.7895904 -0.56720537
-1.4484649 -1.8628596 -0.56963092
-1.5031415 -1.9331789 -0.56963789
-1.5604078 -2.0068285 -0.56911147
-1.6184407 -2.0814643 -0.56730789
-1.6906617 -2.1743472 -0.56871462
-1.7640202 -2.268693 -0.5685308
-1.8399988 -2.3664086 -0.56717187
-1.9323827 -2.4852226 -0.56859004
-2.0239978 -2.6030481 -0.56729048
-2.13908 -2.7510548 -0.56976807
-2.262754 -2.9101105 -0.5712958
-2.3905203 -3.07443 -0.57045144
-2.5293992 -3.253041 -0.56865168
-2.7027154 -3.4759417 -0.57036698
-2.8831692 -3.7080219 -0.5687983
-3.1063833 -3.995096 -0.57020003
-3.3683169 -4.3319664 -0.57213688
-3.6596174 -4.7066059 -0.57156998
-4.0211048 -5.1715121 -0.57312548
-4.4532266 -5.7272606 -0.57400119
-4.9935503 -6.4221668 -0.57565504
-5.6636562 -7.2839851 -0.57587969
-6.5612507 -8.4383745 -0.5780074
-7.790627 -10.019466 -0.5805617
-9.60355 -12.351053 -0.58540648
-12.476622 -16.046089 -0.59142298
-17.827967 -22.928411 -0.60355234
-31.189482 -40.112556 -0.63347954
-16.869705 -21.696001 3.0965614
-1.283098 -1.6927296 -0.56914198
-1.3239734 -1.7466546 -0.56779248
-1.3713063 -1.8090987 -0.56800109
-1.4164262 -1.8686231 -0.56602472
-1.4718455 -1.9417351 -0.56678331
-1.5339808 -2.0237074 -0.56850594
-1.5924295 -2.1008158 -0.56720239
-1.6567243 -2.185637 -0.56629634
-1.7361581 -2.2904303 -0.56858516
-1.8122553 -2.3908215 -0.56763911
-1.899423 -2.5058177 -0.56791538
-1.9997774 -2.6382105 -0.56955147
-2.1038833 -2.7755523 -0.56944066
-2.22122 -2.9303491 -0.56986386
-2.3386652 -3.085289 -0.56708759
-2.4908957 -3.2861192 -0.56903678
-2.6524413 -3.4992385 -0.56879485
-2.8373356 -3.7431607 -0.56879365
-3.0637138 -4.0418105 -0.57144731
-3.3086987 -4.3650074 -0.57108408
-3.6018791 -4.7517862 -0.57163483
-3.952956 -5.2149453 -0.57250875
-4.3674536 -5.7617722 -0.57203442
-4.9134774 -6.4821153 -0.57556933
-5.5817285 -7.3637071 -0.57671261
-6.4555879 -8.5165482 -0.57788098
-7.6653833 -10.112573 -0.58045113
-9.4480944 -12.464418 -0.58522892
-12.276665 -16.196014 -0.59134024
-17.529165 -23.125387 -0.60301793
-30.641981 -40.424496 -0.63240761
-16.945812 -22.355799 3.1607521
-1.2502708 -1.6922481 -0.56376833
-1.3021827 -1.762511 -0.5676989
-1.3411498 -1.8152533 -0.564713
-1.3906384 -1.8822362 -0.56492585
-1.4462577 -1.9575174 -0.56615627
-1.5144734 -2.0498478 -0.5705747
-1.5777571 -2.1355026 -0.57128626
-1.6281198 -2.2036688 -0.56573838
-1.6945099 -2.2935281 -0.56413901
-1.7795315 -2.4086051 -0.56662327
-1.8608093 -2.5186152 -0.56558722
-1.9593353 -2.6519706 -0.56727791
-2.0672305 -2.7980072 -0.56878942
-2.1747251 -2.9435017 -0.56717837
-2.3014672 -3.1150479 -0.56731284
-2.4489446 -3.3146594 -0.56872135
-2.6024568 -3.522439 -0.56732148
-2.79088 -3.7774706 -0.56874943
-3.0009441 -4.0617933 -0.56901234
-3.2560923 -4.4071379 -0.57131463
-3.545414 -4.7987361 -0.57199508
-3.8911531 -5.266696 -0.57289398
-4.3150144 -5.8403945 -0.57452887
-4.8274236 -6.5339432 -0.57485706
-5.4817262 -7.4195452 -0.57576311
-6.3472147 -8.5909882 -0.57759249
-7.5417609 -10.207813 -0.58055091
-9.2909269 -12.575318 -0.58502758
-12.065604 -16.330858 -0.59080189
-17.229837 -23.320677 -0.60254008
-30.081507 -40.715477 -0.63112533
-18.048496 -24.428734 3.1667929
-17.054211 -23.082964 3.2336679
-1.23945 -1.7214944 -0.56839126
-1.2797214 -1.777428 -0.56739223
-1.3258129 -1.8414454 -0.56774658
-1.3619033 -1.8915719 -0.56265897
-1.4257853 -1.9802989 -0.56763154
-1.4748191 -2.0484025 -0.56508183
-1.5465938 -2.148092 -0.56952351
-1.607717 -2.2329872 -0.56814694
-1.6727126 -2.3232605 -0.56635028
-1.7558048 -2.438669 -0.56857365
-1.8320764 -2.5446038 -0.56632155
-1.933201 -2.6850574 -0.56922746
-2.0376396 -2.8301141 -0.57017976
-2.1403127 -2.9727185 -0.56769395
-2.274394 -3.1589468 -0.5701713
-2.402864 -3.3373809 -0.56750739
-2.5704978 -3.5702107 -0.56988168
-2.7453084 -3.8130083 -0.56897438
-2.9511013 -4.0988374 -0.56907523
-3.2065964 -4.4536996 -0.57219583
-3.4806342 -4.8343153 -0.57109123
-3.8276103 -5.3162365 -0.57311982
-4.2284703 -5.8729987 -0.57257807
-4.7450576 -6.5904961 -0.57465571
-5.3882689 -7.4838634 -0.57556915
-6.2439857 -8.6723843 -0.57785922
-7.4110589 -10.293352 -0.58018911
-9.1276722 -12.677588 -0.58451968
-11.854218 -16.464537 -0.59031999
-16.919815 -23.500237 -0.60175842
-29.529263 -41.013725 -0.6300723
-1.2194895 -1.738457 -0.56899774
-1.2626303 -1.7999569 -0.56958467
-1.2980511 -1.8504515 -0.56555933
-1.344674 -1.9169153 -0.56523645
-1.3913658 -1.9834771 -0.56359589
-1.4431807 -2.0573425 -0.56260997
-1.5094765 -2.1518514 -0.56555635
-1.5759536 -2.2466185 -0.56664181
-1.6457354 -2.3460968 -0.56694108
-1.7221403 -2.4550166 -0.56740499
-1.8056905 -2.5741224 -0.56790662
-1.8994346 -2.7077603 -0.5690459
-1.9966979 -2.8464153 -0.56847441
-2.1091766 -3.0067606 -0.56919903
-2.2194841 -3.1640108 -0.56611645
-2.366313 -3.3733242 -0.56862855
-2.5263729 -3.6014993 -0.56987423
-2.7052407 -3.8564863 -0.57045525
-2.9060664 -4.142776 -0.57017112
-3.142487 -4.4798079 -0.57054251
-3.420516 -4.8761554 -0.57102203
-3.7491031 -5.3445764 -0.57116193
-4.1613855 -5.9323106 -0.57332844
-4.6589575 -6.6416297 -0.57407564
-5.2989907 -7.5540366 -0.57591122
-6.1325893 -8.742382 -0.57745504
-7.27882 -10.376404 -0.57978159
-8.95821 -12.770478 -0.58367956
-11.646328 -16.602554 -0.59008926
-16.60796 -23.675665 -0.60097575
-28.957394 -41.28054 -0.62865353
-1.1955773 -1.7497419 -0.56783658
-1.2350206 -1.8074678 -0.56711286
-1.2813886 -1.8753279 -0.5683037
-1.3348414 -1.9535568 -0.57115769
-1.3764852 -2.014503 -0.56755936
-1.4344608 -2.0993507 -0.56923115
-1.4837831 -2.1715348 -0.56589156
-1.5535904 -2.2736986 -0.56861061
-1.6209078 -2.3722184 -0.56839401
-1.6828281 -2.4628394 -0.5643878
-1.7735043 -2.5955453 -0.56777871
-1.86194 -2.724972 -0.56780857
-1.955732 -2.8622377 -0.56678867
-2.0704012 -3.0300574 -0.56874681
-2.1871462 -3.2009151 -0.5678646
-2.3172266 -3.3912895 -0.56681091
-2.4759583 -3.6235955 -0.56851006
-2.6581728 -3.8902683 -0.57057422
-2.8517754 -4.1736083 -0.56954533
-3.0800581 -4.5077024 -0.56922853
-3.3557825 -4.9112287 -0.57025397
-3.6829526 -5.3900461 -0.5711382
-4.0835204 -5.9762816 -0.57268196
-4.5741677 -6.6943502 -0.57372755
-5.2020378 -7.613246 -0.57550508
-6.0326567 -8.828867 -0.578224
-7.1561661 -10.473136 -0.58022594
-8.8030806 -12.883416 -0.58384985
-11.424707 -16.720198 -0.58923298
-16.302845 -23.859413 -0.60050595
-28.395462 -41.557106 -0.62750053
-1.170167 -1.7585902 -0.56599575
-1.2160457 -1.8275393 -0.56867588
-1.256493 -1.8883256 -0.56751752
-1.3069702 -1.9641856 -0.56952351
-1.3450856 -2.0214674 -0.56481898
-1.4066881 -2.1140471 -0.56848288
-1.4488729 -2.1774445 -0.56274629
-1.5200815 -2.2844608 -0.56658477
-1.592231 -2.3928909 -0.56861305
-1.6603425 -2.4952524 -0.56709409
-1.7439231 -2.620862 -0.56858289
-1.8331611 -2.7549736 -0.56932002
-1.927295 -2.8964434 -0.5688262
-2.0277729 -3.0474467 -0.56728768
-2.1655958 -3.2545743 -0.57261664
-2.2769494 -3.4219227 -0.56720841
-2.4319642 -3.6548872 -0.56868476
-2.6002634 -3.9078166 -0.56841546
-2.8027103 -4.2120647 -0.57004714
-3.0316732 -4.5561628 -0.57059735
-3.3030531 -4.9640069 -0.57162297
-3.6182694 -5.4377308 -0.57143337
-4.0080214 -6.0234718 -0.57243794
-4.5042667 -6.7692556 -0.5753569
-5.1001697 -7.6648111 -0.57461882
-5.9109144 -8.8832417 -0.57698137
-7.0133362 -10.540021 -0.57910991
-8.6315756 -12.971999 -0.5830102
-11.217262 -16.857908 -0.58918059
-15.983537 -24.020924 -0.59957898
-27.840042 -41.839523 -0.62654841
-1.1441673 -1.7662253 -0.56388229
-1.1856792 -1.8303063 -0.56495738
-1.2234558 -1.8886212 -0.5630424
-1.275349 -1.9687276 -0.56625056
-1.3215855 -2.0401018 -0.5654422
-1.3780266 -2.1272285 -0.56742799
-1.4316852 -2.2100601 -0.56658292
-1.4974604 -2.3115959 -0.5687049
-1.5632955 -2.413224 -0.56883383
-1.6325529 -2.5201349 -0.56814384
-1.7128417 -2.6440752 -0.56900662
-1.7898089 -2.7628875 -0.56636459
-1.8960583 -2.9269025 -0.57018614
-1.9972007 -3.0830338 -0.56929761
-2.1085749 -3.2549593 -0.56807959
-2.2322931 -3.4459405 -0.56659681
-2.3902533 -3.68978 -0.56949764
-2.5485935 -3.9342062 -0.5676527
-2.7434731 -4.2350373 -0.56854761
-2.9815066 -4.6024842 -0.57176387
-3.2440906 -5.0078292 -0.57203245
-3.5554862 -5.488524 -0.57213336
-3.9333632 -6.0718441 -0.57239521
-4.4055243 -6.8007083 -0.57338244
-5.0104375 -7.7344995 -0.57518095
-5.7923479 -8.9415169 -0.57609665
-6.8762703 -10.614743 -0.5785259
-8.4698858 -13.074772 -0.58290422
-10.999269 -16.979322 -0.58865243
-15.679514 -24.204113 -0.59929365
-27.257095 -42.076164 -0.62502575
-1.1307703 -1.7934928 -0.56810558
-1.1639798 -1.8461657 -0.56539202
-1.2062128 -1.9131505 -0.56589061
-1.2482785 -1.9798702 -0.56499785
-1.3019876 -2.0650573 -0.56787866
-1.3524772 -2.1451378 -0.56772614
-1.4015878 -2.2230313 -0.56544715
-1.4698436 -2.3312905 -0.56906056
-1.5283809 -2.4241352 -0.56693292
-1.5953395 -2.5303369 -0.56597847
-1.6768564 -2.6596293 -0.5678736
-1.7583834 -2.7889376 -0.56722945
-1.8478677 -2.930867 -0.56648916
-1.9514551 -3.095165 -0.56706387
-2.0726402 -3.2873745 -0.56924582
-2.1997952 -3.4890525 -0.56919479
-2.3460193 -3.7209754 -0.56981689
-2.5096004 -3.9804282 -0.56982625
-2.7019787 -4.2855558 -0.57082611
-2.9149587 -4.6233597 -0.56986129
-3.1723304 -5.0315714 -0.5702455
-3.4870496 -5.5307417 -0.57202125
-3.8647277 -6.1297693 -0.57333255
-4.313518 -6.8415875 -0.57231379
-4.9116015 -7.7901955 -0.57478797
-5.6894131 -9.0238676 -0.57685137
-6.749577 -10.705373 -0.57889825
-8.3072872 -13.176026 -0.58282024
-10.775928 -17.09149 -0.58790284
-15.351589 -24.348858 -0.59815842
-26.680214 -42.316971 -0.62368232
-1.1040298 -1.7997569 -0.56574684
-1.1430726 -1.8634033 -0.5663237
-1.1824515 -1.9275975 -0.56582034
-1.2247621 -1.9965712 -0.56542331
-1.2774899 -2.0825264 -0.56831986
-1.3236872 -2.1578357 -0.56673616
-1.3737918 -2.2395151 -0.56530041
-1.4327919 -2.3356953 -0.56579244
-1.4969149 -2.4402266 -0.56634867
-1.5655482 -2.5521104 -0.56649995
-1.6449999 -2.6816304 -0.56820929
-1.7277864 -2.8165865 -0.56848878
-1.8078545 -2.9471111 -0.56528944
-1.9160794 -3.1235363 -0.56790221
-2.0370514 -3.3207412 -0.57064313
-2.149894 -3.504694 -0.56739086
-2.2946949 -3.7407441 -0.56848019
-2.4590724 -4.0087075 -0.56950277
-2.6495776 -4.3192635 -0.57093304
-2.8524535 -4.6499858 -0.56877691
-3.1195951 -5.0854721 -0.57196349
-3.4092827 -5.5577121 -0.57043177
-3.7872708 -6.1738973 -0.57306081
-4.2360682 -6.9055138 -0.57326072
-4.8101797 -7.841413 -0.57415944
-5.573885 -9.0863838 -0.57642275
-6.6140423 -10.782017 -0.57860112
-8.1378984 -13.266163 -0.5823369
-10.559333 -17.213514 -0.5875895
-15.040694 -24.518898 -0.59774697
-26.115763 -42.573147 -0.62267792
-1.079869 -1.8099298 -0.5647279
-1.1165199 -1.8713592 -0.56452638
-1.164826 -1.9523233 -0.56883085
-1.1975868 -2.0072324 -0.56422949
-1.2445613 -2.0859647 -0.56503904
-1.3002746 -2.1793439 -0.56814283
-1.3562468 -2.2731569 -0.56953967
-1.4078165 -2.359591 -0.56734461
-1.463969 -2.4537063 -0.56525642
-1.5339595 -2.5710149 -0.56646645
-1.6036644 -2.6878445 -0.56530493
-1.6939784 -2.8392169 -0.56880915
-1.7739112 -2.9731894 -0.56606477
-1.8854856 -3.1601954 -0.57030886
-1.9824895 -3.3227797 -0.56676143
-2.1119092 -3.5396955 -0.56881022
-2.2408891 -3.7558742 -0.56654918
-2.4021316 -4.0261273 -0.56773829
-2.5896783 -4.3404675 -0.56948358
-2.80656 -4.7039752 -0.57111633
-3.0497878 -5.1116405 -0.57064569
-3.3386443 -5.5957823 -0.57008249
-3.7070277 -6.2132168 -0.57243609
-4.1487942 -6.9536462 -0.57297802
-4.7202296 -7.9114084 -0.57499123
-5.4586544 -9.1490555 -0.57609689
-6.4781399 -10.857779 -0.57834834
-7.9677196 -13.35441 -0.58186597
-10.339764 -17.330109 -0.58718508
-14.719879 -24.671465 -0.59700865
-25.53698 -42.80162 -0.62137979
-1.0595369 -1.8265246 -0.56579787
-1.0965232 -1.8902849 -0.56612533
-1.1376843 -1.9612422 -0.56731057
-1.1780314 -2.0307963 -0.56673855
-1.2193099 -2.1019557 -0.56526661
-1.2713799 -2.1917186 -0.56725037
-1.3187159 -2.2733207 -0.56547505
-1.382761 -2.3837273 -0.5690167
-1.4378169 -2.4786375 -0.56688398
-1.4963967 -2.5796225 -0.56426626
-1.5724604 -2.7107482 -0.56601256
-1.6563462 -2.8553579 -0.56791955
-1.737601 -2.9954324 -0.56618887
-1.8331397 -3.1601305 -0.56618643
-1.9442431 -3.3516603 -0.56756681
-2.0597932 -3.5508561 -0.56649071
-2.1997879 -3.7921915 -0.56790423
-2.3548937 -4.0595765 -0.56832886
-2.5347822 -4.3696847 -0.56918448
-2.7390349 -4.7217937 -0.56914747
-2.9915617 -5.1571221 -0.57157332
-3.2750189 -5.645771 -0.57102925
-3.6303234 -6.2582769 -0.57243156
-4.060648 -7.0001092 -0.57264894
-4.6190658 -7.962759 -0.57455188
-5.3443952 -9.2131472 -0.57595098
-6.3427353 -10.934175 -0.57821953
-7.8013663 -13.448694 -0.58175027
-10.109143 -17.427046 -0.58621341
-14.397259 -24.819284 -0.59625655
-24.95232 -43.015045 -0.619977
-1.0312697 -1.829252 -0.56267202
-1.0806646 -1.9168682 -0.57006395
-1.1110252 -1.9707212 -0.56605792
-1.148683 -2.0375183 -0.56462997
-1.1916858 -2.113796 -0.56446743
-1.2464185 -2.21088 -0.56819993
-1.2888627 -2.2861671 -0.56468564
-1.354129 -2.4019356 -0.56934536
-1.4085387 -2.4984467 -0.56741041
-1.4789797 -2.623394 -0.56981969
-1.5422189 -2.7355669 -0.56719214
-1.6181467 -2.8702464 -0.5668804
-1.7070162 -3.0278821 -0.56831193
-1.8012888 -3.1951015 -0.56844068
-1.9036468 -3.3766627 -0.56779391
-2.0253353 -3.5925121 -0.56912017
-2.1540351 -3.8207982 -0.56817871
-2.3150027 -4.1063204 -0.57084447
-2.4798861 -4.398788 -0.56896031
-2.6800299 -4.7538004 -0.56899017
-2.9228342 -5.1844835 -0.57057929
-3.2035654 -5.6824403 -0.57071072
-3.5455446 -6.2890387 -0.57121432
-3.9734173 -7.0479937 -0.57252592
-4.521935 -8.0209465 -0.57469481
-5.2260408 -9.2698793 -0.57543683
-6.2000599 -10.997581 -0.57749724
-7.6240702 -13.523472 -0.58088571
-9.889822 -17.542431 -0.58595973
-14.070927 -24.958818 -0.59540701
-24.381031 -43.246742 -0.61894858
-1.0130352 -1.8497093 -0.56509024
-1.0514423 -1.9198371 -0.56705904
-1.0916033 -1.9931675 -0.56860673
-1.1309911 -2.0650861 -0.56837255
-1.1724939 -2.1408663 -0.56780326
-1.2203369 -2.2282233 -0.56875765
-1.2679089 -2.3150854 -0.56793463
-1.3156314 -2.4022224 -0.56553596
-1.3808196 -2.5212498 -0.56869
-1.4405601 -2.6303306 -0.56743586
-1.5143179 -2.7650056 -0.56939214
-1.5864083 -2.896636 -0.56819671
-1.6621546 -3.0349417 -0.56575799
-1.7583909 -3.2106605 -0.5673191
-1.8675013 -3.4098861 -0.56947601
-1.9813797 -3.6178176 -0.56922632
-2.1039941 -3.8417006 -0.56739682
-2.2560196 -4.1192851 -0.56874734
-2.4232092 -4.4245577 -0.56839651
-2.6275446 -4.7976551 -0.57032889
-2.8634813 -5.2284541 -0.57150018
-3.1378417 -5.7294111 -0.57150978
-3.470293 -6.3364367 -0.57160032
-3.8817096 -7.0876455 -0.5718264
-4.4131274 -8.0579662 -0.57341576
-5.1144695 -9.3385525 -0.57575226
-6.0605793 -11.066062 -0.57713628
-7.4610453 -13.623184 -0.58118403
-9.6675844 -17.652122 -0.5856086
-13.750689 -25.107496 -0.59487528
-23.792444 -43.442822 -0.61752099
-0.99415308 -1.8694298 -0.56733739
-1.0293928 -1.9356954 -0.56796139
-1.0666057 -2.0056715 -0.5683893
-1.1008737 -2.0701098 -0.56598675
-1.1428514 -2.1490455 -0.56620258
-1.1936659 -2.2445986 -0.56914788
-1.2390183 -2.3298802 -0.56778359
-1.2881968 -2.4223568 -0.56650406
-1.3411708 -2.5219703 -0.56509
-1.4106176 -2.6525598 -0.5684464
-1.4774292 -2.778194 -0.56832391
-1.5449173 -2.9051003 -0.5660879
-1.6271982 -3.0598233 -0.56662357
-1.7159077 -3.226635 -0.56637067
-1.8217111 -3.42559 -0.56831467
-1.9367384 -3.64189 -0.56922376
-2.0606699 -3.874934 -0.56851983
-2.2100346 -4.1558032 -0.56999415
-2.3656366 -4.448401 -0.56767964
-2.5656674 -4.8245435 -0.56973183
-2.7899449 -5.2462807 -0.56965578
-3.0592265 -5.7526445 -0.57003182
-3.3931434 -6.3805499 -0.57177263
-3.7939942 -7.1343198 -0.57178491
-4.3129711 -8.1102161 -0.57331669
-4.9961691 -9.3949184 -0.57539624
-5.9279442 -11.147052 -0.57751495
-7.2794142 -13.688388 -0.58010322
-9.4456244 -17.761782 -0.58534914
-13.421524 -25.238161 -0.59401596
-23.207775 -43.640469 -0.61622745
-0.96402454 -1.8678182 -0.56320822
-0.99856257 -1.9347364 -0.56403458
-1.0391299 -2.0133362 -0.56689751
-1.077054 -2.0868154 -0.5668903
-1.1246169 -2.1789694 -0.57039994
-1.1592001 -2.245975 -0.56583983
-1.2056206 -2.3359158 -0.56559891
-1.2628329 -2.4467659 -0.56853795
-1.3242923 -2.5658445 -0.57122886
-1.3715156 -2.657341 -0.56581414
-1.4363822 -2.7830212 -0.56565547
-1.5143527 -2.9340906 -0.56806546
-1.591488 -3.0835421 -0.56734896
-1.6781483 -3.2514484 -0.56706119
-1.7770407 -3.4430544 -0.56754398
-1.8904663 -3.6628189 -0.56881863
-2.0101109 -3.8946331 -0.56774062
-2.1559968 -4.17729 -0.56926197
-2.309226 -4.474175 -0.56730223
-2.5056024 -4.8546581 -0.56960666
-2.7257004 -5.2811027 -0.56975448
-2.9917409 -5.7965622 -0.57069522
-3.3158004 -6.4244347 -0.57200825
-3.7047794 -7.1780896 -0.57159853
-4.2145514 -8.1657839 -0.57353795
-4.8770423 -9.4493732 -0.57501501
-5.7790041 -11.196945 -0.57637465
-7.1093302 -13.77448 -0.58000308
-9.2152929 -17.854828 -0.58463693
-13.092995 -25.367958 -0.59323674
-22.625114 -43.836643 -0.6150226
-0.94321305 -1.8839788 -0.56454128
-0.98200142 -1.961455 -0.56826061
-1.0099684 -2.0173163 -0.5644787
-1.0462459 -2.0897772 -0.56415743
-1.0921007 -2.1813679 -0.5674696
-1.1306094 -2.2582853 -0.56539595
-1.1724684 -2.3418949 -0.56351316
-1.2220414 -2.4409122 -0.56364346
-1.2841016 -2.5648715 -0.56745404
-1.3411007 -2.6787219 -0.56681252
-1.4127758 -2.8218861 -0.56998086
-1.4814531 -2.9590623 -0.56933028
-1.5617987 -3.1195452 -0.57039672
-1.6365136 -3.2687812 -0.56653172
-1.7367967 -3.4690871 -0.56827182
-1.8452908 -3.6857939 -0.56881976
-1.9639649 -3.9228342 -0.56828827
-2.0969307 -4.1884212 -0.56722218
-2.2584672 -4.5110745 -0.56841671
-2.4430654 -4.8797922 -0.56898791
-2.6641133 -5.3213143 -0.57051533
-2.918468 -5.8293638 -0.57034838
-3.234463 -6.4605336 -0.57163799
-3.6193571 -7.2293239 -0.5720911
-4.1131597 -8.2156477 -0.57344443
-4.7563848 -9.5004292 -0.57451934
-5.6428957 -11.271151 -0.57657903
-6.9363708 -13.854745 -0.5797475
-8.9931412 -17.96295 -0.58451211
-12.768374 -25.50362 -0.59269279
-22.042521 -44.027851 -0.61385602
-0.92470247 -1.9051692 -0.56744087
-0.95359343 -1.9646934 -0.56575894
-0.98933476 -2.0383315 -0.56691217
-1.0273445 -2.1166432 -0.56795686
-1.0627606 -2.1896112 -0.56617159
-1.1076262 -2.282048 -0.56789243
-1.1456602 -2.3604095 -0.56453574
-1.197633 -2.4674895 -0.56633717
-1.2519187 -2.5793345 -0.56720513
-1.3053085 -2.6893337 -0.56561887
-1.3691218 -2.8208086 -0.56631988
-1.4398853 -2.966603 -0.56733161
-1.5188407 -3.1292753 -0.5687179
-1.5967413 -3.2897744 -0.56672436
-1.6935866 -3.489305 -0.56812942
-1.7940565 -3.6963038 -0.56699431
-1.9216015 -3.9590857 -0.57007372
-2.0446384 -4.2125793 -0.56704605
-2.1984501 -4.5294781 -0.56728649
-2.3867748 -4.9174843 -0.56991762
-2.5937402 -5.3438964 -0.56947392
-2.8466811 -5.8650317 -0.57037014
-3.1515465 -6.4931474 -0.5710516
-3.5296082 -7.2720699 -0.57199603
-4.0089655 -8.2596922 -0.57303458
-4.633111 -9.5456228 -0.57376373
-5.4987259 -11.329054 -0.57603872
-6.7526155 -13.912448 -0.57864386
-8.7616138 -18.051598 -0.58384687
-12.438878 -25.627886 -0.59198129
-21.444866 -44.182968 -0.61229593
-0.89804614 -1.9096725 -0.56545037
-0.92867237 -1.9747984 -0.56533772
-0.96200824 -2.0456862 -0.56562489
-0.9962877 -2.1185808 -0.5651468
-1.0363132 -2.2036939 -0.56647515
-1.0709851 -2.2774227 -0.56342161
-1.1113702 -2.3633008 -0.56191629
-1.1620238 -2.4710143 -0.563824
-1.2197663 -2.593802 -0.56704545
-1.2724385 -2.7058084 -0.5657503
-1.3368645 -2.8428087 -0.56739354
-1.4031318 -2.9837244 -0.56726348
-1.4712485 -3.1285727 -0.56525958
-1.5566961 -3.3102748 -0.56691557
-1.648185 -3.5048239 -0.56731343
-1.750643 -3.7226982 -0.56769806
-1.8631754 -3.9619954 -0.56715095
-1.9879376 -4.2272992 -0.56569427
-2.1535048 -4.5793734 -0.57017595
-2.3257635 -4.9456773 -0.56982756
-2.5243843 -5.3680391 -0.56869584
-2.7764452 -5.9040403 -0.57080042
-3.067764 -6.5235229 -0.57036233
-3.4406862 -7.3165321 -0.57212216
-3.9057705 -8.305522 -0.57283884
-4.5143757 -9.5997057 -0.57363456
-5.3576264 -11.392858 -0.57588965
-6.5815892 -13.995584 -0.57869184
-8.520752 -18.119164 -0.58259934
-12.110472 -25.752613 -0.59137785
-20.859436 -44.357063 -0.61110777
-0.87170273 -1.9144315 -0.5636431
-0.9035399 -1.9843524 -0.56484944
-0.93802094 -2.0600796 -0.56637257
-0.97534066 -2.142041 -0.56816274
-1.0066806 -2.2108696 -0.56509501
-1.0518063 -2.3099747 -0.56823218
-1.0923078 -2.3989239 -0.56714988
-1.1345859 -2.491775 -0.56533498
-1.1797787 -2.5910273 -0.56322473
-1.2409953 -2.725471 -0.56662804
-1.2998384 -2.8547022 -0.5665344
-1.3611659 -2.9893894 -0.56511563
-1.4351329 -3.1518354 -0.56623137
-1.5164161 -3.3303494 -0.56711727
-1.6068146 -3.5288827 -0.56796664
-1.7058675 -3.7464225 -0.56807417
-1.8117381 -3.9789352 -0.56634396
-1.945033 -4.271677 -0.56838936
-2.0943258 -4.5995536 -0.56943899
-2.2598584 -4.9630957 -0.56858975
-2.4585917 -5.3995533 -0.56878865
-2.6985734 -5.9266005 -0.56973034
-2.9907041 -6.5681772 -0.57100809
-3.3482192 -7.3533511 -0.5717386
-3.8018734 -8.3496656 -0.5726158
-4.394062 -9.6502295 -0.5733816
-5.2176881 -11.459074 -0.57595009
-6.4047222 -14.066036 -0.57830477
-8.3023481 -18.233599 -0.5829522
-11.775487 -25.861298 -0.59050399
-20.269173 -44.51511 -0.60980529
-0.85489756 -1.9404387 -0.56816214
-0.88692439 -2.013133 -0.56989437
-0.90720481 -2.0591652 -0.56301171
-0.94336277 -2.1412363 -0.56482977
-0.97983915 -2.22403 -0.56533647
-1.0193279 -2.3136611 -0.56601292
-1.0630726 -2.4129524 -0.5673331
-1.1036887 -2.5051427 -0.56524599
-1.1560874 -2.6240768 -0.56727588
-1.2046343 -2.734268 -0.56533456
-1.2659678 -2.8734825 -0.56712919
-1.324234 -3.0057344 -0.56508458
-1.3984556 -3.174202 -0.56711739
-1.4711772 -3.3392646 -0.56551212
-1.5641931 -3.5503917 -0.56828982
-1.6590174 -3.7656229 -0.5678494
-1.7733793 -4.0252004 -0.56978226
-1.8899999 -4.2899046 -0.56767946
-2.0329099 -4.6142807 -0.56812453
-2.1978557 -4.9886732 -0.56838083
-2.4011693 -5.4501524 -0.57096535
-2.6253862 -5.9590778 -0.56970596
-2.908071 -6.6007137 -0.57068473
-3.2495964 -7.3759046 -0.57034224
-3.6951575 -8.3872356 -0.57203299
-4.2696528 -9.6912193 -0.57265437
-5.0692816 -11.506209 -0.57514268
-6.2255063 -14.130597 -0.57776815
-8.0690975 -18.315165 -0.58234376
-11.442522 -25.972134 -0.58977741
-19.684513 -44.679729 -0.60869861
-0.82394367 -1.9342986 -0.56335515
-0.85474837 -2.0066159 -0.56503141
-0.88450152 -2.0764649 -0.56472528
-0.91831017 -2.1558342 -0.56565911
-0.95380682 -2.2391665 -0.56616002
-0.9903571 -2.3249724 -0.56575817
-1.0301988 -2.4185052 -0.56561744
-1.0767505 -2.5277905 -0.56732577
-1.1205642 -2.6306481 -0.56567496
-1.1721489 -2.7517488 -0.56592607
-1.2277644 -2.8823123 -0.56584948
-1.2928207 -3.0350392 -0.56756234
-1.3598226 -3.1923335 -0.56732649
-1.4294256 -3.3557343 -0.56528187
-1.5147564 -3.5560577 -0.56617254
-1.614746 -3.7907944 -0.56860799
-1.7159159 -4.0283017 -0.56719166
-1.8365508 -4.3115058 -0.56750661
-1.9755181 -4.6377468 -0.56797993
-2.1404204 -5.0248728 -0.56946343
-2.3275328 -5.4641399 -0.56938934
-2.5485749 -5.9830604 -0.56895971
-2.8230762 -6.6274824 -0.56995475
-3.1654799 -7.431313 -0.57157367
-3.5966551 -8.4435444 -0.57281375
-4.1567917 -9.7585268 -0.57356781
-4.9312024 -11.576542 -0.57558382
-6.0563269 -14.217896 -0.57824886
-7.8350048 -18.393538 -0.58172834
-11.108227 -26.077787 -0.58903033
-19.093578 -44.82428 -0.60742337
-0.80195737 -1.9488013 -0.5646643
-0.82782143 -2.0116522 -0.56354064
-0.86019975 -2.0903335 -0.56557763
-0.89130622 -2.1659241 -0.56538802
-0.92105162 -2.2382069 -0.56301117
-0.96419775 -2.3430545 -0.56723022
-1.0002338 -2.430624 -0.56553251
-1.0412717 -2.5303483 -0.56498349
-1.0876662 -2.6430898 -0.56543159
-1.1444383 -2.781049 -0.56901473
-1.1910074 -2.8942144 -0.56526822
-1.2468511 -3.0299177 -0.56369489
-1.3239301 -3.2172241 -0.5688138
-1.3940094 -3.3875206 -0.56770593
-1.4775738 -3.5905869 -0.56873435
-1.5636263 -3.7996991 -0.56701684
-1.663684 -4.0428452 -0.56631613
-1.7811713 -4.3283458 -0.56679749
-1.9201864 -4.6661601 -0.56852502
-2.0768404 -5.0468383 -0.56901562
-2.2560477 -5.4823217 -0.56835026
-2.4762914 -6.0175266 -0.56929862
-2.7420554 -6.6633482 -0.57009637
-3.0685632 -7.45678 -0.5705871
-3.4881542 -8.4764099 -0.57209027
-4.0360961 -9.8079386 -0.57351166
-4.7777114 -11.610106 -0.57428825
-5.871459 -14.267974 -0.57730561
-7.6018987 -18.47304 -0.58124244
-10.776893 -26.188452 -0.58849221
-18.494164 -44.941853 -0.60588908
-0.77636969 -1.9545732 -0.56352794
-0.8008309 -2.0161562 -0.56200123
-0.83497584 -2.102119 -0.56594557
-0.86501783 -2.177752 -0.56565624
-0.89672726 -2.2575831 -0.56506872
-0.93710822 -2.3592453 -0.56831729
-0.97800404 -2.462204 -0.57003897
-1.0182701 -2.5635772 -0.5695641
-1.0545515 -2.6549184 -0.56514531
-1.1097373 -2.7938528 -0.56879944
-1.1561762 -2.9107666 -0.56568158
-1.2147247 -3.058167 -0.56612873
-1.2831213 -3.2303612 -0.56830394
-1.352896 -3.4060247 -0.56797606
-1.4287434 -3.5969765 -0.56692076
-1.5165144 -3.8179471 -0.56691426
-1.6165375 -4.0697632 -0.56725943
-1.7305547 -4.3568106 -0.56769544
-1.8610059 -4.6852322 -0.56801766
-2.0040455 -5.0453458 -0.56602615
-2.1930432 -5.5211625 -0.56953812
-2.4020138 -6.0472631 -0.56927449
-2.6539402 -6.6815081 -0.56881505
-2.9733462 -7.4856381 -0.56995457
-3.376205 -8.4998674 -0.57082838
-3.9107251 -9.8455648 -0.57285666
-4.6356502 -11.670623 -0.5744186
-5.6843605 -14.310835 -0.57616812
-7.3654351 -18.543076 -0.58055252
-10.439846 -26.283152 -0.58769113
-17.905243 -45.077892 -0.60470915
-0.7500158 -1.9580641 -0.56183296
-0.78932363 -2.0606849 -0.57166481
-0.80726218 -2.107517 -0.56468379
-0.83967209 -2.1921296 -0.56666601
-0.87898552 -2.294765 -0.57162678
-0.90069681 -2.3514466 -0.56372815
-0.94173223 -2.4585779 -0.56647569
-0.97847617 -2.5545051 -0.56483263
-1.0244241 -2.6744611 -0.56658107
-1.0691078 -2.7911167 -0.56552321
-1.1228325 -2.9313757 -0.56696069
-1.1769073 -3.0725486 -0.56606925
-1.2382448 -3.2326822 -0.56599081
-1.3104751 -3.4212537 -0.5677855
-1.378422 -3.5986426 -0.56446922
-1.4729751 -3.8454921 -0.56827193
-1.5706772 -4.1005626 -0.56881732
-1.6815524 -4.3900242 -0.56928593
-1.8054428 -4.7134643 -0.56870592
-1.9489578 -5.0881391 -0.56809545
-2.1218083 -5.5393987 -0.56868494
-2.3274777 -6.0763392 -0.56927449
-2.5760398 -6.7252603 -0.56980002
-2.8855762 -7.5333657 -0.57084376
-3.2712603 -8.5402699 -0.57079715
-3.7870648 -9.886879 -0.57250768
-4.4899545 -11.721911 -0.57418221
-5.5096474 -14.384022 -0.57634348
-7.1325369 -18.620893 -0.58019912
-10.104601 -26.380054 -0.58703524
-17.311735 -45.195702 -0.60338825
-0.73415989 -1.9895664 -0.56823879
-0.75355899 -2.0421381 -0.56390643
-0.78193253 -2.11903 -0.56514955
-0.81315768 -2.20365 -0.56701642
-0.83583218 -2.2650976 -0.56163394
-0.87641937 -2.3750885 -0.56676948
-0.91231495 -2.4723651 -0.56702477
-0.94725645 -2.5670562 -0.56498963
-0.98402917 -2.6667101 -0.56233311
-1.0292051 -2.7891364 -0.5625152
-1.0833915 -2.9359813 -0.5652321
-1.1365052 -3.0799189 -0.56480974
-1.1961665 -3.2416003 -0.56493425
-1.2643117 -3.4262729 -0.56599563
-1.3374832 -3.624567 -0.56591314
-1.4251671 -3.8621898 -0.56810683
-1.5168573 -4.1106691 -0.56758904
-1.6184874 -4.386086 -0.56615162
-1.7490555 -4.7399244 -0.56926048
-1.8866309 -5.1127524 -0.56821042
-2.0537322 -5.5655951 -0.5687387
-2.2508683 -6.0998325 -0.56883943
-2.4949152 -6.7611976 -0.57020247
-2.7895498 -7.5596542 -0.57019347
-3.1684501 -8.5864706 -0.57123786
-3.6630876 -9.9269333 -0.57217556
-4.3468509 -11.779925 -0.57436228
-5.3293014 -14.442357 -0.5760116
-6.8956246 -18.687078 -0.57957554
-9.7658339 -26.465319 -0.58621603
-16.722967 -45.319088 -0.60224473
-0.70842946 -1.9950294 -0.56726819
-0.73275602 -2.0635364 -0.56728429
-0.75788498 -2.1343026 -0.5666945
-0.78455269 -2.2094023 -0.56597149
-0.80958575 -2.2798989 -0.56279302
-0.84081471 -2.3678436 -0.56253088
-0.8801223 -2.478539 -0.56591588
-0.91461039 -2.5756619 -0.56436574
-0.95997971 -2.7034278 -0.56754369
-1.002807 -2.8240352 -0.56702381
-1.0456061 -2.9445629 -0.56436628
-1.1020882 -3.1036236 -0.56662881
-1.1572067 -3.2588446 -0.56541693
-1.2227484 -3.4434185 -0.56630141
-1.2924175 -3.639616 -0.56573874
-1.376158 -3.8754399 -0.56752378
-1.4691211 -4.1372361 -0.56871998
-1.5672143 -4.4134789 -0.56715709
-1.6848985 -4.7448936 -0.56732613
-1.8243526 -5.1376143 -0.5684374
-1.9770756 -5.5677023 -0.56642687
-2.1730909 -6.1197071 -0.56815797
-2.4074225 -6.7796149 -0.56921607
-2.694617 -7.5883923 -0.56981879
-3.0600855 -8.6175985 -0.57076228
-3.5410666 -9.9721041 -0.57222611
-4.1930685 -11.808227 -0.57318497
-5.1451969 -14.489544 -0.57532674
-6.6556864 -18.743279 -0.57873648
-9.427659 -26.549515 -0.58546895
-16.129463 -45.422668 -0.60094005
-0.68735981 -2.0138845 -0.57018304
-0.70759982 -2.0731852 -0.56750202
-0.73077661 -2.1410906 -0.56606811
-0.758461 -2.2222028 -0.56681854
-0.78298455 -2.2940538 -0.56386787
-0.81724417 -2.3944306 -0.56641698
-0.84466743 -2.4747775 -0.56264299
-0.88517362 -2.593456 -0.56583697
-0.92284757 -2.7038362 -0.56520444
-0.96691674 -2.8329539 -0.56638449
-1.0128832 -2.9676301 -0.56635749
-1.0643412 -3.118396 -0.56689352
-1.1204714 -3.2828512 -0.56714875
-1.1770825 -3.4487152 -0.56474942
-1.2545907 -3.6758053 -0.568923
-1.3287597 -3.8931115 -0.56767601
-1.4126334 -4.1388521 -0.56651145
-1.5123198 -4.4309216 -0.566966
-1.6236087 -4.7569852 -0.56634194
-1.7615236 -5.1610599 -0.56859189
-1.9139012 -5.6075082 -0.56803936
-2.100508 -6.1542444 -0.56892347
-2.3225307 -6.8047452 -0.56888521
-2.5978827 -7.611495 -0.56911182
-2.9547019 -8.6569338 -0.57091802
-3.4149997 -10.005553 -0.57169265
-4.0433278 -11.846482 -0.57258517
-4.965147 -14.547305 -0.57515246
-6.4210157 -18.812832 -0.57840246
-9.0843525 -26.616098 -0.58442974
-15.532108 -45.507275 -0.5994873
-0.65802789 -2.0083935 -0.56629473
-0.67711079 -2.0666373 -0.56338793
-0.70144564 -2.1409106 -0.56369752
-0.72735369 -2.2199857 -0.56392908
-0.75958812 -2.3183696 -0.5675059
-0.78532779 -2.3969309 -0.56468135
-0.81396574 -2.4843378 -0.56249851
-0.85117495 -2.5979056 -0.5644815
-0.88567871 -2.7032161 -0.56275564
-0.93378145 -2.8500323 -0.56746048
-0.97380102 -2.9721775 -0.56489742
-1.0250466 -3.1285863 -0.56641185
