# .PCD v0.7 - Point Cloud Data file format
VERSION 0.7
FIELDS x y z
SIZE 4 4 4
TYPE F F F
COUNT 1 1 1
WIDTH 1454
HEIGHT 1
VIEWPOINT 0 0 0 1 0 0 0
POINTS 1454
DATA ascii
0.4299807 -3.0885253 -0.56321281
0.44981888 -3.2310216 -0.56124252
0.47381493 -3.403384 -0.56182003
0.50116611 -3.5998459 -0.56327808
0.53072166 -3.8121414 -0.56378102
0.56169516 -4.0346222 -0.56214333
0.59826851 -4.2973266 -0.56204057
0.64214516 -4.6124897 -0.56394768
0.68893653 -4.9485893 -0.5629487
0.74228442 -5.3317838 -0.56127387
0.80988044 -5.8173218 -0.56308258
0.88578105 -6.3625112 -0.5620153
0.98069525 -7.0442743 -0.56271631
1.0940955 -7.8588214 -0.56146866
1.2402312 -8.9085054 -0.56137747
1.4283463 -10.259724 -0.56014138
1.6881049 -12.125554 -0.56000614
2.0620897 -14.811865 -0.55956519
2.6465447 -19.009968 -0.55846745
3.6904426 -26.508224 -0.55617189
6.0989771 -43.808578 -0.55144072
0.3146435 -2.0730908 -0.56184369
0.32738838 -2.157063 -0.56520963
0.33680969 -2.2191372 -0.56161046
0.35291991 -2.3252823 -0.56774527
0.3628296 -2.3905742 -0.56246233
0.37704891 -2.484261 -0.56253386
0.39288718 -2.5886147 -0.56335425
0.40908021 -2.6953058 -0.56290859
0.42734459 -2.815644 -0.56340456
0.44527987 -2.9338143 -0.56146395
0.4670307 -3.0771239 -0.56213844
0.48988259 -3.2276881 -0.56166738
0.51674992 -3.4047089 -0.56304508
0.5438723 -3.58341 -0.5617103
0.57495141 -3.7881808 -0.56124067
0.61216956 -4.0334001 -0.56297928
0.65355527 -4.306078 -0.56419355
0.69551253 -4.5825214 -0.56128687
0.74856043 -4.9320383 -0.56207049
0.80798239 -5.3235517 -0.56141067
0.87880087 -5.790153 -0.56145632
0.96580529 -6.3633986 -0.56310016
1.0645359 -7.0139046 -0.56129354
1.189458 -7.8369789 -0.5609107
1.3491687 -8.8892641 -0.56116796
1.552025 -10.225822 -0.55929017
1.83753 -12.106929 -0.56014717
2.2429559 -14.778157 -0.55929142
2.876997 -18.955664 -0.55786914
4.0113845 -26.429798 -0.55551934
6.6222024 -43.631687 -0.55019748
0.34092104 -2.0740025 -0.56318432
0.35298735 -2.1474082 -0.56377453
0.36456904 -2.2178657 -0.56238067
0.37666613 -2.2914586 -0.56057525
0.39311776 -2.3915424 -0.56378484
0.40964538 -2.4920888 -0.56540424
0.42758065 -2.6011984 -0.56719422
0.44298089 -2.6948862 -0.56391597
0.4611401 -2.8053584 -0.56243849
0.48243973 -2.9349351 -0.56277126
0.50577503 -3.0768962 -0.5631904
0.53203338 -3.2366395 -0.56432086
0.55799633 -3.3945861 -0.56246322
0.58951867 -3.5863528 -0.56326532
0.62461197 -3.799844 -0.56406391
0.66074383 -4.0196528 -0.56215209
0.70289189 -4.276062 -0.56135076
0.75443667 -4.5896363 -0.56325197
0.81193316 -4.9394178 -0.56400669
0.87486869 -5.3222876 -0.56236935
0.94989425 -5.7787075 -0.56143665
1.0423577 -6.3412113 -0.5622285
1.1515902 -7.0057306 -0.56173015
1.2881441 -7.8364596 -0.56196475
1.4557531 -8.8561134 -0.5601629
1.6804644 -10.223151 -0.56023186
1.9836775 -12.067757 -0.559421
2.4211884 -14.729366 -0.55852944
3.1084507 -18.910343 -0.55761814
4.330276 -26.343353 -0.55477959
7.140594 -43.439999 -0.54884601
0.36611208 -2.0680487 -0.56274748
0.37664768 -2.1275609 -0.55973744
0.39257371 -2.2175219 -0.56347495
0.40847212 -2.3073268 -0.56564319
0.42027551 -2.3740003 -0.56082529
0.43821579 -2.4753392 -0.56278408
0.45424569 -2.5658867 -0.56067002
0.47454795 -2.6805677 -0.56209832
0.49488485 -2.7954445 -0.56162846
0.51549828 -2.9118831 -0.55952418
0.54351997 -3.0701685 -0.56313974
0.57309955 -3.2372539 -0.56561393
0.59913623 -3.3843267 -0.56194156
0.63384521 -3.5803864 -0.56350976
0.66939574 -3.7811999 -0.56247562
0.71134871 -4.0181785 -0.56312656
0.75795144 -4.2814226 -0.56323546
0.81110328 -4.5816598 -0.56345451
0.86849606 -4.9058533 -0.56135112
0.94044167 -5.3122506 -0.5624882
1.0232857 -5.78021 -0.56276256
1.1183649 -6.3172817 -0.56128371
1.2376351 -6.9910007 -0.56172687
1.3813921 -7.8030372 -0.56074369
1.5681833 -8.85816 -0.56146961
1.805654 -10.199555 -0.56011325
2.1322415 -12.044342 -0.55950874
2.6011598 -14.69311 -0.55832529
3.3364265 -18.846394 -0.55690008
4.6468816 -26.248732 -0.5539484
7.6603694 -43.270947 -0.54785877
0.38968363 -2.0537539 -0.56011921
0.40482801 -2.1335695 -0.56258535
0.41893888 -2.207938 -0.56230617
0.43317547 -2.2829692 -0.56093532
0.44943935 -2.3686848 -0.5608328
0.46696162 -2.4610326 -0.56079447
0.48730227 -2.5682342 -0.56244975
0.50806779 -2.677675 -0.56275922
0.52819365 -2.7837446 -0.56054032
0.55361778 -2.9177375 -0.56191474
0.57862043 -3.0495093 -0.56061304
0.61078119 -3.2190068 -0.56369537
0.64191979 -3.3831165 -0.56300867
0.67550546 -3.5601237 -0.56158549
0.71427453 -3.7644486 -0.56124789
0.75913578 -4.0008812 -0.56196815
0.80851734 -4.2611375 -0.56183231
0.86489236 -4.5582514 -0.56184113
0.93249637 -4.9145455 -0.56361514
1.0020823 -5.2812853 -0.56047177
1.0921553 -5.7559981 -0.5616703
1.1962894 -6.3048172 -0.56144077
1.3223759 -6.9693317 -0.56124985
1.4771969 -7.7852864 -0.56073099
1.6727895 -8.8161201 -0.56006634
1.930779 -10.175805 -0.5600704
2.2767045 -11.99894 -0.55865794
2.7803555 -14.653337 -0.55807084
3.5633414 -18.779915 -0.5561884
4.965837 -26.171505 -0.55356538
8.174263 -43.080902 -0.54668391
0.41760078 -2.062113 -0.56375688
0.43187028 -2.1325758 -0.56368107
0.44703141 -2.2074416 -0.56353706
0.46277282 -2.2851725 -0.5628323
0.47943023 -2.3674269 -0.56188828
0.49609855 -2.4497352 -0.55956787
0.51712137 -2.553546 -0.56058317
0.53993565 -2.6662028 -0.56170106
0.56544209 -2.7921534 -0.56359106
0.5865832 -2.8965485 -0.55918086
0.61810052 -3.0521808 -0.56245887
0.64735591 -3.1966441 -0.56113088
0.68131685 -3.3643434 -0.56123626
0.72386378 -3.57444 -0.56520516
0.76343298 -3.7698326 -0.5634076
0.80891955 -3.9944456 -0.56241882
0.86356282 -4.2642741 -0.56360334
0.9226293 -4.5559444 -0.56291264
0.98932868 -4.8853059 -0.56161457
1.0672768 -5.2702141 -0.56064719
1.161114 -5.733582 -0.56083381
1.2740183 -6.2911034 -0.56157213
1.4066226 -6.9459038 -0.56071371
1.5736235 -7.7705545 -0.56102121
1.77922 -8.7857895 -0.5594871
2.0517206 -10.131397 -0.5589726
2.4230528 -11.965037 -0.55842441
2.9578257 -14.605746 -0.55760139
3.7919466 -18.724636 -0.55589014
5.278501 -26.065243 -0.55264896
8.6819611 -42.871532 -0.54534054
0.44174138 -2.0513306 -0.56225163
0.45692748 -2.121851 -0.56228882
0.47186357 -2.1912103 -0.5608322
0.49226001 -2.2859259 -0.56446606
0.50924581 -2.3648036 -0.56270933
0.52794284 -2.4516275 -0.56144053
0.55156094 -2.5613036 -0.56373256
0.57361197 -2.6637032 -0.5626179
0.59605813 -2.7679369 -0.56014007
0.62688047 -2.9110677 -0.56342936
0.65595746 -3.0460939 -0.56278104
0.68954933 -3.2020855 -0.56353188
0.7210204 -3.3482289 -0.55998474
0.76128876 -3.5352244 -0.56044209
0.80581713 -3.7420027 -0.56068683
0.85735482 -3.9813302 -0.5620141
0.90962231 -4.2240467 -0.55972254
0.97546184 -4.529788 -0.56112045
1.0518349 -4.8844447 -0.56295985
1.1351764 -5.2714605 -0.56222224
1.2342891 -5.7317133 -0.56209308
1.3494112 -6.2663102 -0.56079781
1.4902341 -6.9202552 -0.56008017
1.6652966 -7.7331991 -0.55976027
1.8870108 -8.7627811 -0.55945724
2.1791759 -10.119519 -0.55975336
2.5682013 -11.92605 -0.55803657
3.1363852 -14.564548 -0.55745876
4.0150046 -18.644625 -0.55493855
5.5903687 -25.960201 -0.55183756
9.190074 -42.676285 -0.54425329
0.46645993 -2.0436838 -0.56168532
0.48412991 -2.1211007 -0.56362498
0.50068873 -2.1936491 -0.56298965
0.51595271 -2.2605245 -0.55971795
0.53397441 -2.3394823 -0.55820429
0.55909503 -2.4495425 -0.56249493
0.57933795 -2.5382321 -0.56018019
0.60604239 -2.6552312 -0.56235999
0.63225746 -2.7700863 -0.56210583
0.66261864 -2.9031069 -0.56342292
0.69405937 -3.0408568 -0.56334764
0.72863787 -3.1923542 -0.56335348
0.7652542 -3.3527801 -0.56227726
0.80661684 -3.5340006 -0.56177801
0.85595691 -3.7501726 -0.56344545
0.90523684 -3.9660809 -0.56139034
0.96180379 -4.2139158 -0.55990493
1.0325699 -4.5239606 -0.56192893
1.1104449 -4.8651514 -0.56226748
1.1966779 -5.2429609 -0.56070966
1.3019735 -5.7042885 -0.56093121
1.4256778 -6.2462697 -0.56053078
1.5761796 -6.9056578 -0.56042498
1.7621026 -7.7202358 -0.56034797
1.9969525 -8.7491751 -0.56011397
2.3003147 -10.078284 -0.55899477
2.7144222 -11.892598 -0.55799091
3.3161876 -14.529091 -0.55762029
4.2410226 -18.581038 -0.55455619
5.9002581 -25.850584 -0.55100805
9.6961346 -42.481319 -0.54324633
0.49079779 -2.0346637 -0.56082255
0.51193601 -2.1222947 -0.5655722
0.52820951 -2.1897585 -0.5636155
0.54589963 -2.2630951 -0.56197405
0.56561476 -2.3448267 -0.56109655
0.58944339 -2.4436114 -0.56275481
0.61214232 -2.5377126 -0.56168425
0.63670111 -2.6395242 -0.5606491
0.66782874 -2.7685678 -0.56342149
0.6944617 -2.8789778 -0.56035501
0.72925168 -3.0232041 -0.56169611
0.76870322 -3.1867554 -0.56399083
0.804892 -3.3367805 -0.56121147
0.84811348 -3.5159605 -0.56052572
0.90234029 -3.7407644 -0.56365639
0.95193815 -3.9463787 -0.56021607
1.0158924 -4.2115088 -0.56120253
1.0853814 -4.4995842 -0.56051654
1.1662502 -4.834836 -0.56037891
1.2664376 -5.2501755 -0.56310409
1.3727592 -5.6909451 -0.56123656
1.5035101 -6.2329893 -0.5609557
1.6592301 -6.8785458 -0.55983812
1.8565215 -7.6964421 -0.56023562
2.103718 -8.7212257 -0.55993843
2.4238007 -10.048169 -0.55893528
2.8609986 -11.860627 -0.55809927
3.4864042 -14.453324 -0.55631566
4.4647675 -18.509253 -0.55401039
6.2145205 -25.763073 -0.55072987
10.193319 -42.257683 -0.54194838
0.51999342 -2.045054 -0.56540614
0.53949815 -2.121763 -0.56715554
0.55266047 -2.1735282 -0.56114477
0.57182086 -2.2488832 -0.5601486
0.59573388 -2.3429294 -0.5623529
0.61668897 -2.4253426 -0.56025153
0.64745831 -2.5463538 -0.56531626
0.67062086 -2.6374483 -0.56191725
0.70293492 -2.7645347 -0.56431705
0.73377895 -2.8858395 -0.56340414
0.76793998 -3.0201895 -0.56284791
0.80542976 -3.1676309 -0.56231648
0.84630173 -3.3283741 -0.56150538
0.89199817 -3.5080912 -0.56097734
0.9477312 -3.7272806 -0.56333804
1.0016278 -3.9392476 -0.56090975
1.0704243 -4.2098141 -0.56268805
1.1411957 -4.4881463 -0.56079733
1.2290454 -4.8336458 -0.56195015
1.3270661 -5.2191458 -0.5614838
1.4387406 -5.6583447 -0.55972397
1.5776608 -6.2046962 -0.56011295
1.743152 -6.8555479 -0.5596686
1.9490932 -7.6654825 -0.55968434
2.2058473 -8.6752567 -0.55868626
2.545882 -10.012562 -0.55865371
2.99967 -11.797239 -0.55681008
3.6597736 -14.393325 -0.55569643
4.6907449 -18.447975 -0.55386084
6.5240145 -25.657942 -0.55015588
10.696045 -42.065895 -0.5411346
0.54332763 -2.0318809 -0.56356859
0.56216788 -2.1023376 -0.56376821
0.58084321 -2.1721776 -0.56259751
0.60325915 -2.2560065 -0.56372792
0.62689304 -2.3443902 -0.56451106
0.64986122 -2.430284 -0.56319636
0.6725806 -2.5152476 -0.56020415
0.70344245 -2.6306617 -0.56227171
0.73095542 -2.7335517 -0.55978507
0.76888025 -2.8753791 -0.56316519
0.8060056 -3.0142169 -0.56353927
0.8427071 -3.151469 -0.56124455
0.88677812 -3.3162816 -0.56126249
0.93770981 -3.5067506 -0.56256425
0.98743856 -3.6927209 -0.55990756
1.0508097 -3.9297101 -0.56134915
1.1179435 -4.1807699 -0.56060106
1.1955889 -4.4711404 -0.560467
1.2851071 -4.8059115 -0.56052053
1.3905081 -5.200079 -0.56122959
1.5080676 -5.6397157 -0.55967325
1.6512641 -6.1752272 -0.55924344
1.8291976 -6.8406453 -0.56024587
2.0434465 -7.641871 -0.55975264
2.3111422 -8.642972 -0.55839503
2.669426 -9.9828444 -0.5587849
3.144892 -11.760943 -0.55688006
3.8342006 -14.338749 -0.55536759
4.909801 -18.361168 -0.55302542
6.8248692 -25.522943 -0.54901916
11.185361 -41.829861 -0.53982675
0.56276774 -2.0054405 -0.5581122
0.58501679 -2.0847256 -0.56093198
0.60867399 -2.169029 -0.56367785
0.63410443 -2.2596509 -0.56654412
0.65215874 -2.323988 -0.5614869
0.67677975 -2.4117258 -0.56078184
0.70718104 -2.520062 -0.56317061
0.73488694 -2.6187925 -0.56162381
0.76457649 -2.7245922 -0.55983323
0.80367172 -2.8639092 -0.56281173
0.84287995 -3.0036292 -0.56345493
0.882447 -3.1446276 -0.56191611
0.93100864 -3.3176785 -0.56339383
0.97731483 -3.482692 -0.56059027
1.0327119 -3.6801009 -0.5598771
1.099086 -3.9166276 -0.56136847
1.1770365 -4.1944065 -0.56432766
1.2521544 -4.462091 -0.56122029
1.3479065 -4.8033066 -0.56210738
1.449258 -5.1644759 -0.55926812
1.5771668 -5.6202836 -0.55962706
1.7327327 -6.1746473 -0.56107801
1.9141934 -6.8212881 -0.56054586
2.1334918 -7.6027646 -0.55876756
2.4210095 -8.6273432 -0.55926639
2.7882931 -9.9361696 -0.55804926
3.287328 -11.714496 -0.55655277
4.0091991 -14.286906 -0.5552271
5.131156 -18.285036 -0.55259097
7.1299796 -25.407906 -0.54838908
11.668923 -41.582573 -0.53844649
0.59271771 -2.0165181 -0.56318086
0.61353189 -2.0873313 -0.56362045
0.63412213 -2.1573825 -0.56263506
0.65577883 -2.2310619 -0.56135553
0.68461066 -2.3291523 -0.56472588
0.70715481 -2.4058511 -0.56139529
0.74187684 -2.5239809 -0.56604224
0.76789737 -2.6125069 -0.5622583
0.80337191 -2.7331967 -0.56358844
0.83766758 -2.8498759 -0.56203562
0.876854 -2.9831944 -0.56160176
0.92234671 -3.1379676 -0.56271011
0.96887761 -3.296273 -0.5617395
1.0215273 -3.4753952 -0.56139517
1.0811194 -3.6781371 -0.56155843
1.1496978 -3.9114513 -0.56261027
1.2208394 -4.1534863 -0.56079948
1.3075104 -4.4483547 -0.56147236
1.4008574 -4.7659359 -0.55970752
1.5164233 -5.1591091 -0.56066382
1.648158 -5.6072907 -0.56030899
1.8024894 -6.1323504 -0.55920637
1.9969665 -6.7939916 -0.5602783
2.2313418 -7.5913734 -0.55990458
2.5263565 -8.5950594 -0.55914515
2.9113238 -9.9047775 -0.5582546
3.4323332 -11.677334 -0.5567503
4.1766372 -14.209572 -0.55417567
5.3540964 -18.215471 -0.55243659
7.4365163 -25.30019 -0.5479964
12.157763 -41.362606 -0.53749335
0.61595458 -2.0041566 -0.56180137
0.6373235 -2.0736856 -0.56200939
0.65889841 -2.1438847 -0.56118548
0.68782753 -2.2380126 -0.56518978
0.70609677 -2.297456 -0.55910367
0.73471016 -2.3905566 -0.55989218
0.76722002 -2.4963353 -0.56191558
0.80175591 -2.6087062 -0.56351954
0.83508188 -2.7171402 -0.56235248
0.87265933 -2.8394077 -0.56204486
0.91275579 -2.9698708 -0.56116402
0.96105725 -3.1270316 -0.56282562
1.0100741 -3.2865198 -0.56215155
1.0657977 -3.4678295 -0.56224757
1.1255852 -3.6623628 -0.56122077
1.19783 -3.8974285 -0.56266934
1.271942 -4.1385698 -0.56085485
1.3581487 -4.419064 -0.55984092
1.4602617 -4.7513137 -0.56005675
1.5796121 -5.1396489 -0.56061745
1.722024 -5.6030202 -0.56195563
1.8813076 -6.1212878 -0.56026471
2.07844 -6.7627053 -0.55976355
2.3185847 -7.5440741 -0.55847657
2.6259348 -8.5441122 -0.55788922
3.0247154 -9.8416405 -0.55675024
3.5753071 -11.633124 -0.55669647
4.3545747 -14.168658 -0.55462646
5.5689659 -18.119972 -0.55157536
7.733726 -25.163542 -0.54705507
12.639758 -41.126499 -0.53640431
0.64155203 -1.9995542 -0.56268001
0.66277742 -2.0657082 -0.56201369
0.68523055 -2.1356888 -0.5612033
0.71261388 -2.2210357 -0.5630728
0.74299699 -2.3157322 -0.56573194
0.76701099 -2.3905778 -0.56206357
0.79818135 -2.4877279 -0.56214488
0.82878786 -2.5831206 -0.56015176
0.86821026 -2.7059901 -0.56221181
0.9055149 -2.8222592 -0.56081206
0.94999802 -2.9609017 -0.56163406
0.99297452 -3.0948484 -0.55918849
1.0534668 -3.2833874 -0.56378889
1.1069659 -3.4501305 -0.56154239
1.1717033 -3.6519005 -0.5617829
1.2395055 -3.8632228 -0.5598892
1.3245002 -4.1281295 -0.56160474
1.4163324 -4.4143472 -0.56140727
1.5175035 -4.7296715 -0.55966294
1.6403683 -5.1126099 -0.55982596
1.7861503 -5.5669751 -0.56050098
1.9500835 -6.0779133 -0.5584473
2.1566374 -6.7216887 -0.55852133
2.4117613 -7.5168452 -0.55861402
2.7321477 -8.5154076 -0.55816638
3.1421816 -9.7933788 -0.55616373
3.710849 -11.565771 -0.55561489
4.5189028 -14.084268 -0.55345631
5.791369 -18.05022 -0.55157816
8.034194 -25.040535 -0.54648733
13.118107 -40.885796 -0.53532833
0.66265094 -1.981235 -0.55977565
0.69045264 -2.0643582 -0.56391364
0.71416694 -2.1352608 -0.5633558
0.73775882 -2.2057972 -0.56146699
0.76479495 -2.2866316 -0.56087774
0.79297686 -2.3708916 -0.55968529
0.82977134 -2.480902 -0.5628655
0.86202109 -2.5773242 -0.56115097
0.89860946 -2.6867185 -0.56046122
0.94146681 -2.8148561 -0.56159896
0.99019599 -2.9605496 -0.56383425
1.035322 -3.09547 -0.5615586
1.0887797 -3.2553012 -0.56122267
1.1451142 -3.4237337 -0.55949557
1.2152685 -3.6334853 -0.56120646
1.2888721 -3.85355 -0.56074184
1.3745414 -4.1096897 -0.56135303
1.4683418 -4.3901396 -0.56058246
1.5768741 -4.7146363 -0.5601359
1.7029215 -5.0915008 -0.5597651
1.8523065 -5.5381413 -0.55984879
2.0266395 -6.0593724 -0.55899119
2.2385964 -6.6930952 -0.55839044
2.5016937 -7.4797201 -0.55809897
2.8385696 -8.4869318 -0.55854559
3.2645764 -9.7606335 -0.5565418
3.8577745 -11.534214 -0.55633575
4.6926441 -14.030359 -0.55356354
6.0058432 -17.956644 -0.55093372
8.3254957 -24.892084 -0.5454405
13.597163 -40.653645 -0.53443742
0.69291985 -1.9900507 -0.56463104
0.71732497 -2.0601416 -0.56512856
0.74384946 -2.1363194 -0.56600559
0.76551175 -2.1985331 -0.56197149
0.79428655 -2.2811737 -0.56189221
0.82830423 -2.3788717 -0.56393087
0.85992002 -2.4696715 -0.56267399
0.89237869 -2.5628922 -0.56035548
0.93235505 -2.6777034 -0.56092978
0.9731667 -2.7949135 -0.55996531
1.0215815 -2.9339597 -0.56112021
1.0703645 -3.0740633 -0.56002051
1.1319368 -3.2508976 -0.56282061
1.1867663 -3.4083667 -0.55932683
1.2569611 -3.6099648 -0.55991852
1.3370725 -3.8400433 -0.56112641
1.4192853 -4.0761566 -0.55911422
1.5210941 -4.3685493 -0.56017154
1.6342541 -4.693542 -0.55997485
1.7647554 -5.0683389 -0.55956209
1.9181563 -5.508903 -0.55923522
2.1028712 -6.0394001 -0.55949187
2.3221414 -6.6691394 -0.55873191
2.5912457 -7.4420013 -0.55761987
2.937587 -8.4366856 -0.55757385
3.3845348 -9.7203102 -0.55657351
3.9874773 -11.451947 -0.55469078
4.8622127 -13.964169 -0.55326909
6.216115 -17.852547 -0.55004346
8.6253691 -24.771872 -0.54508924
14.059748 -40.379288 -0.53306323
0.71301055 -1.9694322 -0.56122619
0.73351705 -2.0260742 -0.55821532
0.76291931 -2.1072872 -0.56075674
0.79607219 -2.1988599 -0.56451446
0.82058126 -2.2665575 -0.56073493
0.85724109 -2.3678169 -0.56376648
0.88593841 -2.4470828 -0.55996716
0.93019503 -2.5693254 -0.56422031
0.96737659 -2.6720262 -0.56218988
1.0100642 -2.7899351 -0.56141388
1.0544397 -2.9125059 -0.55945462
1.1070681 -3.057873 -0.55950868
1.1630155 -3.2124074 -0.55859053
1.2271326 -3.3895073 -0.55866593
1.3074678 -3.6114042 -0.56259292
1.3871703 -3.8315535 -0.56233585
1.4740728 -4.0715899 -0.56093174
1.5775957 -4.3575344 -0.5612042
1.6905825 -4.6696196 -0.55955863
1.8344719 -5.0670619 -0.56186908
1.982977 -5.477253 -0.55845535
2.1761343 -6.0107799 -0.55927718
2.4023492 -6.6356163 -0.55835599
2.6858232 -7.4186101 -0.5582996
3.0355163 -8.38451 -0.55655038
3.4984686 -9.6632481 -0.55572736
4.1287546 -11.404182 -0.55479437
5.0310273 -13.896384 -0.5529927
6.4349942 -17.77433 -0.55002999
8.9132605 -24.61964 -0.54411006
14.52768 -40.127434 -0.53205645
0.7361781 -1.9578736 -0.56046963
0.76351827 -2.0305851 -0.56200242
0.78753257 -2.0944514 -0.55987567
0.81533468 -2.1683915 -0.55922389
0.847516 -2.253978 -0.56015873
0.87790364 -2.3347943 -0.55843198
0.92061317 -2.4483807 -0.56281209
0.95908338 -2.5506926 -0.56267583
0.99927545 -2.657584 -0.56169409
1.0430712 -2.7740591 -0.5607577
1.0916921 -2.903367 -0.56023532
1.1448168 -3.0446525 -0.55962312
1.2062924 -3.2081478 -0.56038672
1.2770693 -3.3963795 -0.56234437
1.3439288 -3.5741935 -0.5593282
1.4262596 -3.793153 -0.55923164
1.5249079 -4.0555091 -0.56125718
1.6290356 -4.3324375 -0.56050944
1.7467831 -4.6455884 -0.5592106
1.8913488 -5.0300627 -0.56030291
2.0566287 -5.4696264 -0.56021386
2.2455294 -5.9720101 -0.55819678
2.479414 -6.5940285 -0.5573799
2.7760556 -7.3829498 -0.55814266
3.1407452 -8.3528452 -0.55697
3.6172137 -9.620019 -0.55575728
4.2668071 -11.347619 -0.55455315
5.1962633 -13.819519 -0.55243486
6.6433673 -17.668108 -0.54922926
9.2129307 -24.50189 -0.54397029
14.988442 -39.861923 -0.53093958
0.76009536 -1.9484171 -0.56039578
0.79097921 -2.0275843 -0.5638212
0.81880307 -2.0989075 -0.56371564
0.843799 -2.1629817 -0.5604623
0.87755716 -2.249517 -0.56168932
0.90834701 -2.3284431 -0.55954212
0.94774151 -2.4294264 -0.56109148
0.98919576 -2.5356896 -0.56200695
1.0281709 -2.6355979 -0.559677
1.0806112 -2.7700229 -0.56258529
1.1306943 -2.8984046 -0.56191814
1.186041 -3.0402799 -0.56145757
1.2471738 -3.1969864 -0.56107354
1.3120533 -3.3632979 -0.55949599
1.3915416 -3.5670569 -0.56084675
1.4775882 -3.7876275 -0.56105334
1.567054 -4.016963 -0.55854708
1.6815217 -4.3103871 -0.56028944
1.8039739 -4.6242795 -0.55927348
1.9454499 -4.986937 -0.55812162
2.114275 -5.4197006 -0.55772096
2.3165629 -5.9382424 -0.55766094
2.565367 -6.5760231 -0.55848211
2.8668108 -7.3487401 -0.55817926
3.2393994 -8.3038282 -0.55631548
3.7310586 -9.5641403 -0.55513757
4.4010329 -11.281542 -0.55392677
5.3596115 -13.738748 -0.55179882
6.8533816 -17.567856 -0.54869103
9.4967346 -24.343786 -0.54301172
15.45192 -39.609219 -0.53006434
0.78151089 -1.9327811 -0.55862033
0.81746268 -2.0216947 -0.56493586
0.84313977 -2.0851974 -0.56277543
0.86944467 -2.1502531 -0.559892
0.90268517 -2.2324612 -0.56015986
0.93856913 -2.321207 -0.5605343
0.97638637 -2.4147344 -0.56042874
1.0213367 -2.5259023 -0.56257874
1.0610824 -2.6241989 -0.55998474
1.1138685 -2.7547457 -0.56222183
1.1699833 -2.8935254 -0.56371874
1.2193617 -3.0156446 -0.5596348
1.2841314 -3.1758289 -0.56008923
1.3564267 -3.354625 -0.56078541
1.4361892 -3.551888 -0.56119603
1.5229197 -3.7663844 -0.56063819
1.6232783 -4.0145845 -0.56094944
1.733656 -4.2875633 -0.56005132
1.8649111 -4.612175 -0.5605405
2.0172203 -4.9888558 -0.56106997
2.1893039 -5.4144421 -0.55990779
2.3957186 -5.9249325 -0.5591352
2.6435921 -6.5379577 -0.55796784
2.957346 -7.3139124 -0.55825382
3.3440602 -8.2703085 -0.5567826
3.8497925 -9.5210524 -0.55534238
4.5325541 -11.209614 -0.55308986
5.5273051 -13.669766 -0.55171633
7.0653982 -17.473675 -0.54842156
9.7801161 -24.187536 -0.54216796
15.907665 -39.341785 -0.52906317
0.81346595 -1.9427276 -0.56434345
0.83870852 -2.0030122 -0.56255466
0.8648839 -2.0655243 -0.56029379
0.8988719 -2.1466949 -0.56180102
0.9328106 -2.2277477 -0.56181276
0.97054356 -2.3178618 -0.56256592
1.0123899 -2.4177997 -0.56398678
1.0467163 -2.4997785 -0.55958468
1.0965679 -2.6188343 -0.56167489
1.1465762 -2.7382648 -0.56169319
1.1982831 -2.8617516 -0.5603568
1.2655294 -3.0223501 -0.56372446
1.3292042 -3.1744189 -0.56268048
1.3962978 -3.3346524 -0.56027454
1.4735968 -3.5192587 -0.55886132
1.5662972 -3.7406466 -0.55963165
1.6697637 -3.9877465 -0.56002605
1.7893232 -4.2732797 -0.56101716
1.9156345 -4.5749373 -0.55883545
2.0740712 -4.9533172 -0.55989909
2.2498405 -5.3730917 -0.55845034
2.4713905 -5.9021997 -0.55981541
2.7186277 -6.4926534 -0.55691236
3.0391028 -7.2580156 -0.55679762
3.4452033 -8.227869 -0.55673546
3.9588008 -9.4544477 -0.55425489
4.6740422 -11.162595 -0.55356383
5.6885443 -13.585439 -0.55109435
7.2683387 -17.358318 -0.54756474
10.063676 -24.03417 -0.54146314
16.356951 -39.063831 -0.52799016
0.8334626 -1.9237413 -0.56176281
0.86101699 -1.9873407 -0.56108439
0.892946 -2.0610371 -0.56201249
0.92708749 -2.1398399 -0.56294793
0.95581961 -2.2061574 -0.55928969
0.99699235 -2.3011897 -0.56145245
1.037833 -2.3954551 -0.56170899
1.0820732 -2.4975674 -0.56202573
1.1235678 -2.5933423 -0.55912846
1.1795909 -2.7226512 -0.5614233
1.2350396 -2.8506339 -0.56111115
1.2952201 -2.9895387 -0.56053275
1.362324 -3.1444232 -0.56029063
1.437986 -3.319061 -0.56058341
1.5281808 -3.5272424 -0.56307065
1.6178092 -3.7341166 -0.56158841
1.7164967 -3.9619002 -0.55931818
1.8403046 -4.2476654 -0.56058288
1.9734589 -4.5550027 -0.55932236
2.1318579 -4.920609 -0.55912274
2.3150406 -5.3434186 -0.55828279
2.5452433 -5.8747563 -0.56013864
2.8031337 -6.4700017 -0.55788374
3.1293514 -7.2229552 -0.55701786
3.5366371 -8.1630239 -0.55524838
4.082922 -9.4239206 -0.55536658
4.8092494 -11.100381 -0.55336946
5.8534293 -13.510486 -0.55093199
7.4800606 -17.264965 -0.54747993
10.341539 -23.869635 -0.54058033
16.794872 -38.764778 -0.5266996
0.85695112 -1.9131206 -0.56169605
0.8885507 -1.9836658 -0.56308907
0.91536969 -2.0435386 -0.56026787
0.94677085 -2.1136408 -0.55907595
0.99307173 -2.2170062 -0.56509304
1.0260435 -2.2906151 -0.56190819
1.0678647 -2.3839796 -0.56205463
1.111257 -2.4808517 -0.5612967
1.1643515 -2.5993836 -0.56347519
1.2095371 -2.7002594 -0.55983061
1.2724161 -2.8406351 -0.56218022
1.3320457 -2.9737566 -0.56060237
1.4029771 -3.1321092 -0.56112802
1.4825481 -3.3097491 -0.56204718
1.5625257 -3.4882972 -0.55987841
1.663179 -3.7130032 -0.56144637
1.7673612 -3.9455869 -0.56004083
1.8956872 -4.2320714 -0.56155872
2.0263896 -4.5238609 -0.55851579
2.1921947 -4.8940163 -0.55912185
2.3774168 -5.3075199 -0.55754429
2.6069131 -5.8198643 -0.55791909
2.8832178 -6.4367075 -0.55802774
3.2164598 -7.1806612 -0.55676425
3.6398332 -8.1258307 -0.55572081
4.1967573 -9.3691492 -0.55513799
4.9441738 -11.037737 -0.55323547
6.0105314 -13.418352 -0.55014724
7.6835222 -17.153259 -0.54689234
10.627556 -23.725737 -0.54024017
17.246254 -38.501804 -0.52596819
0.88360083 -1.909336 -0.56373227
0.90605938 -1.9578657 -0.55888569
0.94349992 -2.0387695 -0.56209862
0.9690541 -2.0939884 -0.55698746
1.0107335 -2.1840518 -0.5598188
1.045269 -2.258678 -0.55718464
1.0938109 -2.3635702 -0.56037152
1.144969 -2.4741154 -0.5629155
1.1865804 -2.5640318 -0.55893254
1.2444204 -2.6890159 -0.56062961
1.3081832 -2.8267982 -0.56258285
1.3696473 -2.9596133 -0.56106865
1.4365994 -3.1042874 -0.55926609
1.5220218 -3.288873 -0.56163782
1.6071801 -3.4728882 -0.56053483
1.696594 -3.6660988 -0.55746639
1.8149145 -3.9217725 -0.55978596
1.9437964 -4.2002683 -0.5604679
2.0905778 -4.5174422 -0.56085467
2.2494519 -4.8607464 -0.55843872
2.443768 -5.2806358 -0.55783468
2.6744583 -5.7791247 -0.55712414
2.9578774 -6.3915529 -0.55722421
3.3032315 -7.137814 -0.55654931
3.733135 -8.0667753 -0.55477947
4.3046298 -9.3016939 -0.55423552
5.0710039 -10.95772 -0.5523085
6.1792588 -13.352501 -0.55052102
7.8932719 -17.05624 -0.54685229
10.912844 -23.581106 -0.53996158
17.680378 -38.204784 -0.52484095
0.90635496 -1.8969556 -0.56332493
0.93216902 -1.9509832 -0.56015068
0.96501058 -2.0197189 -0.56007552
1.0055159 -2.1044946 -0.56302834
1.0393162 -2.1752367 -0.56079268
1.0765646 -2.2531958 -0.55905557
1.123136 -2.3506677 -0.56054443
1.1769255 -2.4632461 -0.56369257
1.2201213 -2.5536528 -0.5598982
1.274418 -2.6672931 -0.55932558
1.3470044 -2.8192129 -0.56432694
1.3986609 -2.9273272 -0.55816627
1.4752785 -3.0876839 -0.55950075
1.5569186 -3.2585528 -0.55968708
1.6449155 -3.4427259 -0.55888891
1.7529433 -3.6688225 -0.5611158
1.8679899 -3.9096096 -0.56128609
1.9944552 -4.1742949 -0.56023228
2.1358099 -4.4701433 -0.55820084
2.3122876 -4.8395019 -0.55922234
2.5078661 -5.2488384 -0.55769116
2.7447796 -5.7446866 -0.55701578
3.0330088 -6.3479357 -0.55663097
3.3865328 -7.0878434 -0.55585796
3.8364012 -8.0293961 -0.55541116
4.4187226 -9.2481651 -0.55424166
5.2071524 -10.89831 -0.55249953
6.3396759 -13.268624 -0.55023527
8.0906734 -16.933376 -0.54606152
11.186213 -23.412186 -0.53920251
18.11845 -37.921009 -0.52396357
0.92508101 -1.8764801 -0.56058013
0.95695412 -1.9411331 -0.56065875
0.98906964 -2.0062778 -0.55967855
1.0276048 -2.0844445 -0.56100237
1.0642222 -2.1587212 -0.55986625
1.1077061 -2.2469258 -0.56083709
1.1515476 -2.3358562 -0.56034672
1.2015669 -2.4373181 -0.56109786
1.2603598 -2.5565763 -0.56389457
1.3172789 -2.6720335 -0.56367368
1.3751481 -2.7894182 -0.56170529
1.4413209 -2.9236467 -0.56080145
1.5125369 -3.0681047 -0.55928087
1.5979499 -3.2413604 -0.56006676
1.6931003 -3.4343686 -0.56086957
1.7994051 -3.6500025 -0.56157899
1.9120839 -3.8785655 -0.56016237
2.0428348 -4.1437869 -0.55946684
2.189791 -4.4418807 -0.5579918
2.3686552 -4.8046975 -0.55852395
2.5725753 -5.2183394 -0.55776954
2.8212357 -5.722734 -0.55820876
3.1131177 -6.3148022 -0.55704015
3.4708068 -7.0403566 -0.55543888
3.9267175 -7.9651484 -0.55426502
4.5325265 -9.1940012 -0.55429381
5.3335261 -10.818789 -0.55175126
6.4873743 -13.159311 -0.54896873
8.2924652 -16.820848 -0.54567975
11.458246 -23.242474 -0.53849822
18.543837 -37.615238 -0.5228498
0.95264012 -1.8739274 -0.56327438
0.98274761 -1.9331514 -0.56180125
1.0224895 -2.0113273 -0.56455195
1.0569057 -2.0790269 -0.56299955
1.0951129 -2.1541839 -0.56213939
1.1385156 -2.2395608 -0.56245059
1.1824102 -2.3259056 -0.56140506
1.2241364 -2.4079843 -0.55776799
1.2855052 -2.5287023 -0.56119061
1.3515968 -2.6587105 -0.56432647
1.4028109 -2.7594531 -0.55910248
1.4769561 -2.9053035 -0.56072414
1.5586152 -3.0659337 -0.56233627
1.6375359 -3.2211781 -0.56001633
1.7304027 -3.4038551 -0.55931902
1.8344288 -3.6084836 -0.55861932
1.9602538 -3.8559926 -0.56034118
2.0922961 -4.1157317 -0.55911034
2.2452247 -4.4165559 -0.55823642
2.4241545 -4.7685266 -0.55774218
2.6340344 -5.1813784 -0.55723876
2.8847506 -5.6745596 -0.55692768
3.1845658 -6.2643223 -0.55599946
3.5625482 -7.0078468 -0.55628806
4.030859 -7.9290557 -0.55516058
4.6428394 -9.1328754 -0.55400872
5.4619484 -10.744135 -0.55132753
6.6519146 -13.084904 -0.5492354
8.4858885 -16.692492 -0.54485965
11.725513 -23.065119 -0.53768897
18.967783 -37.311306 -0.5218277
0.97123122 -1.8537169 -0.56074685
1.0051697 -1.9184928 -0.56109083
1.0416709 -1.9881599 -0.561602
1.0836213 -2.0682273 -0.56364065
1.1172136 -2.1323423 -0.55998242
1.1693239 -2.2318015 -0.56407034
1.2098291 -2.3091109 -0.56089973
1.2596576 -2.4042149 -0.56044036
1.3169494 -2.5135634 -0.56138229
1.3769389 -2.6280611 -0.56137234
1.4515392 -2.7704449 -0.56490326
1.5174942 -2.8963284 -0.56255078
1.5900962 -3.0348985 -0.56018782
1.6810405 -3.208477 -0.56135947
1.7694442 -3.3772066 -0.55847317
1.8865092 -3.6006398 -0.5609538
2.0060325 -3.8287652 -0.55992675
2.1457222 -4.0953803 -0.55988759
2.307498 -4.40415 -0.56021243
2.486264 -4.745347 -0.55856466
2.7043138 -5.1615224 -0.55863738
2.9545786 -5.6391845 -0.55697936
3.2627268 -6.227324 -0.55623448
3.6370203 -6.9417105 -0.5545463
4.1222625 -7.867856 -0.5543828
4.7436948 -9.053937 -0.55271679
5.5920677 -10.673164 -0.55117255
6.8029804 -12.984343 -0.54848421
8.69133 -16.588495 -0.54491234
11.995238 -22.894419 -0.53710753
19.395004 -37.017803 -0.52101892
0.99830168 -1.8496974 -0.56320173
1.031809 -1.9117813 -0.56279606
1.0729052 -1.9879261 -0.56521988
1.1060128 -2.0492692 -0.56213802
1.143908 -2.1194832 -0.56025702
1.1864724 -2.1983485 -0.55926043
1.2394106 -2.2964346 -0.56148016
1.2973254 -2.4037416 -0.56400603
1.342675 -2.4877675 -0.55926609
1.4059 -2.6049137 -0.56007832
1.4723949 -2.7281182 -0.5599221
1.5498526 -2.8716352 -0.56141376
1.6256835 -3.0121381 -0.55963421
1.7151737 -3.1779494 -0.5596661
1.8149972 -3.3629069 -0.55975682
1.9237757 -3.5644562 -0.55895978
2.0548549 -3.8073256 -0.56044418
2.1866589 -4.051538 -0.55752766
2.3568761 -4.3669243 -0.55912143
2.544594 -4.714736 -0.55860227
2.7592695 -5.1124959 -0.5569613
3.0205393 -5.5965886 -0.55639857
3.3351834 -6.179575 -0.55559063
3.7271972 -6.9059153 -0.55530608
4.2240481 -7.8265028 -0.55508685
4.8532758 -8.9923639 -0.55255938
5.7190809 -10.596565 -0.55080694
6.9671865 -12.90911 -0.54888368
8.8865042 -16.465307 -0.5444141
12.265066 -22.725254 -0.53663653
19.803787 -36.693329 -0.51984018
1.0191523 -1.8340131 -0.56219941
1.05463 -1.8978572 -0.56247216
1.0894557 -1.9605277 -0.56119627
1.1350931 -2.0426543 -0.5641095
1.1701614 -2.1057611 -0.56039089
1.2219495 -2.1989565 -0.56319505
1.2676975 -2.2812822 -0.56154424
1.3163642 -2.3688602 -0.55957729
1.379403 -2.4823017 -0.56180799
1.4434568 -2.5975695 -0.56227303
1.5011473 -2.7013862 -0.55818188
1.5777203 -2.8391829 -0.55881983
1.6661204 -2.9982631 -0.56082034
1.7572523 -3.1622593 -0.56066591
1.8644617 -3.3551877 -0.56224555
1.9658855 -3.5377047 -0.55851328
2.097652 -3.7748251 -0.55941463
2.2451549 -4.0402637 -0.55973291
2.4061625 -4.3300042 -0.5581404
2.5987649 -4.6766014 -0.55782801
2.8199399 -5.0746164 -0.55657017
3.0902579 -5.5610662 -0.55660278
3.4165633 -6.1482687 -0.55651104
3.8101346 -6.8565192 -0.55505949
4.3224583 -7.77847 -0.55540788
4.9640126 -8.9329777 -0.55261916
5.8535509 -10.533744 -0.55124122
7.1169119 -12.807222 -0.54823101
9.0747089 -16.330372 -0.54360098
12.531745 -22.551474 -0.53613114
20.2183 -36.383797 -0.51893783
1.0435106 -1.8246399 -0.56321692
1.0799482 -1.8883531 -0.56354851
1.1076099 -1.9367211 -0.55823815
1.155899 -2.0211577 -0.56205571
1.1984651 -2.095587 -0.56156266
1.2399224 -2.1680775 -0.55914903
1.2925991 -2.260186 -0.56022143
1.3511255 -2.3625226 -0.56196231
1.4074799 -2.4610617 -0.56087548
1.471617 -2.573209 -0.56087458
1.5324051 -2.6795008 -0.55751115
1.6174557 -2.8282166 -0.5605337
1.7026157 -2.977124 -0.56073999
1.7954431 -3.1394379 -0.56049168
1.8940482 -3.3118551 -0.55884469
2.0089645 -3.5127933 -0.55843818
2.146028 -3.7524567 -0.55996811
2.2939858 -4.0111694 -0.55956787
2.4648731 -4.3099761 -0.55942339
2.651094 -4.6355944 -0.55678302
2.8850811 -5.0447345 -0.5571416
3.1614358 -5.527957 -0.55713773
3.4832835 -6.0907269 -0.55513763
3.8887863 -6.7997723 -0.55429476
4.4124894 -7.7154984 -0.55474377
5.0696206 -8.8645306 -0.5521996
5.9695749 -10.438154 -0.55003864
7.2663956 -12.705721 -0.54766953
9.2624435 -16.19593 -0.54287601
12.792444 -22.368343 -0.53547662
20.618523 -36.052704 -0.51779252
1.0607754 -1.8030176 -0.56052661
1.1023403 -1.8736664 -0.56316811
1.1400312 -1.9377301 -0.56252706
1.1777776 -2.0018885 -0.56068218
1.2274283 -2.0862806 -0.56307077
1.2773336 -2.1711054 -0.56393802
1.320524 -2.2445166 -0.56032002
1.3810536 -2.3473997 -0.56236207
1.4420496 -2.4510758 -0.56259835
1.5020419 -2.553046 -0.56046307
1.5725659 -2.6729167 -0.56012219
1.6439 -2.7941644 -0.55774891
1.7244403 -2.9310601 -0.55601567
1.8326616 -3.1150057 -0.56011063
1.9412482 -3.299572 -0.56075758
2.0603144 -3.501951 -0.5606997
2.1897869 -3.7220175 -0.55940163
2.3392246 -3.9760194 -0.55863476
2.5130856 -4.271534 -0.55840242
2.7143903 -4.6136947 -0.55811942
2.9508004 -5.0155249 -0.55788082
3.2248223 -5.4812846 -0.55638826
3.5587909 -6.0489364 -0.55527526
3.9793253 -6.7637258 -0.55530316
4.4941821 -7.6388364 -0.55316335
5.1763229 -8.7982826 -0.55199605
6.1009793 -10.369937 -0.55035555
7.415309 -12.603925 -0.54717064
9.4653206 -16.088364 -0.5431307
13.052592 -22.185709 -0.53490633
21.041803 -35.765106 -0.51733893
1.0840173 -1.7917444 -0.56112343
1.1206056 -1.8522202 -0.56082135
1.1600592 -1.9174321 -0.5607332
1.2053026 -1.9922138 -0.5620811
1.2525331 -2.0702798 -0.56286657
1.2955005 -2.1412997 -0.56029153
1.3456659 -2.2242167 -0.55934083
1.4059353 -2.3238344 -0.56081581
1.4665312 -2.4239917 -0.56047845
1.5366676 -2.5399184 -0.56168687
1.6043594 -2.6518044 -0.55978984
1.6881272 -2.790262 -0.5610711
1.7816629 -2.944865 -0.56274784
1.8680015 -3.0875716 -0.55926567
1.9784024 -3.2700505 -0.55983251
2.096472 -3.465205 -0.55890149
2.2321701 -3.6894968 -0.55859703
2.3888884 -3.9485321 -0.55885774
2.5666771 -4.2423949 -0.55867684
2.7683785 -4.5757818 -0.55760896
3.0063117 -4.9690552 -0.55678171
3.2855797 -5.4306502 -0.55530757
3.6468124 -6.0277224 -0.55740219
4.0563326 -6.704608 -0.55450267
4.5847311 -7.5779848 -0.55279744
5.2882204 -8.7407637 -0.55242527
6.2257547 -10.29039 -0.55015516
7.573494 -12.518034 -0.54744339
9.650054 -15.950326 -0.54243559
13.311621 -22.002436 -0.53439367
21.42691 -35.415989 -0.51606119
1.1078869 -1.7813692 -0.56209815
1.1516103 -1.8516718 -0.56490028
1.1837064 -1.9032792 -0.56080848
1.2258469 -1.9710369 -0.56031674
1.276879 -2.0530913 -0.56241959
1.3231223 -2.1274457 -0.56088132
1.3805865 -2.2198424 -0.56246746
1.435118 -2.3075235 -0.56109577
1.4913934 -2.3980088 -0.55866879
1.5658784 -2.5177729 -0.56100518
1.6342865 -2.6277661 -0.55891538
1.7196957 -2.7650955 -0.5602203
1.8130263 -2.9151616 -0.56128949
1.9164538 -3.0814624 -0.56238508
2.0094376 -3.2309711 -0.55733013
2.141856 -3.443886 -0.5596686
2.2737799 -3.6560063 -0.55771744
2.4334552 -3.9127481 -0.55798596
2.6160274 -4.2063055 -0.55811822
2.832263 -4.5539904 -0.55915517
3.0695302 -4.9354916 -0.55720806
3.364635 -5.4099898 -0.55738342
3.7023129 -5.9529419 -0.55465496
4.1416798 -6.659399 -0.55493373
4.69139 -7.5432768 -0.55443186
5.389751 -8.6661701 -0.55185783
6.3419795 -10.197257 -0.54930371
7.718884 -12.41118 -0.54687989
9.8341427 -15.812299 -0.54181302
13.562306 -21.806807 -0.53365237
21.81951 -35.083546 -0.5150876
1.1250564 -1.7603374 -0.55978465
1.1652648 -1.8232501 -0.56055844
1.2135701 -1.8988317 -0.56385243
1.2503736 -1.9564168 -0.56048906
1.3000001 -2.0340657 -0.56154436
1.3494905 -2.1115019 -0.56101024
1.403438 -2.1959114 -0.56073403
1.4620208 -2.2875741 -0.56057394
1.5286674 -2.3918538 -0.5615716
1.5947092 -2.495187 -0.56029963
1.6680566 -2.6099513 -0.55944657
1.7525558 -2.7421644 -0.5598982
1.8389223 -2.8772988 -0.55831093
1.9421844 -3.0388699 -0.55892801
2.0627844 -3.2275684 -0.5610761
2.1823781 -3.4146926 -0.55924314
2.3246853 -3.6373558 -0.55919069
2.4826782 -3.884562 -0.55827779
2.6646409 -4.1692724 -0.5575099
2.8726275 -4.4947023 -0.55617064
3.1237097 -4.8875618 -0.55609131
3.4218757 -5.3540921 -0.55591738
3.7775252 -5.9105649 -0.5549925
4.2211437 -6.6046796 -0.55465728
4.7773209 -7.4749112 -0.55368274
5.4948239 -8.5975628 -0.55174989
6.4715323 -10.125786 -0.54969883
7.8615537 -12.300705 -0.54623032
10.018318 -15.675322 -0.54129964
13.813684 -21.613802 -0.53304565
22.215179 -34.759335 -0.51429933
1.1535581 -1.756945 -0.56317407
1.1931199 -1.8172001 -0.56316644
1.2311913 -1.8751854 -0.56128383
1.2740712 -1.9404944 -0.56037337
1.3238764 -2.0163507 -0.56110555
1.3758711 -2.0955422 -0.56122255
1.4272484 -2.1737931 -0.55952525
1.4870538 -2.2648809 -0.55945158
1.5602989 -2.3764381 -0.56241435
1.6214684 -2.4696033 -0.55898964
1.6950836 -2.5817239 -0.55782169
1.7847012 -2.7182176 -0.55944729
1.8820175 -2.8664365 -0.5606513
1.9714113 -3.0025892 -0.55667162
2.0917723 -3.1859069 -0.55826288
2.2220063 -3.3842618 -0.55869192
2.363409 -3.5996275 -0.55781615
2.5378158 -3.8652606 -0.55994636
2.7170076 -4.1381817 -0.55777776
2.9342399 -4.4690404 -0.55741775
3.188087 -4.8556666 -0.55688053
3.4889591 -5.3139143 -0.55615824
3.857151 -5.8746948 -0.55603588
4.3012614 -6.5511045 -0.55455786
4.8685846 -7.4151745 -0.55365056
5.594276 -8.5204506 -0.5511741
6.591774 -10.039706 -0.54938453
8.0033121 -12.189571 -0.5456242
10.208268 -15.547864 -0.54119205
14.060916 -21.415701 -0.53238386
22.609768 -34.436165 -0.51359248
1.1726763 -1.7390735 -0.56202513
1.2149456 -1.8017585 -0.56296831
1.2512791 -1.8556411 -0.55999696
1.2960906 -1.9220964 -0.55962044
1.3459331 -1.9960124 -0.56000906
1.4040788 -2.0822425 -0.56224203
1.4613731 -2.1672094 -0.56241345
1.5190828 -2.2527926 -0.56103724
1.5864787 -2.3527405 -0.56138039
1.6621767 -2.4650004 -0.56253159
1.7297245 -2.5651734 -0.55879903
1.8189269 -2.6974602 -0.55973613
1.9137561 -2.8380914 -0.55966765
2.0189788 -2.9941361 -0.55966485
2.1377256 -3.1702371 -0.56008089
2.2653606 -3.359519 -0.55916357
2.4072652 -3.569963 -0.55776411
2.5687079 -3.809382 -0.55638516
2.7681551 -4.1051612 -0.55787277
2.986804 -4.4294167 -0.55701429
3.2433217 -4.8098307 -0.55615562
3.5602293 -5.2798033 -0.55712789
3.9263885 -5.8228159 -0.55565327
4.3769889 -6.4910541 -0.5539887
4.9629436 -7.3600221 -0.55404723
5.6971955 -8.4489145 -0.55103666
6.7048078 -9.9431992 -0.54857355
8.1516533 -12.088863 -0.54556185
10.393274 -15.413177 -0.5409115
14.308145 -21.21891 -0.53182536
22.986816 -34.08934 -0.51259667
1.1896063 -1.7182199 -0.5599708
1.2368984 -1.7865266 -0.56291872
1.2655467 -1.8279052 -0.55628097
1.3235068 -1.9116205 -0.5612663
1.3696959 -1.9783341 -0.5597322
1.428007 -2.0625563 -0.56162536
1.4779706 -2.1347218 -0.55865657
1.5339772 -2.2156153 -0.55643404
1.61458 -2.3320351 -0.5611347
1.6840398 -2.4323599 -0.55976611
1.762509 -2.5456975 -0.55923533
1.8540841 -2.6779652 -0.56037927
1.9604105 -2.8315384 -0.56308657
2.0505486 -2.9617305 -0.5582785
2.1685107 -3.1321101 -0.5580138
2.3012526 -3.3238375 -0.55789232
2.451987 -3.5415521 -0.55799377
2.6275349 -3.7951064 -0.55897683
2.8159308 -4.0672183 -0.5573799
3.0449846 -4.3980541 -0.55773675
3.3065426 -4.7758379 -0.55688429
3.6141777 -5.2201743 -0.55548328
3.9962163 -5.7719755 -0.55544895
4.4559336 -6.4359727 -0.55392218
5.0381999 -7.2769742 -0.55241746
5.7978601 -8.374198 -0.55077171
6.8267522 -9.8602886 -0.54858917
8.2939138 -11.979398 -0.54518306
10.574546 -15.273452 -0.54053032
14.562956 -21.034153 -0.53164268
23.370733 -33.755753 -0.51186317
1.2116003 -1.7048104 -0.56041372
1.2596623 -1.772437 -0.56331718
1.2934568 -1.8199885 -0.55866975
1.3417922 -1.888 -0.55913317
1.3928396 -1.9598272 -0.55929953
1.4569645 -2.0500557 -0.56305724
1.5097234 -2.1242914 -0.56074291
1.5695313 -2.2084455 -0.55943805
1.6455088 -2.3153512 -0.56194651
1.712468 -2.4095678 -0.55932462
1.7878343 -2.5156138 -0.55741382
1.8844098 -2.6515026 -0.55964833
1.9885104 -2.7979798 -0.5612331
2.0814166 -2.9287055 -0.55683571
2.1990387 -3.0942085 -0.55603671
2.3408425 -3.2937367 -0.55762917
2.4991059 -3.5164251 -0.55883437
2.6722076 -3.7599919 -0.55860233
2.8687987 -4.0366096 -0.55797744
3.0882494 -4.3453932 -0.55583227
3.3631463 -4.7321935 -0.55657524
3.6815686 -5.1802368 -0.55600876
4.0584068 -5.7104754 -0.55429113
4.529295 -6.3730502 -0.55325818
5.1192694 -7.2031865 -0.55155295
5.897831 -8.2986803 -0.55053312
6.9486642 -9.7772789 -0.54868317
8.4321022 -11.864585 -0.54463547
10.746203 -15.120694 -0.53975987
14.806691 -20.834099 -0.53114796
23.730867 -33.391068 -0.51071942
1.2387576 -1.6984044 -0.56327254
1.2760698 -1.7495614 -0.56099141
1.328174 -1.8209993 -0.56395072
1.3629925 -1.8687373 -0.55834985
1.4262443 -1.9554589 -0.56301528
1.4795307 -2.0285175 -0.562096
1.5405718 -2.1122084 -0.56251127
1.5996507 -2.1932087 -0.56051874
1.6636459 -2.2809494 -0.55851978
1.737165 -2.3817482 -0.55778325
1.8220588 -2.4981425 -0.55846477
1.9195572 -2.6318181 -0.56043315
2.0147672 -2.762356 -0.55901462
2.127646 -2.917119 -0.55956477
2.2561829 -3.0933504 -0.56082565
2.3847721 -3.2696531 -0.55847418
2.5384402 -3.4803405 -0.55801809
2.7144017 -3.7215931 -0.55781418
2.9065311 -3.985013 -0.55574352
3.1407518 -4.3061428 -0.55570966
3.4167395 -4.6845365 -0.55586952
3.7346714 -5.1204386 -0.55447763
4.1257067 -5.6565695 -0.55394113
4.6176229 -6.3310137 -0.55449623
5.2118325 -7.1457081 -0.55201721
5.9940042 -8.2181082 -0.55003595
7.0682979 -9.6910229 -0.5486787
8.5793734 -11.76279 -0.54476416
10.917135 -14.96799 -0.53906006
15.031149 -20.608528 -0.53006923
24.110748 -33.057156 -0.51010823
1.2449745 -1.663573 -0.55675584
1.3022245 -1.7400723 -0.56304061
1.3373584 -1.7870191 -0.55847794
1.3963054 -1.865786 -0.56255549
1.4554205 -1.9447774 -0.56504989
1.4972447 -2.0006642 -0.55943722
1.5627856 -2.0882421 -0.56120396
1.6236349 -2.1695507 -0.55953258
1.7016939 -2.2738554 -0.56186396
1.7704713 -2.3657579 -0.55909461
1.8571042 -2.4815195 -0.55981135
1.9482142 -2.6032631 -0.55941164
2.0505285 -2.7399788 -0.55954647
2.1602199 -2.8865516 -0.55875438
2.2771094 -3.0427432 -0.55668491
2.4239478 -3.2389531 -0.55827928
2.5823963 -3.4506767 -0.5583111
2.7531326 -3.6788197 -0.55643523
2.9671834 -3.9648411 -0.55797648
3.1940804 -4.2680278 -0.55581748
3.4780519 -4.6474791 -0.55650502
3.8034418 -5.0822749 -0.55536747
4.2054133 -5.6194015 -0.55532342
4.6828141 -6.2573195 -0.55304331
5.3013659 -7.083847 -0.5522325
6.097796 -8.1480618 -0.55032468
7.1714444 -9.5827026 -0.54749721
8.7107162 -11.639524 -0.54397494
11.096518 -14.827506 -0.53887403
15.266584 -20.399677 -0.52948582
24.4736 -32.702374 -0.5092389
1.27414 -1.6596085 -0.56063008
1.3165206 -1.7148105 -0.56006247
1.3611203 -1.7729032 -0.55925471
1.4059213 -1.8312579 -0.55731523
1.4744031 -1.9204577 -0.56320894
1.5227842 -1.9834757 -0.55982447
1.5813224 -2.0597236 -0.55872321
1.6603516 -2.1626616 -0.5629788
1.7352678 -2.2602422 -0.56373006
1.8038329 -2.3495505 -0.56046396
1.8952712 -2.4686518 -0.56212348
1.9779953 -2.5764027 -0.55882394
2.0818119 -2.7116272 -0.55894208
2.1955934 -2.8598313 -0.55876589
2.3221469 -3.0246713 -0.55856049
2.4645298 -3.2101297 -0.55849242
2.6210103 -3.4139504 -0.55754131
2.7930465 -3.6380334 -0.55541891
3.0101862 -3.9208648 -0.55695462
3.2471159 -4.2294731 -0.55595428
3.5237622 -4.5898142 -0.55474657
3.8638356 -5.0327706 -0.55510771
4.2697372 -5.561471 -0.55474508
4.7613153 -6.201767 -0.55326617
5.3800669 -7.0077105 -0.55141276
6.1918683 -8.0651083 -0.54982281
7.2943139 -9.5010796 -0.54791689
8.8534174 -11.531862 -0.54399002
11.278145 -14.690148 -0.53888136
15.504789 -20.195488 -0.52909458
24.834204 -32.347351 -0.50842732
1.3045287 -1.6566164 -0.56499547
1.3419374 -1.7041216 -0.56191826
1.3900284 -1.765192 -0.56217152
1.4345887 -1.821779 -0.55975676
1.4895837 -1.8916172 -0.56008023
1.5510025 -1.9696125 -0.56125218
1.6032059 -2.0359056 -0.55756778
1.6776406 -2.1304297 -0.55991608
1.7545468 -2.2280927 -0.56105018
1.8307664 -2.3248839 -0.55990767
1.9168295 -2.434175 -0.55959767
2.0071826 -2.548914 -0.55817282
2.1139579 -2.6845076 -0.55866784
2.2267611 -2.8277562 -0.55780661
2.3611894 -2.998466 -0.55904067
2.5081708 -3.1851172 -0.55946434
2.6656246 -3.3850672 -0.55813515
2.8372242 -3.6029811 -0.55535179
3.0496166 -3.8726974 -0.55539733
3.3088336 -4.2018762 -0.55763274
3.576654 -4.5419803 -0.55423892
3.9229333 -4.981719 -0.55475551
4.3326225 -5.5019822 -0.55408347
4.8235722 -6.1254373 -0.55170637
5.4704895 -6.9469547 -0.55188346
6.2908392 -7.9887142 -0.54984677
7.3993225 -9.3963737 -0.54708427
8.9914141 -11.418164 -0.54380101
11.444078 -14.532794 -0.53823054
15.74325 -19.992298 -0.52880293
25.187908 -31.986034 -0.50757802
1.3135986 -1.6265821 -0.56021875
1.3619747 -1.6864845 -0.56158245
1.4161272 -1.7535396 -0.56396359
1.4521946 -1.7982006 -0.55795658
1.4978083 -1.8546824 -0.55455571
1.5725181 -1.9471928 -0.56033123
1.6384348 -2.028815 -0.56110108
1.7077729 -2.1146739 -0.56125176
1.776127 -2.1993146 -0.55926079
1.8597673 -2.3028834 -0.56007433
1.9501714 -2.4148273 -0.56062031
2.0448318 -2.5320418 -0.55994195
2.1543334 -2.667634 -0.56062686
2.2672215 -2.8074193 -0.55925208
2.3864105 -2.9550066 -0.55636692
2.5445437 -3.1508174 -0.5588932
2.6957529 -3.3380542 -0.55580711
2.8956633 -3.5855961 -0.55811822
3.1013587 -3.8403013 -0.55617839
3.3510334 -4.1494651 -0.55610365
3.6409545 -4.5084634 -0.55557019
3.9859333 -4.9356384 -0.55504006
4.4030819 -5.452179 -0.55447853
4.9086699 -6.0782299 -0.55284911
5.5420322 -6.8625002 -0.55054635
6.3851223 -7.9064684 -0.54954839
7.5128074 -9.3028402 -0.54697585
9.1275215 -11.302282 -0.54358631
11.607313 -14.37292 -0.53755492
15.963317 -19.766804 -0.52799064
25.522017 -31.603001 -0.50644159
1.3400956 -1.6182737 -0.56299007
1.3730026 -1.6580116 -0.55768096
1.4354694 -1.7334452 -0.56313527
1.4929372 -1.8028421 -0.56505024
1.5412792 -1.861219 -0.5621345
1.6006261 -1.9328853 -0.56183535
1.6591921 -2.0036085 -0.55973005
1.7290298 -2.0879431 -0.55975765
1.8053207 -2.1800706 -0.5599699
1.8885227 -2.2805436 -0.56024665
1.9745617 -2.3844428 -0.55916083
2.0751784 -2.5059454 -0.5597716
2.1743593 -2.6257145 -0.55739397
2.2972496 -2.7741144 -0.55820256
2.4194205 -2.9216456 -0.55564511
2.5764785 -3.111306 -0.55746216
2.7519822 -3.3232408 -0.55893284
2.931062 -3.539494 -0.55651015
3.1522222 -3.8065629 -0.55686373
3.3972063 -4.1024013 -0.55535269
3.6973348 -4.4648304 -0.55575383
4.0483618 -4.8887239 -0.55532038
4.4588728 -5.384449 -0.55312467
4.9891267 -6.0247731 -0.55352509
5.6347528 -6.804419 -0.5514037
6.4790697 -7.8239999 -0.54931235
7.6254234 -9.2083149 -0.54688984
9.2607775 -11.183137 -0.54329175
11.784653 -14.23092 -0.53762311
16.191969 -19.55311 -0.52756107
25.879972 -31.252157 -0.50588071
1.3575389 -1.5989028 -0.56201595
1.3929361 -1.6405935 -0.55754137
1.4512893 -1.7093216 -0.5610534
1.50599 -1.7737479 -0.56169307
1.5614307 -1.8390456 -0.561194
1.6176001 -1.9052016 -0.55952787
1.6868263 -1.9867361 -0.56076866
1.7578794 -2.0704219 -0.56081301
1.82946 -2.1547291 -0.55919677
1.9212537 -2.2628434 -0.56165957
2.0071712 -2.3640368 -0.56012106
2.1149788 -2.4910121 -0.56220263
2.2124696 -2.6058359 -0.55890715
2.3310292 -2.7454748 -0.55816513
2.465765 -2.9041662 -0.55804503
2.6192997 -3.0849986 -0.55847722
2.7966399 -3.293869 -0.55973434
2.9714165 -3.4997201 -0.5559594
3.206733 -3.7768748 -0.55824691
3.4554198 -4.069777 -0.55664611
3.7519507 -4.4190297 -0.55575353
4.0970192 -4.8254495 -0.55381364
4.5317287 -5.3374486 -0.55397892
5.0540261 -5.9526076 -0.55256283
5.7154179 -6.7315922 -0.55115557
6.5764832 -7.7457504 -0.54945463
7.7314095 -9.1060171 -0.5464192
9.3761368 -11.043169 -0.54205203
11.951776 -14.076744 -0.53731006
16.41667 -19.335476 -0.52709579
26.216209 -30.877327 -0.50499332
1.3729903 -1.5773737 -0.56034046
1.4224604 -1.634208 -0.5612731
1.4711188 -1.6901097 -0.5606426
1.5169439 -1.7427564 -0.55774367
1.5841999 -1.8200241 -0.56129152
1.6460462 -1.8910768 -0.56128156
1.7050632 -1.9588792 -0.5587815
