# .PCD v0.7 - Point Cloud Data file format
VERSION 0.7
FIELDS x y z
SIZE 4 4 4
TYPE F F F
COUNT 1 1 1
WIDTH 1459
HEIGHT 1
VIEWPOINT 0 0 0 1 0 0 0
POINTS 1459
DATA ascii
-0.75464863 3.0462456 -0.56682801
-0.78912991 3.1854343 -0.56460464
-0.83339906 3.3641329 -0.56666249
-0.87429744 3.5292249 -0.56348628
-0.93085021 3.7575083 -0.56703055
-0.9843123 3.9733152 -0.56488788
-1.0526805 4.2492933 -0.56708878
-1.1202971 4.5222373 -0.56418538
-1.2109699 4.8882508 -0.56742173
-1.3072405 5.2768607 -0.5668171
-1.4203231 5.7333345 -0.56626707
-1.5598897 6.2967148 -0.56754285
-1.723384 6.9566827 -0.56704891
-1.9327171 7.8016849 -0.5687502
-2.187381 8.8296719 -0.56775343
-2.5250525 10.192731 -0.56782907
-2.9986169 12.104341 -0.57042348
-3.6760037 14.838707 -0.57200795
-4.7475715 19.164242 -0.57447767
-6.6937504 27.020267 -0.57847303
-11.362014 45.864368 -0.5890879
-0.52847922 2.0262086 -0.5610832
-0.55044895 2.1104414 -0.56502277
-0.56475043 2.1652739 -0.55989915
-0.59412456 2.2778952 -0.5682736
-0.61338311 2.3517334 -0.56536013
-0.63432294 2.4320173 -0.56268328
-0.66225296 2.5391021 -0.56459922
-0.69264925 2.6556427 -0.56668985
-0.71992493 2.7602186 -0.56432849
-0.75398487 2.8908057 -0.56526762
-0.78905821 3.0252779 -0.56468922
-0.83096582 3.1859534 -0.5664649
-0.87169564 3.342113 -0.56471622
-0.92216492 3.535614 -0.56627405
-0.97594351 3.7418032 -0.56642872
-1.0323757 3.9581664 -0.56449628
-1.1042924 4.2338972 -0.56680346
-1.1799902 4.5241256 -0.5661884
-1.2702801 4.8703003 -0.56710833
-1.3717626 5.2593884 -0.56670934
-1.4947387 5.7308831 -0.56779736
-1.6353593 6.2700272 -0.56690711
-1.8137981 6.9541678 -0.56861889
-2.0260043 7.7677746 -0.56805134
-2.2975168 8.8087635 -0.56818259
-2.6590154 10.194762 -0.56972069
-3.149858 12.076671 -0.57090163
-3.8595538 14.79767 -0.57221228
-4.9867568 19.119408 -0.5749284
-7.0370965 26.980486 -0.57943004
-11.947824 45.808392 -0.59021133
-0.55699831 2.0328631 -0.56477982
-0.57706481 2.1060996 -0.56571734
-0.59424394 2.1687977 -0.5626573
-0.61976397 2.2619374 -0.56615096
-0.64119381 2.3401494 -0.56442809
-0.66359997 2.4219246 -0.56219363
-0.69322747 2.5300555 -0.56444037
-0.72134101 2.6326609 -0.56363589
-0.75775856 2.765573 -0.56728536
-0.7899496 2.88306 -0.56560969
-0.83036327 3.0305569 -0.56753755
-0.87254936 3.1845224 -0.56807518
-0.91580969 3.3424084 -0.56662613
-0.96575928 3.5247083 -0.56638652
-1.0225282 3.7318964 -0.56678957
-1.0857567 3.9626598 -0.5669983
-1.1532277 4.2089071 -0.56531364
-1.2375811 4.5167699 -0.56712943
-1.3230971 4.8288755 -0.56413656
-1.4379649 5.2481055 -0.56735593
-1.5626521 5.7031736 -0.56691295
-1.7131389 6.2524018 -0.56717521
-1.8975655 6.9254985 -0.56813961
-2.1238265 7.7512784 -0.56871182
-2.4104304 8.7972898 -0.56931132
-2.7865603 10.170041 -0.57021093
-3.2986531 12.039014 -0.57099581
-4.0444393 14.760893 -0.57266992
-5.2232132 19.063034 -0.57512105
-7.3793664 26.932295 -0.58029997
-12.536153 45.752892 -0.59143764
-0.58658504 2.0419915 -0.56927681
-0.60273033 2.0981958 -0.56554228
-0.62302327 2.1688385 -0.56461269
-0.64337963 2.239702 -0.56252319
-0.67481637 2.3491383 -0.56855452
-0.69582856 2.4222848 -0.56422067
-0.7253561 2.5250747 -0.56527632
-0.75918669 2.642844 -0.56777173
-0.78963888 2.7488527 -0.56580454
-0.82210267 2.8618641 -0.56339198
-0.86496985 3.0110912 -0.5658412
-0.91017121 3.1684442 -0.56716067
-0.95252198 3.3158734 -0.5640707
-1.0055695 3.50054 -0.56444716
-1.0692856 3.7223454 -0.56729305
-1.1299566 3.9335504 -0.56477863
-1.2026899 4.1867461 -0.56428075
-1.2904694 4.4923201 -0.5660091
-1.3879358 4.831615 -0.56640756
-1.5026895 5.2310901 -0.56747109
-1.6322845 5.68223 -0.56678337
-1.7881625 6.224865 -0.56662905
-1.9802115 6.8934164 -0.56746238
-2.2193117 7.7257605 -0.56879878
-2.5174823 8.7637377 -0.56910032
-2.9116457 10.13588 -0.57025981
-3.4473352 12.000697 -0.57114583
-4.2304902 14.726978 -0.57332903
-5.4684234 19.036411 -0.57630295
-7.7151313 26.857542 -0.58068949
-13.129248 45.704903 -0.59285945
-0.60973442 2.028259 -0.5674957
-0.62608808 2.082659 -0.56338704
-0.65197217 2.1687613 -0.5666368
-0.6754902 2.2469931 -0.56639779
-0.70678061 2.3510797 -0.57108468
-0.7265777 2.416934 -0.56501263
-0.75904965 2.5249507 -0.56729513
-0.78928781 2.6255367 -0.56609577
-0.82214111 2.734822 -0.56495476
-0.86121774 2.864809 -0.56601369
-0.8992998 2.9914875 -0.56419271
-0.94955337 3.1586542 -0.56745541
-0.99402982 3.3066034 -0.56453037
-1.0544649 3.5076387 -0.56763965
-1.1158268 3.7117567 -0.56772751
-1.1735032 3.903615 -0.56250978
-1.2565482 4.1798611 -0.56539249
-1.3456875 4.4763799 -0.56604284
-1.4469349 4.8131757 -0.56628889
-1.565066 5.2061338 -0.5668087
-1.7016803 5.6605768 -0.56666785
-1.8699353 6.2202706 -0.56826091
-2.0677845 6.8784089 -0.56827712
-2.3145216 7.6991706 -0.56889349
-2.6257615 8.734499 -0.56925523
-3.0392756 10.110038 -0.57086539
-3.6028159 11.984634 -0.57244653
-4.4086452 14.665195 -0.57299089
-5.7038026 18.97349 -0.57647777
-8.0547962 26.793982 -0.58141279
-13.71559 45.624401 -0.59395802
-0.62708688 1.9966018 -0.56075329
-0.65545928 2.0869377 -0.56668192
-0.67522705 2.1498768 -0.56382954
-0.70373511 2.2406447 -0.5669359
-0.73194981 2.3304782 -0.56822383
-0.7587254 2.41573 -0.56686938
-0.7870965 2.5060616 -0.56518304
-0.82138616 2.6152375 -0.56601006
-0.85790277 2.7315037 -0.56640565
-0.89478171 2.8489239 -0.56500638
-0.9349643 2.9768627 -0.56356013
-0.98649198 3.140923 -0.56640643
-1.0394301 3.3094749 -0.56715983
-1.0981171 3.49633 -0.5679518
-1.1572706 3.6846704 -0.56571835
-1.2312655 3.9202654 -0.56704795
-1.3156352 4.1888928 -0.5687595
-1.3999186 4.4572449 -0.56575716
-1.5069352 4.7979794 -0.56663829
-1.6327406 5.198535 -0.56812429
-1.775677 5.6536341 -0.56811571
-1.9445754 6.1913958 -0.56776452
-2.151428 6.8499999 -0.56807274
-2.4057741 7.6598206 -0.56812882
-2.7351155 8.7084208 -0.56970453
-3.1664748 10.081841 -0.57142854
-3.7500589 11.939932 -0.57247061
-4.5915174 14.619079 -0.57335168
-5.9347916 18.895971 -0.57629627
-8.3967733 26.734753 -0.58232397
-14.300157 45.530724 -0.59498268
-0.65659982 2.004035 -0.5650658
-0.68219614 2.0821586 -0.56761914
-0.70551515 2.1533313 -0.56696784
-0.73161077 2.2329788 -0.56722969
-0.75714856 2.3109238 -0.56568325
-0.78939956 2.4093585 -0.56760913
-0.81704181 2.4937265 -0.56462425
-0.85371155 2.6056476 -0.56616378
-0.88678664 2.7065973 -0.56345958
-0.92837799 2.8335402 -0.5641768
-0.97660816 2.9807453 -0.56652582
-1.0224327 3.1206081 -0.56496745
-1.0748615 3.2806284 -0.5644387
-1.1415766 3.4842525 -0.56822723
-1.2016954 3.6677434 -0.56534547
-1.2805963 3.9085596 -0.56758958
-1.3622974 4.1579232 -0.56678617
-1.4584754 4.4514718 -0.56725788
-1.5664473 4.7810173 -0.56686705
-1.6960851 5.1766901 -0.56797326
-1.8423909 5.6232362 -0.56729478
-2.0206401 6.1672778 -0.56778848
-2.2390554 6.8339114 -0.56897879
-2.5017059 7.6355581 -0.56856793
-2.8422391 8.6749134 -0.56975579
-3.289108 10.03882 -0.57123941
-3.8970804 11.894438 -0.57254362
-4.7791638 14.58668 -0.57434243
-6.179678 18.861246 -0.57751101
-8.7350588 26.660627 -0.58300495
-14.897305 45.46867 -0.59652048
-0.68628281 2.0107291 -0.56928962
-0.70593405 2.0683048 -0.56616604
-0.72810024 2.1332493 -0.56399494
-0.75500697 2.2120829 -0.56423724
-0.7824313 2.2924328 -0.56346947
-0.81647396 2.392174 -0.56588316
-0.85015416 2.4908531 -0.56629777
-0.88799083 2.6017101 -0.5676378
-0.92719525 2.7165744 -0.56786716
-0.96651047 2.8317635 -0.56614655
-1.0132846 2.9688063 -0.56658196
-1.0634388 3.1157522 -0.56641293
-1.1248331 3.2956305 -0.5693565
-1.1810234 3.4602613 -0.5666402
-1.250562 3.6640015 -0.56709605
-1.3275146 3.8894637 -0.56714416
-1.4134423 4.141222 -0.56683588
-1.5190518 4.4506454 -0.56948978
-1.6274068 4.7681131 -0.56766677
-1.7616808 5.1615205 -0.56864262
-1.9122541 5.6026826 -0.56755048
-2.0979528 6.1467586 -0.56823146
-2.3187063 6.79354 -0.56794846
-2.599797 7.6171036 -0.56953114
-2.9535463 8.6535473 -0.57069468
-3.4117799 9.9961185 -0.57115364
-4.0412264 11.840324 -0.57228756
-4.9582281 14.527033 -0.57435101
-6.4179287 18.803787 -0.57812434
-9.0735521 26.584454 -0.58373493
-15.490253 45.384647 -0.59787184
-0.71060252 2.0011492 -0.56900823
-0.73128045 2.0593808 -0.56614196
-0.75637853 2.1300604 -0.56556809
-0.78350163 2.2064426 -0.56521326
-0.81198758 2.2866626 -0.56446266
-0.84489495 2.379334 -0.56526065
-0.88256806 2.4854267 -0.56748849
-0.91836262 2.5862286 -0.56668109
-0.95622265 2.6928473 -0.56532246
-1.0000886 2.8163795 -0.56548673
-1.0482856 2.9521086 -0.56581253
-1.1001185 3.0980768 -0.56561613
-1.1571728 3.258749 -0.56540036
-1.2248863 3.4494393 -0.56729156
-1.2923387 3.6393938 -0.56570423
-1.3738419 3.8689175 -0.56656867
-1.462335 4.1181259 -0.56609303
-1.5676925 4.4148259 -0.56733018
-1.6856964 4.7471404 -0.56759477
-1.8250182 5.1394887 -0.56864476
-1.9855593 5.5915933 -0.56885743
-2.172482 6.1179919 -0.56799871
-2.410156 6.7873125 -0.56986237
-2.6963177 7.5931811 -0.57017839
-3.0554626 8.6045809 -0.56990004
-3.5348699 9.9546528 -0.57122475
-4.191093 11.802663 -0.57291484
-5.1400361 14.475011 -0.57474965
-6.6558838 18.743834 -0.57875365
-9.4083338 26.49509 -0.58426881
-16.073177 45.26416 -0.59884304
-0.72869241 1.9747497 -0.56400698
-0.75553048 2.0474806 -0.56538177
-0.78291363 2.1216886 -0.56585866
-0.80552405 2.1829627 -0.56169349
-0.84254539 2.2832901 -0.56614482
-0.8759371 2.3737814 -0.56645757
-0.91032267 2.4669662 -0.56578654
-0.94521731 2.5615301 -0.56377339
-0.9904595 2.6841362 -0.56600773
-1.0353941 2.8059084 -0.56589788
-1.0892538 2.9518678 -0.56829053
-1.1404165 3.0905182 -0.56675351
-1.1998943 3.2517025 -0.56669486
-1.2667875 3.4329824 -0.56710404
-1.3399472 3.6312447 -0.56695575
-1.4189422 3.8453202 -0.56562537
-1.5171001 4.1113272 -0.56767994
-1.6207435 4.3922 -0.56694078
-1.7431656 4.7239628 -0.56734347
-1.8850541 5.1084795 -0.56773555
-2.0513406 5.559114 -0.56807637
-2.2495697 6.096313 -0.56851119
-2.4911737 6.7510581 -0.56934732
-2.7924986 7.5676455 -0.57079619
-3.1658497 8.5794239 -0.57076907
-3.663053 9.9268398 -0.57217014
-4.3372641 11.753945 -0.57309556
-5.3223891 14.423626 -0.57526451
-6.8850408 18.658398 -0.578686
-9.7444925 26.407484 -0.58493501
-16.662062 45.154034 -0.60005128
-0.74932247 1.9562541 -0.56131363
-0.7787599 2.0331063 -0.56401408
-0.80615819 2.1046348 -0.5639115
-0.83477223 2.1793375 -0.56335932
-0.873824 2.2812898 -0.56827009
-0.91009408 2.3759801 -0.5696097
-0.9387849 2.4508832 -0.56470281
-0.98335046 2.5672302 -0.56764632
-1.0242902 2.6741118 -0.56650704
-1.0711399 2.796422 -0.56659812
-1.1234493 2.932986 -0.56727213
-1.178498 3.0767014 -0.56683439
-1.2348617 3.2238503 -0.56444448
-1.3061194 3.4098825 -0.56589836
-1.3800786 3.602967 -0.56514758
-1.470331 3.838589 -0.56725186
-1.5644023 4.0841808 -0.56654489
-1.6743028 4.3710976 -0.56683159
-1.8038979 4.7094312 -0.56821924
-1.9484792 5.0868893 -0.56795591
-2.1252298 5.5483317 -0.56960195
-2.3277433 6.0770326 -0.56933939
-2.5770013 6.7277703 -0.57001263
-2.8819444 7.5238843 -0.57012528
-3.2747507 8.5493822 -0.57140625
-3.779959 9.8683281 -0.57143348
-4.4874673 11.715419 -0.57386416
-5.506134 14.374848 -0.57597589
-7.1176443 18.582014 -0.57898772
-10.077948 26.310469 -0.58548677
-17.25503 45.047661 -0.60141182
-0.77839541 1.9596732 -0.56499833
-0.80258483 2.0205719 -0.56323206
-0.83546817 2.1033583 -0.56627929
-0.86463386 2.1767852 -0.56540513
-0.89916432 2.2637186 -0.56660444
-0.93104422 2.3439786 -0.56463975
-0.97058111 2.443516 -0.56571245
-1.0150721 2.5555255 -0.56777525
-1.053928 2.6533484 -0.56481111
-1.1046557 2.7810597 -0.56619489
-1.1507031 2.8969874 -0.56300372
-1.2140929 3.0565765 -0.56583434
-1.2821496 3.2279146 -0.56787348
-1.347461 3.3923414 -0.56569427
-1.43007 3.6003165 -0.56744719
-1.5160245 3.8167136 -0.56673115
-1.6136931 4.062602 -0.56626129
-1.7299129 4.355195 -0.56748492
-1.8573864 4.6761193 -0.56691289
-2.0112371 5.0634513 -0.56805736
-2.1885021 5.5097303 -0.56835884
-2.393292 6.0253053 -0.56720746
-2.6567338 6.6885409 -0.56941372
-2.9718771 7.4819403 -0.569673
-3.3758168 8.4988909 -0.57076281
-3.9068012 9.8356867 -0.5722819
-4.6327033 11.663203 -0.57405347
-5.6849899 14.31242 -0.57623196
-7.3634458 18.538067 -0.5803957
-10.416589 26.224602 -0.58638191
-17.839987 44.913601 -0.60250527
-0.79769284 1.9384382 -0.5616616
-0.83673388 2.0333102 -0.56960779
-0.85935098 2.0882709 -0.56501955
-0.89434528 2.1733091 -0.56731576
-0.93240201 2.265789 -0.56994933
-0.96434319 2.3434079 -0.56731582
-0.99806184 2.4253461 -0.56430447
-1.0457094 2.5411322 -0.56739134
-1.0892408 2.6469162 -0.56625021
-1.1410277 2.7727611 -0.56731898
-1.1968429 2.9083953 -0.56803793
-1.2601156 3.0621514 -0.56969178
-1.3229665 3.2148824 -0.56839979
-1.3920861 3.3828473 -0.56692272
-1.4741937 3.5823729 -0.5674333
-1.5648655 3.8027105 -0.5674662
-1.6681752 4.0537591 -0.56784493
-1.7825834 4.3317771 -0.56724679
-1.9185526 4.6621904 -0.56804132
-2.0710452 5.0327554 -0.56742781
-2.2607453 5.4937377 -0.56953371
-2.4765191 6.0180798 -0.56935096
-2.7393589 6.656795 -0.56953573
-3.0672038 7.4534764 -0.57033432
-3.4830976 8.4641218 -0.57126099
-4.0294204 9.7917166 -0.57256311
-4.779994 11.615653 -0.57456261
-5.8617449 14.244368 -0.57635045
-7.5917439 18.448362 -0.58046597
-10.75224 26.128546 -0.58714604
-18.426571 44.777599 -0.60367465
-0.82920295 1.9466454 -0.5669511
-0.85373896 2.0042465 -0.56436414
-0.88767946 2.0839252 -0.56675428
-0.91681641 2.1523275 -0.56473899
-0.954561 2.240937 -0.56660765
-0.99325925 2.3317857 -0.56741607
-1.0323465 2.4235473 -0.56679666
-1.0704957 2.5131068 -0.56403023
-1.1201594 2.6296976 -0.56547052
-1.1725396 2.752666 -0.56611466
-1.2300338 2.8876398 -0.56689537
-1.2934767 3.0365791 -0.56785029
-1.3573551 3.1865406 -0.56629705
-1.4303657 3.3579412 -0.56565356
-1.5136038 3.5533519 -0.56574172
-1.6164838 3.794874 -0.56921989
-1.714904 4.0259261 -0.56685716
-1.8327738 4.3026385 -0.56633943
-1.9786215 4.6450319 -0.56887215
-2.1381748 5.0196009 -0.56886601
-2.3240135 5.4558778 -0.56852835
-2.5478275 5.9813061 -0.56879288
-2.8192019 6.6183872 -0.56917256
-3.1588552 7.415761 -0.57037747
-3.5824499 8.4101963 -0.5705514
-4.1571903 9.7594624 -0.57362282
-4.9210415 11.552688 -0.5743978
-6.0409946 14.1819 -0.57678497
-7.8242154 18.368208 -0.58092731
-11.086647 26.027124 -0.58788604
-19.016548 44.643444 -0.60497284
-0.84895992 1.9269617 -0.56421602
-0.88627785 2.0116653 -0.56947893
-0.91107887 2.0679586 -0.56541598
-0.95008779 2.1565006 -0.5688563
-0.97989744 2.2241623 -0.56537008
-1.0151443 2.3041654 -0.56368989
-1.0557542 2.3963416 -0.56342751
-1.1074508 2.5136819 -0.56717277
-1.152033 2.6148739 -0.5652864
-1.2105812 2.7477663 -0.56812543
-1.2700466 2.8827405 -0.56895643
-1.3291321 3.0168519 -0.56717467
-1.3987933 3.1749687 -0.56725436
-1.4776446 3.3539443 -0.56799811
-1.5617661 3.5448828 -0.56740803
-1.6579556 3.7632127 -0.56748593
-1.7652351 4.0067143 -0.56716555
-1.8890023 4.2876406 -0.56737983
-2.034452 4.6177807 -0.56855547
-2.1948931 4.9819489 -0.56761473
-2.3894696 5.4235969 -0.56818336
-2.6169803 5.9399981 -0.56788188
-2.907546 6.5995216 -0.57058167
-3.2543821 7.3867674 -0.57118219
-3.6935525 8.3835917 -0.5717845
-4.2701263 9.6922941 -0.57271785
-5.0676179 11.502434 -0.57495391
-6.2182713 14.114176 -0.5770967
-8.057435 18.288694 -0.58150208
-11.417584 25.915529 -0.58849204
-19.599922 44.487728 -0.6060828
-0.87026417 1.9112722 -0.56271291
-0.90660143 1.991076 -0.56676334
-0.93456769 2.0524955 -0.56428748
-0.96925402 2.1286736 -0.5646171
-1.0024261 2.2015262 -0.56270683
-1.0484999 2.3027132 -0.56644589
-1.0990025 2.4136267 -0.57062584
-1.1317937 2.4856429 -0.56394374
-1.1856838 2.603996 -0.56604385
-1.2348926 2.7120683 -0.56384158
-1.3042027 2.8642869 -0.56843656
-1.3655533 2.9990249 -0.56693715
-1.4412246 3.1652141 -0.56863487
-1.5126197 3.3220119 -0.56569749
-1.5990908 3.5119197 -0.56523645
-1.7039738 3.7422633 -0.56744355
-1.8222271 4.0019708 -0.56962281
-1.9415863 4.2641072 -0.56738216
-2.0930872 4.5968332 -0.56910223
-2.2596028 4.9625344 -0.56852543
-2.4597166 5.4020238 -0.56904888
-2.6967568 5.9226108 -0.56934685
-2.9884031 6.5631242 -0.57056874
-3.3455017 7.347383 -0.57127458
-3.7998347 8.3451881 -0.57230878
-4.3943295 9.6508169 -0.57341647
-5.2085314 11.438965 -0.57493937
-6.3970308 14.049145 -0.57761031
-8.2848167 18.195095 -0.58172119
-11.748155 25.80127 -0.58913332
-20.198191 44.359219 -0.60766983
-0.89661181 1.9066224 -0.56454724
-0.93028188 1.9782209 -0.5663175
-0.96021008 2.0418625 -0.56456763
-0.99615782 2.1183045 -0.56507307
-1.0356761 2.2023392 -0.56612694
-1.0805264 2.2977121 -0.56844109
-1.1227986 2.3876028 -0.56769454
-1.1633908 2.4739211 -0.56448722
-1.2238684 2.6025252 -0.56895244
-1.2789797 2.719718 -0.56865859
-1.3383659 2.8460011 -0.56803071
-1.3970305 2.9707499 -0.56479681
-1.4722129 3.1306236 -0.56563008
-1.5558503 3.3084762 -0.56660753
-1.6420329 3.4917414 -0.5651958
-1.7549863 3.7319341 -0.56910652
-1.8652755 3.9664614 -0.56779021
-1.9954925 4.2433643 -0.56784415
-2.1471963 4.5659585 -0.56850564
-2.3243818 4.942739 -0.569489
-2.5202215 5.3591876 -0.56775808
-2.7673259 5.8846483 -0.56892562
-3.0639729 6.515461 -0.56965744
-3.4347777 7.3039684 -0.57113975
-3.9017723 8.29702 -0.57225245
-4.5103531 9.5911522 -0.57312346
-5.356308 11.390054 -0.57574791
-6.577405 13.986686 -0.5783239
-8.5115347 18.099564 -0.58196908
-12.076304 25.679956 -0.5897094
-20.777456 44.182735 -0.60870606
-0.92509502 1.905978 -0.56768179
-0.95089281 1.9591295 -0.56415671
-0.98427808 2.0279131 -0.56401455
-1.0233308 2.1083739 -0.56573796
-1.0623776 2.188822 -0.56596756
-1.1113213 2.2896609 -0.56978697
-1.1475365 2.3642752 -0.56546032
-1.1997888 2.471931 -0.56735659
-1.2542392 2.5841153 -0.5682565
-1.3127201 2.7046039 -0.56883049
-1.3655772 2.8135056 -0.56485373
-1.4362251 2.9590619 -0.56588948
-1.513751 3.1187892 -0.5668121
-1.5967935 3.2898819 -0.5667429
-1.6925532 3.4871759 -0.5677827
-1.79439 3.696991 -0.56709969
-1.9122264 3.93977 -0.56729245
-2.0479791 4.2194619 -0.56797254
-2.2057569 4.5445323 -0.56917197
-2.3867733 4.9174814 -0.56991726
-2.5934834 5.3433671 -0.56941754
-2.8435814 5.8586454 -0.56974912
-3.1477156 6.4852548 -0.57035744
-3.5319664 7.2769289 -0.57237816
-4.0052853 8.2521095 -0.57250851
-4.6323929 9.5441427 -0.5736748
-5.4940782 11.319477 -0.57555181
-6.7560635 13.919553 -0.57893932
-8.7449026 18.017168 -0.58273327
-12.412927 25.574417 -0.59074622
-21.362049 44.012341 -0.60993129
-0.9450953 1.8877386 -0.56566787
-0.97726387 1.9519922 -0.56551909
-1.0191385 2.0356328 -0.56960392
-1.0493206 2.0959187 -0.56581533
-1.0910413 2.1792517 -0.56691909
-1.1329682 2.2629967 -0.56657559
-1.1759088 2.3487666 -0.56516665
-1.2209717 2.4387755 -0.56315011
-1.2796074 2.5558949 -0.56546801
-1.3394701 2.6754649 -0.56612331
-1.4040257 2.8044086 -0.5664506
-1.4833519 2.9628553 -0.57006007
-1.5571917 3.1103432 -0.56871414
-1.645291 3.2863133 -0.5695703
-1.7360787 3.467653 -0.56803691
-1.8420795 3.6793795 -0.56782985
-1.9629019 3.920711 -0.56798071
-2.1046302 4.2038002 -0.56930488
-2.263732 4.5215902 -0.56974179
-2.4444137 4.8824854 -0.5693019
-2.6593902 5.3118806 -0.5695039
-2.9169652 5.8263621 -0.57005465
-3.2353947 6.4623952 -0.57180268
-3.6142678 7.2191582 -0.57128668
-4.1033688 8.1960907 -0.57207942
-4.7502489 9.4881725 -0.57377815
-5.636795 11.258965 -0.57595569
-6.9201727 13.822391 -0.5783937
-8.9710627 17.91885 -0.58307713
-12.735322 25.437601 -0.59115857
-21.946156 43.835369 -0.61117238
-0.96722698 1.874023 -0.56507915
-1.0016177 1.9406558 -0.56576025
-1.0361274 2.007519 -0.56525958
-1.0770248 2.0867589 -0.56687492
-1.1140584 2.1585121 -0.56504476
-1.1563267 2.2404077 -0.56443721
-1.2015114 2.3279541 -0.56367111
-1.2611521 2.4435093 -0.56778127
-1.319718 2.5569818 -0.56925577
-1.3769866 2.6679411 -0.56807119
-1.4353747 2.7810693 -0.56525874
-1.5146515 2.93467 -0.56817758
-1.5899041 3.0804732 -0.56678432
-1.6771754 3.2495632 -0.56673247
-1.7699279 3.4292731 -0.56527227
-1.8949575 3.6715207 -0.57016993
-2.0181365 3.9101827 -0.57000738
-2.1503477 4.1663451 -0.56777048
-2.3197553 4.4945755 -0.56988901
-2.5078597 4.8590322 -0.57011986
-2.7281487 5.2858462 -0.57026625
-2.9896834 5.7925754 -0.57030267
-3.3118608 6.4168015 -0.57132864
-3.7062461 7.1809316 -0.57182485
-4.2126961 8.1621895 -0.57328546
-4.8706999 9.4370861 -0.57426721
-5.7758508 11.190835 -0.57606012
-7.0960526 13.748754 -0.57891983
-9.1970406 17.819462 -0.58347893
-13.066015 25.315683 -0.59201431
-22.529465 43.651321 -0.61242253
-0.99266541 1.8666323 -0.56648839
-1.0192413 1.9166063 -0.56236035
-1.0594171 1.992154 -0.56455857
-1.1033131 2.074697 -0.56724089
-1.1437445 2.1507251 -0.56664509
-1.1942577 2.2457113 -0.56943011
-1.2365292 2.3251998 -0.566643
-1.2841898 2.4148219 -0.56474191
-1.3434815 2.5263155 -0.56606358
-1.4060116 2.6438985 -0.56659031
-1.4651548 2.7551129 -0.56360227
-1.5496031 2.9139116 -0.56780487
-1.6213264 3.0487819 -0.56457889
-1.7246138 3.243006 -0.56924427
-1.8184772 3.4195089 -0.5673058
-1.9280373 3.6255286 -0.56666648
-2.0589838 3.8717635 -0.56805462
-2.206867 4.149847 -0.56917721
-2.3700485 4.4566975 -0.5687384
-2.5601301 4.8141313 -0.56850225
-2.7871802 5.2410817 -0.56909126
-3.0553656 5.7453842 -0.56931239
-3.3839149 6.3631964 -0.57021755
-3.8009248 7.1473517 -0.57282937
-4.3141098 8.1123571 -0.57346803
-4.9902058 9.3837051 -0.57470948
-5.9197373 11.131619 -0.57671541
-7.2678623 13.666666 -0.57918262
-9.4313545 17.734951 -0.58446485
-13.388358 25.175795 -0.59254807
-23.107651 43.45219 -0.61356884
-1.0140295 1.8515249 -0.56564492
-1.049673 1.9166067 -0.56610483
-1.0881515 1.9868648 -0.5668087
-1.1291676 2.0617564 -0.56745613
-1.162971 2.1234784 -0.56319165
-1.2086467 2.2068779 -0.56330925
-1.2565246 2.2942984 -0.56283522
-1.3182877 2.4070725 -0.56667775
-1.3715928 2.5044026 -0.56488997
-1.4328936 2.6163323 -0.56441605
-1.5065429 2.7508092 -0.56646866
-1.5889921 2.9013538 -0.5691222
-1.6623291 3.0352604 -0.56581742
-1.7598629 3.2133482 -0.56779402
-1.8638822 3.4032781 -0.56837243
-1.9772612 3.6102977 -0.56804311
-2.1047561 3.8430915 -0.56760228
-2.2482569 4.1051106 -0.56679028
-2.4304085 4.4377031 -0.57008517
-2.616184 4.7769117 -0.56786305
-2.8533907 5.2100301 -0.56948632
-3.1324196 5.719511 -0.57052225
-3.469306 6.3346343 -0.57143772
-3.8841319 7.0920687 -0.57218325
-4.4131079 8.0579309 -0.57341325
-5.1068678 9.3246727 -0.57489651
-6.0586953 11.062622 -0.57695687
-7.444448 13.592879 -0.5798912
-9.6508837 17.621628 -0.58459699
-13.724155 25.05905 -0.59372735
-23.687929 43.251984 -0.61480838
-1.037097 1.8395884 -0.56585145
-1.0740241 1.9050894 -0.56656098
-1.103358 1.9571215 -0.56215155
-1.150684 2.0410676 -0.56561351
-1.2070162 2.1409888 -0.57172894
-1.2460907 2.2102985 -0.5680505
-1.2902482 2.2886245 -0.56529266
-1.3474847 2.3901501 -0.5665518
-1.4075713 2.4967308 -0.56702071
-1.4707408 2.6087799 -0.56664538
-1.5489601 2.7475243 -0.56967145
-1.6220357 2.8771448 -0.56824285
-1.710906 3.0347819 -0.56960696
-1.8018229 3.1960487 -0.56860918
-1.8965435 3.3640628 -0.5656752
-2.0209739 3.5847759 -0.56789464
-2.1591775 3.8299196 -0.56953508
-2.3022611 4.0837193 -0.56770259
-2.483515 4.4052253 -0.56979299
-2.6801012 4.7539268 -0.56900531
-2.9184697 5.1767416 -0.56972724
-3.1985991 5.6736312 -0.56982595
-3.5477157 6.2928896 -0.57156402
-3.9660904 7.034997 -0.5714702
-4.512012 8.0033455 -0.5734337
-5.2201076 9.2593555 -0.57478356
-6.1948404 10.988323 -0.57701111
-7.6169758 13.510887 -0.58034515
-9.8785505 17.522438 -0.58529192
-14.03168 24.889202 -0.5937463
-24.270981 43.051537 -0.61615479
-1.0611342 1.8292783 -0.56665087
-1.0959753 1.8893403 -0.56584245
-1.1339624 1.954826 -0.5654546
-1.1848238 2.0425055 -0.57000625
-1.2250687 2.1118832 -0.56793636
-1.2745948 2.1972606 -0.56868476
-1.322024 2.2790234 -0.56689364
-1.3818963 2.3822365 -0.56866086
-1.4360416 2.4755771 -0.56618404
-1.4962833 2.5794272 -0.56422353
-1.574275 2.7138765 -0.56666571
-1.6528234 2.8492851 -0.56671166
-1.7424378 3.0037704 -0.56776494
-1.8385118 3.1693914 -0.5678457
-1.9459481 3.3545997 -0.56806457
-2.0632267 3.5567751 -0.56743503
-2.2000802 3.7926953 -0.56797969
-2.3586214 4.0660028 -0.56922847
-2.5360637 4.3718939 -0.56947225
-2.7402017 4.7238054 -0.56938994
-2.9846358 5.1451826 -0.57025003
-3.2706318 5.6382084 -0.57026434
-3.6299014 6.2575493 -0.57236499
-4.0627651 7.0037584 -0.57294744
-4.6084146 7.9443984 -0.57322705
-5.3377438 9.2016802 -0.57523417
-6.3309674 10.913888 -0.57714671
-7.7856812 13.421655 -0.58058065
-10.094491 17.401789 -0.58536381
-14.358765 24.752924 -0.59466231
-24.843071 42.826714 -0.61726248
-1.0825188 1.8143712 -0.56611365
-1.1197549 1.8767812 -0.56616199
-1.1564711 1.93832 -0.56475079
-1.1987923 2.009253 -0.56479752
-1.2391869 2.076957 -0.56259906
-1.296999 2.1738536 -0.56671154
-1.3563219 2.2732828 -0.56957114
-1.4037679 2.3528054 -0.56571305
-1.4635407 2.4529884 -0.56509101
-1.537334 2.5766706 -0.5677126
-1.605667 2.691201 -0.56601089
-1.6900488 2.8326304 -0.56748962
-1.7782887 2.9805262 -0.56746161
-1.8804771 3.1518004 -0.56879389
-1.9881233 3.3322225 -0.56837213
-2.1095252 3.5356998 -0.56816816
-2.252243 3.774904 -0.56941974
-2.4096873 4.0387912 -0.56952405
-2.5917068 4.3438668 -0.5699296
-2.7962368 4.6866727 -0.56901556
-3.0474088 5.1076531 -0.57020056
-3.3460989 5.6082768 -0.5713554
-3.7076309 6.2142277 -0.57252926
-4.1437469 6.9451861 -0.57228094
-4.7146544 7.9020638 -0.57431209
-5.4496183 9.1339111 -0.57514328
-6.4715862 10.846795 -0.57776326
-7.954041 13.331484 -0.58086705
-10.313671 17.286375 -0.58570331
-14.678792 24.6026 -0.59534222
-25.412836 42.593548 -0.61835909
-1.1051835 1.8016376 -0.56633806
-1.1379753 1.855094 -0.56379831
-1.1838984 1.9299564 -0.56651276
-1.2237724 1.9949577 -0.56496638
-1.2705348 2.0711884 -0.56522572
-1.3242742 2.1587927 -0.56698751
-1.3749954 2.241477 -0.5657956
-1.4338896 2.3374848 -0.56622595
-1.4982295 2.4423695 -0.56684601
-1.5645715 2.5505183 -0.56614655
-1.6411403 2.6753387 -0.56687617
-1.723825 2.8101287 -0.56718534
-1.8108647 2.9520183 -0.56623065
-1.9157853 3.1230567 -0.56781501
-2.0247283 3.3006525 -0.567191
-2.1452608 3.4971409 -0.56616807
-2.2885294 3.7306933 -0.56695282
-2.4596004 4.0095682 -0.56962508
-2.6393962 4.3026662 -0.56873918
-2.8607471 4.6635056 -0.57043064
-3.111269 5.0718989 -0.57043695
-3.4148183 5.5667362 -0.57135797
-3.7763939 6.1561661 -0.57141501
-4.2377839 6.9083104 -0.57349288
-4.8194852 7.8565826 -0.57527018
-5.5706768 9.0811529 -0.57609093
-6.6014709 10.761523 -0.57750136
-8.1183224 13.23425 -0.58093607
-10.538269 17.179174 -0.58641738
-14.991183 24.438185 -0.5957793
-25.983408 42.357388 -0.61952215
-1.1265006 1.7867206 -0.56596047
-1.1678846 1.8523589 -0.5672887
-1.2042056 1.9099671 -0.56494898
-1.2484155 1.9800875 -0.56505984
-1.2949533 2.0539002 -0.56481057
-1.3528817 2.1457794 -0.56789595
-1.4069053 2.2314651 -0.56759244
-1.4634227 2.3211062 -0.56657463
-1.5365114 2.437031 -0.56994885
-1.5994346 2.5368321 -0.56743133
-1.6766164 2.6592486 -0.56779236
-1.7527208 2.7799563 -0.56540275
-1.8571935 2.9456584 -0.5693481
-1.9494196 3.0919366 -0.56647235
-2.066443 3.277545 -0.56754375
-2.1962466 3.4834239 -0.56827658
-2.3441906 3.718075 -0.56937271
-2.5063939 3.9753425 -0.56909817
-2.7009568 4.2839351 -0.57061017
-2.9127221 4.6198115 -0.56942397
-3.1746073 5.035183 -0.57065475
-3.4796095 5.5189409 -0.57080078
-3.8555207 6.1151662 -0.57196671
-4.3212957 6.8539233 -0.57334572
-4.9069257 7.7827792 -0.5742408
-5.6778855 9.0055838 -0.57568258
-6.7505841 10.70697 -0.57898462
-8.2881451 13.145666 -0.58147728
-10.762851 17.070749 -0.58718944
-15.307204 24.27846 -0.59642899
-26.562733 42.130634 -0.62093604
-1.1538986 1.7812473 -0.5686782
-1.18741 1.832978 -0.56578207
-1.2332324 1.9037131 -0.56754166
-1.2790052 1.9743713 -0.56787384
-1.3213518 2.0397408 -0.56534213
-1.3740765 2.1211309 -0.5658015
-1.4312036 2.2093167 -0.56639236
-1.4984347 2.3130999 -0.56907487
-1.561295 2.4101357 -0.56810594
-1.6224592 2.5045536 -0.56463116
-1.7067603 2.6346874 -0.56698632
-1.7915273 2.7655404 -0.56690836
-1.8878366 2.9142108 -0.56771368
-1.9963427 3.0817091 -0.56905299
-2.1151292 3.2650774 -0.56984544
-2.2387908 3.455971 -0.56824601
-2.3952506 3.697494 -0.57068825
-2.5458496 3.9299707 -0.56704158
-2.7518373 4.2479491 -0.57028097
-2.9759603 4.5939226 -0.57070029
-3.2308476 4.9873867 -0.56969726
-3.5485742 5.4778538 -0.57102114
-3.9302704 6.06707 -0.57194519
-4.4105334 6.8084412 -0.57403445
-5.0013537 7.7204766 -0.5741381
-5.7989025 8.9516354 -0.57674855
-6.8799982 10.620498 -0.5788396
-8.4498863 13.0439 -0.58152789
-10.976247 16.943785 -0.5874204
-15.632238 24.131134 -0.59748673
-27.12566 41.873268 -0.62201184
-1.1737279 1.7639419 -0.56771815
-1.2077856 1.8151256 -0.56481308
-1.2545613 1.8854227 -0.56664509
-1.3052181 1.9615524 -0.56876004
-1.3506026 2.0297587 -0.56713563
-1.3965232 2.0987706 -0.56437498
-1.4500684 2.1792412 -0.56321061
-1.5187608 2.2824759 -0.56609249
-1.5923021 2.3929977 -0.56863844
-1.6635944 2.5001397 -0.56820482
-1.7391415 2.6136758 -0.56702393
-1.8277719 2.7468746 -0.56764632
-1.9234325 2.8906384 -0.5676862
-2.0368412 3.061075 -0.56982458
-2.1513824 3.2332141 -0.56885844
-2.2770412 3.4220607 -0.5672313
-2.4302192 3.6522651 -0.5682767
-2.610311 3.9229167 -0.57061183
-2.7993989 4.207088 -0.56937361
-3.0376902 4.5652051 -0.57172984
-3.2927327 4.9484968 -0.56983691
-3.6132412 5.4301744 -0.57063925
-4.007216 6.0222611 -0.57232291
-4.4865155 6.7425785 -0.57308942
-5.0962763 7.6589594 -0.57418019
-5.8985405 8.864646 -0.57577348
-7.0104842 10.535735 -0.57887441
-8.6196699 12.954107 -0.58220607
-11.191622 16.819374 -0.58783382
-15.941045 23.957066 -0.59798497
-27.691334 41.616035 -0.62320167
-1.1851553 1.7344892 -0.56288671
-1.2316232 1.8024956 -0.56555283
-1.2739011 1.8643699 -0.56498295
-1.3240125 1.9377085 -0.56652421
-1.3704931 2.0057333 -0.56508863
-1.4365505 2.1024091 -0.57006043
-1.4881377 2.1779077 -0.56755227
-1.5473744 2.2646012 -0.56633556
-1.6196414 2.3703649 -0.56794989
-1.6947572 2.480298 -0.56838864
-1.7769051 2.6005223 -0.56886744
-1.8522142 2.7107382 -0.56484258
-1.9626971 2.8724313 -0.56880724
-2.0615947 3.017169 -0.56632763
-2.1925554 3.2088318 -0.56926906
-2.3271635 3.4058321 -0.56924152
-2.4745004 3.6214614 -0.56817526
-2.6596518 3.8924327 -0.57089168
-2.8538773 4.1766844 -0.56996506
-3.0869594 4.5178027 -0.57050401
-3.36007 4.9175034 -0.57098252
-3.6827762 5.3897877 -0.57111084
-4.0811715 5.9728441 -0.57235253
-4.5658998 6.68225 -0.57269055
-5.1938949 7.6013284 -0.57460421
-6.0203619 8.810873 -0.57704556
-7.1431813 10.454133 -0.57917315
-8.787859 12.861139 -0.58284026
-11.4038 16.689602 -0.58815467
-16.253044 23.78653 -0.59867156
-28.249907 41.344082 -0.62428397
-1.2175657 1.7357146 -0.56810015
-1.2628331 1.800246 -0.5696761
-1.2980927 1.8505107 -0.56557745
-1.3397425 1.909885 -0.56316346
-1.40178 1.9983233 -0.56781435
-1.4615293 2.0834994 -0.569763
-1.5186031 2.1648617 -0.56897575
-1.5703712 2.2386603 -0.56463456
-1.6490747 2.350857 -0.56809145
-1.722182 2.4550762 -0.56741875
-1.8049312 2.57304 -0.56766778
-1.8942145 2.7003188 -0.56748205
-2.0004685 2.8517904 -0.56954789
-2.1124167 3.0113795 -0.57007343
-2.2303581 3.1795123 -0.56889004
-2.3634496 3.3692422 -0.56794041
-2.5250168 3.599566 -0.56956834
-2.6988721 3.8474076 -0.56911236
-2.9022238 4.1372981 -0.56941724
-3.1340826 4.4678268 -0.56901664
-3.4166827 4.8706908 -0.57038212
-3.7550952 5.3531184 -0.57207477
-4.1585236 5.9282298 -0.57293409
-4.6633682 6.6479168 -0.57461911
-5.2945132 7.5476537 -0.57542461
-6.1243615 8.7306528 -0.57668024
-7.2730031 10.368112 -0.57931828
-8.9454937 12.752349 -0.58285093
-11.616339 16.559803 -0.58856982
-16.560692 23.60828 -0.59926528
-28.807146 41.066353 -0.62539172
-1.2414854 1.7243214 -0.56932461
-1.2808022 1.7789294 -0.56787145
-1.3204492 1.8339957 -0.56544971
-1.3762523 1.9115015 -0.56858718
-1.4324312 1.9895294 -0.57027739
-1.4762127 2.0503383 -0.56561583
-1.5411185 2.1404872 -0.56750727
-1.6098869 2.2360008 -0.5689137
-1.6778761 2.3304324 -0.56809855
-1.7464088 2.4256186 -0.56553096
-1.8334135 2.5464609 -0.56673485
-1.9333323 2.68524 -0.56926614
-2.0333004 2.8240876 -0.56896555
-2.1485202 2.9841185 -0.56987095
-2.2663 3.1477048 -0.56814218
-2.4096489 3.3468046 -0.56910986
-2.5705743 3.5703166 -0.56989861
-2.7429509 3.8097336 -0.5684858
-2.950902 4.0985608 -0.56903678
-3.1919994 4.4334254 -0.5695911
-3.4765351 4.8286219 -0.57041866
-3.8166604 5.3010283 -0.57148027
-4.2307262 5.8761315 -0.57288349
-4.7409611 6.584806 -0.57415962
-5.3841147 7.4780936 -0.5751254
-6.23353 8.6578617 -0.5768916
-7.408659 10.29002 -0.58000129
-9.1026955 12.642898 -0.58292019
-11.828897 16.429367 -0.589059
-16.868155 23.428484 -0.59992105
-29.374184 40.798332 -0.62676334
-1.2588304 1.7038336 -0.56762803
-1.2883693 1.7438147 -0.56167686
-1.3369142 1.8095204 -0.56292951
-1.3863847 1.8764791 -0.56319791
-1.4405069 1.9497337 -0.56390506
-1.5037578 2.0353441 -0.56653762
-1.5655397 2.1189661 -0.56686246
-1.6283231 2.203944 -0.56580901
-1.7096668 2.314043 -0.56918508
-1.7819654 2.4118996 -0.56739825
-1.8700414 2.531111 -0.56839329
-1.9669493 2.6622763 -0.56948233
-2.0664949 2.7970119 -0.56858712
-2.1776724 2.9474912 -0.56794709
-2.3182626 3.1377804 -0.57145292
-2.445148 3.3095207 -0.56783968
-2.6096828 3.5322196 -0.56889671
-2.8074288 3.7998698 -0.57212186
-3.0147543 4.0804858 -0.57163095
-3.2536378 4.4038157 -0.57088399
-3.5388405 4.7898393 -0.57093453
-3.8828828 5.2555022 -0.57167637
-4.3048472 5.8266335 -0.57317519
-4.8214226 6.5258212 -0.57414252
-5.4818816 7.4197559 -0.57577944
-6.3395662 8.580637 -0.57689655
-7.543437 10.210082 -0.58067995
-9.270751 12.548011 -0.58375722
-12.039302 16.295258 -0.58951396
-17.178904 23.251738 -0.60075891
-29.924587 40.503086 -0.62783307
-1.2797822 1.6883552 -0.56767118
-1.3145586 1.7342342 -0.56375492
-1.3609152 1.79539 -0.56369704
-1.4145 1.866082 -0.56525499
-1.471596 1.941406 -0.56668723
-1.5298694 2.0182834 -0.56698221
-1.5913333 2.0993698 -0.56681192
-1.6675503 2.1999192 -0.56999683
-1.7350428 2.2889588 -0.5682199
-1.8100473 2.3879085 -0.56694752
-1.9050913 2.5132957 -0.56961018
-1.9991375 2.6373663 -0.56936926
-2.1010482 2.7718122 -0.56867337
-2.2230251 2.9327304 -0.57032698
-2.3338513 3.078938 -0.56592023
-2.4867711 3.2806778 -0.56809449
-2.6591148 3.5080428 -0.57022595
-2.8444419 3.7525358 -0.57021821
-3.0511961 4.0252967 -0.56911248
-3.3129847 4.3706617 -0.57182384
-3.5969074 4.7452273 -0.57084578
-3.9449875 5.204433 -0.57135469
-4.3709369 5.7663674 -0.57249063
-4.9080524 6.4749584 -0.57493389
-5.5689664 7.3468704 -0.57539397
-6.4472976 8.5056105 -0.57713884
-7.6621203 10.108268 -0.58020407
-9.4331293 12.444675 -0.58430195
-12.247864 16.15802 -0.58995295
-17.478567 23.058636 -0.60127729
-30.468973 40.196255 -0.62883693
-1.3014054 1.6737276 -0.56809062
-1.3405981 1.724133 -0.56578726
-1.3892915 1.7867572 -0.56630743
-1.4421937 1.8547945 -0.56716478
-1.4922895 1.9192222 -0.56552541
-1.5585792 2.0044768 -0.56844455
-1.6237915 2.0883458 -0.56918347
-1.6790688 2.1594377 -0.56481493
-1.7579628 2.2609026 -0.56657851
-1.8425475 2.3696864 -0.56795746
-1.9385264 2.493124 -0.57039779
-2.0259452 2.6055524 -0.56783628
-2.1436477 2.7569292 -0.57098466
-2.2582779 2.9043541 -0.57016569
-2.3816843 3.063066 -0.56834286
-2.5289874 3.2525115 -0.56855911
-2.6983974 3.4703882 -0.56945574
-2.8937752 3.7216625 -0.57089072
-3.1041408 3.9922118 -0.5697884
-3.3674209 4.3308144 -0.57198471
-3.6630039 4.7109613 -0.57209891
-4.0205474 5.1707954 -0.57304609
-4.4463968 5.7184772 -0.57312089
-4.976768 6.4005837 -0.5737204
-5.6646314 7.2852392 -0.57597888
-6.5622878 8.4397087 -0.57809877
-7.7886763 10.016957 -0.58041632
-9.5826912 12.324225 -0.58413494
-12.458702 16.023043 -0.59057361
-17.768398 22.851803 -0.60153574
-31.020229 39.894882 -0.6300419
-1.3164009 1.6507208 -0.56573313
-1.3568529 1.7014463 -0.56377494
-1.4132458 1.7721611 -0.56714624
-1.4664878 1.8389246 -0.56778318
-1.5178882 1.903379 -0.56631392
-1.5824916 1.9843894 -0.56822342
-1.6378039 2.0537491 -0.56520033
-1.7136551 2.148864 -0.56751788
-1.7972898 2.2537389 -0.57027847
-1.8722055 2.3476806 -0.56815797
-1.9610704 2.4591141 -0.56809086
-2.0558269 2.5779355 -0.56728393
-2.1654115 2.7153506 -0.56784517
-2.2897367 2.8712504 -0.56915128
-2.4227316 3.0380211 -0.56918049
-2.5703566 3.2231376 -0.56890637
-2.7410736 3.4372108 -0.56949931
-2.943373 3.6908875 -0.57167864
-3.1627743 3.9660089 -0.57155609
-3.413558 4.2804832 -0.57083786
-3.7184134 4.6627607 -0.57175487
-4.0869431 5.1248846 -0.57348418
-4.5133519 5.659586 -0.57273757
-5.0590458 6.3438673 -0.57416928
-5.7533913 7.2145524 -0.57594001
-6.6640778 8.3565216 -0.57797003
-7.9167514 9.927331 -0.58081985
-9.7342234 12.206378 -0.58417839
-12.664475 15.880813 -0.59102643
-18.075548 22.666109 -0.60245293
-31.57057 39.588394 -0.63128471
-1.3401486 1.6387521 -0.56723601
-1.3891597 1.6986835 -0.56847656
-1.4436671 1.765336 -0.57060003
-1.4954587 1.8286674 -0.57025081
-1.5413237 1.8847518 -0.56636798
-1.6037589 1.9610984 -0.56715816
-1.6714737 2.0439012 -0.56810349
-1.7336019 2.1198723 -0.56544834
-1.8209277 2.2266555 -0.56904811
-1.9100124 2.3355894 -0.57087255
-1.994091 2.4384019 -0.56892753
-2.0975585 2.5649233 -0.57005322
-2.1959059 2.6851838 -0.56714046
-2.3238094 2.8415861 -0.5688923
-2.45649 3.0038297 -0.56839091
-2.6090803 3.1904194 -0.56875116
-2.7881489 3.4093869 -0.5705266
-2.9824967 3.647038 -0.57052416
-3.217942 3.9349437 -0.57273835
-3.4665084 4.238894 -0.57093298
-3.7767625 4.6182771 -0.57195163
-4.1402941 5.0628085 -0.57219148
-4.587522 5.6096849 -0.57335293
-5.138267 6.2831435 -0.57434839
-5.8480043 7.1510201 -0.57656521
-6.7662325 8.2738419 -0.57796234
-8.0391235 9.8303509 -0.58088547
-9.8904657 12.094198 -0.58458591
-12.854248 15.71835 -0.59081799
-18.37534 22.469618 -0.60319036
-32.123493 39.281052 -0.63263476
-1.3618085 1.6240728 -0.56790823
-1.4021988 1.6722414 -0.565355
-1.4598669 1.7410156 -0.56849837
-1.5024145 1.7917573 -0.56445915
-1.5690895 1.8712729 -0.56807262
-1.622287 1.9347155 -0.56525451
-1.6898994 2.0153491 -0.56590039
-1.7721386 2.1134262 -0.56949836
-1.8425699 2.1974216 -0.56732446
-1.9241868 2.2947569 -0.56663251
-2.009485 2.3964822 -0.56486934
-2.1126115 2.5194693 -0.56568187
-2.2317483 2.6615503 -0.56790203
-2.3454812 2.7971861 -0.56573462
-2.5022571 2.9841549 -0.57044703
-2.6470339 3.1568136 -0.56851977
-2.8255572 3.3697178 -0.56965947
-3.024683 3.607192 -0.57006603
-3.258559 3.8861094 -0.5714193
-3.5281808 4.2076564 -0.57252568
-3.8325961 4.5706973 -0.57185233
-4.2114873 5.0225577 -0.57345188
-4.6587119 5.5559111 -0.57366854
-5.2218533 6.2275047 -0.57508844
-5.9282737 7.0699716 -0.57586443
-6.8698616 8.1928949 -0.57816511
-8.1549654 9.7254915 -0.58057088
-10.049438 11.984811 -0.58522731
-13.068719 15.585561 -0.59182233
-18.668402 22.263659 -0.60377818
-32.661335 38.951427 -0.63374633
-1.3842497 1.6102014 -0.56896669
-1.4209316 1.6528709 -0.56467056
-1.481198 1.7229745 -0.56851172
-1.5362015 1.7869563 -0.56885457
-1.5888338 1.8481799 -0.5669502
-1.6471936 1.9160657 -0.56568062
-1.7160504 1.9961621 -0.5663951
-1.7833353 2.07443 -0.56485653
-1.8650726 2.1695092 -0.56599629
-1.9622781 2.2825816 -0.56954116
-2.0479634 2.3822534 -0.56740838
-2.1492739 2.5001009 -0.56722414
-2.2708228 2.6414902 -0.56953675
-2.388953 2.7789028 -0.56793517
-2.5192478 2.9304659 -0.56606275
-2.6846254 3.122838 -0.56830323
-2.8729773 3.3419347 -0.57089168
-3.0671871 3.5678453 -0.56976515
-3.2967713 3.8349047 -0.56980789
-3.5797465 4.1640701 -0.57254118
-3.8973396 4.533504 -0.57315147
-4.2726789 4.9701099 -0.57341892
-4.7295284 5.5015316 -0.57401508
-5.3042569 6.170073 -0.57576448
-6.0178118 7.000102 -0.57615715
-6.9786506 8.1177788 -0.57887614
-8.2887926 9.6417761 -0.58161378
-10.200705 11.86577 -0.58549523
-13.266786 15.432329 -0.59215361
-18.949654 22.042814 -0.6040625
-33.183121 38.599617 -0.63461316
-1.3966219 1.584752 -0.56599963
-1.4514265 1.6469389 -0.56869829
-1.4973739 1.6990756 -0.56665856
-1.5581174 1.7680014 -0.56887662
-1.6139771 1.8313856 -0.5678435
-1.6729109 1.8982581 -0.56645364
-1.7407032 1.9751822 -0.56647277
-1.8206615 2.0659113 -0.56858999
-1.89118 2.1459289 -0.56586856
-1.9835353 2.2507246 -0.56763524
-2.0847385 2.3655603 -0.56949514
-2.1863225 2.4808278 -0.56890792
-2.3035686 2.6138675 -0.56964529
-2.4240327 2.7505586 -0.56819117
-2.5704262 2.916672 -0.56946063
-2.7352936 3.1037476 -0.57090682
-2.912354 3.3046584 -0.57059836
-3.1092744 3.528105 -0.56948143
-3.3476131 3.7985487 -0.57047909
-3.6175566 4.1048546 -0.57047242
-3.9506581 4.4828258 -0.57284284
-4.330605 4.9139533 -0.57304043
-4.8027959 5.4497499 -0.57473075
-5.3812242 6.1060944 -0.57592541
-6.1090136 6.9319201 -0.57668453
-7.0867057 8.0413103 -0.57959342
-8.4121017 9.5452423 -0.58198631
-10.353901 11.748609 -0.58595198
-13.460876 15.274104 -0.59238881
-19.250854 21.844015 -0.60505587
-33.715874 38.257523 -0.63575691
-1.404915 1.5551873 -0.56156808
-1.4714094 1.6287941 -0.56863743
-1.5216013 1.6843547 -0.56794608
-1.5780849 1.7468798 -0.56828129
-1.6331303 1.8078129 -0.56671828
-1.6946491 1.8759118 -0.56596082
-1.7668393 1.9558237 -0.56710881
-1.8504399 2.0483663 -0.56998056
-1.9272825 2.1334281 -0.56877846
-2.0200887 2.2361612 -0.57018387
-2.1064463 2.3317556 -0.56754971
-2.2190025 2.456351 -0.56950903
-2.3236177 2.5721562 -0.56673896
-2.4585652 2.7215381 -0.56839836
-2.5980747 2.8759694 -0.56770825
-2.7615895 3.0569744 -0.56850654
-2.9587801 3.2752566 -0.57176048
-3.1622834 3.5005271 -0.57126331
-3.3971996 3.7605705 -0.57100594
-3.6733377 4.0662446 -0.57134086
-4.0052109 4.4336157 -0.57280463
-4.3944135 4.8644485 -0.57352543
-4.8659377 5.3864079 -0.5743174
-5.4385071 6.0202198 -0.57408994
-6.1908751 6.8530622 -0.57641369
-7.1842203 7.9526582 -0.57952714
-8.5308323 9.443306 -0.58212298
-10.503598 11.627083 -0.58628821
-13.656523 15.117249 -0.59277338
-19.535872 21.625465 -0.60561043
-34.253338 37.917137 -0.63705164
-1.4382311 1.5532395 -0.56720787
-1.4875693 1.606523 -0.56720537
-1.5428545 1.6662291 -0.56818849
-1.6089265 1.7375846 -0.57165027
-1.6503032 1.7822701 -0.5650298
-1.730278 1.8686401 -0.57014287
-1.7965816 1.9402456 -0.56895453
-1.8687822 2.0182197 -0.56794322
-1.9489368 2.104784 -0.56748807
-2.051897 2.2159774 -0.57142764
-2.1434817 2.3148856 -0.56981575
-2.2523491 2.4324586 -0.57034779
-2.3634779 2.5524738 -0.56876278
-2.4913108 2.6905291 -0.56827718
-2.6457932 2.8573647 -0.57041472
-2.8123136 3.0372007 -0.57121718
-2.9939547 3.233367 -0.57083142
-3.2007182 3.4566643 -0.57048494
-3.4440775 3.7194839 -0.57115459
-3.724843 4.0227008 -0.57161492
-4.049346 4.3731527 -0.57138288
-4.4585648 4.8150945 -0.57412702
-4.9272203 5.3212266 -0.57378417
-5.5285468 5.9706378 -0.57580101
-6.2851782 6.7877736 -0.57737911
-7.2880859 7.8708792 -0.58005452
-8.6472378 9.3387165 -0.58218628
-10.641768 11.492739 -0.58606803
-13.870253 14.97939 -0.59401053
-19.808142 21.392105 -0.60585052
-34.765255 37.545269 -0.6379379
-1.4602095 1.5385879 -0.56837136
-1.503098 1.5837786 -0.56565797
-1.5538774 1.6372836 -0.56479084
-1.6146913 1.7013617 -0.56622255
-1.6759614 1.7659205 -0.56633711
-1.74793 1.8417523 -0.56845403
-1.8165621 1.9140682 -0.5677855
-1.8896048 1.9910315 -0.56678808
-1.9759845 2.0820477 -0.56786615
-2.0743933 2.1857388 -0.57016462
-2.1676085 2.2839575 -0.5687207
-2.2836573 2.4062352 -0.57074022
-2.3942389 2.5227525 -0.56865722
-2.5337505 2.6697526 -0.5704264
-2.6777844 2.8215177 -0.56978881
-2.8345041 2.9866495 -0.56822205
-3.0352616 3.1981828 -0.57116586
-3.242496 3.4165409 -0.57040024
-3.4959137 3.6835611 -0.57219619
-3.7757833 3.9784527 -0.57188159
-4.107296 4.3277597 -0.5720076
-4.5109339 4.7530637 -0.5733012
-4.9972768 5.2655115 -0.57435906
-5.6049051 5.905755 -0.57614684
-6.3684587 6.7102933 -0.57740599
-7.3820124 7.7782507 -0.57987392
-8.7630072 9.2333717 -0.5822925
-10.797999 11.377594 -0.58692288
-14.050658 14.804844 -0.59389532
-20.094175 21.172754 -0.60659021
-35.287441 37.181538 -0.63908207
-21.057222 22.187494 3.1893351
-1.4762021 1.5176238 -0.56728971
-1.5207886 1.5634613 -0.56503773
-1.5710633 1.6151466 -0.56377602
-1.6413951 1.6874521 -0.56826752
-1.7027459 1.7505244 -0.56807142
-1.7780049 1.827895 -0.5708819
-1.8445914 1.8963499 -0.56921488
-1.9135278 1.9672207 -0.56666517
-2.0139828 2.0704944 -0.57142627
-2.0870347 2.145596 -0.56634468
-2.201205 2.2629702 -0.57019144
-2.3112731 2.3761265 -0.57029665
-2.4231262 2.4911182 -0.56819987
-2.5572848 2.6290414 -0.56840366
-2.7105501 2.7866073 -0.5694266
-2.8738534 2.9544928 -0.56878436
-3.0725365 3.1587508 -0.5708279
-3.2884166 3.3806884 -0.57112229
-3.5287917 3.6278083 -0.57023293
-3.822825 3.9300919 -0.57164383
-4.1703486 4.2873673 -0.5734033
-4.5773654 4.7058048 -0.57434654
-5.0602694 5.2022591 -0.57420337
-5.6796632 5.8390326 -0.57640737
-6.4489322 6.6298866 -0.57726705
-7.4832978 7.6932764 -0.58035517
-8.8786802 9.1278124 -0.58247656
-10.949308 11.256542 -0.58757925
-14.234314 14.633724 -0.59400737
-20.372747 20.944399 -0.60717911
-35.798599 36.803097 -0.64009511
-19.762228 20.31675 3.1934652
-1.4974003 1.5020163 -0.5682953
-1.5396818 1.5444282 -0.56495869
-1.6020151 1.6069536 -0.56774938
-1.658901 1.6640148 -0.56720138
-1.712867 1.7181473 -0.56435692
-1.7985215 1.8040658 -0.57030356
-1.8615328 1.8672713 -0.56731451
-1.9397033 1.9456829 -0.56728876
-2.0299385 2.036196 -0.56880635
-2.1223068 2.1288493 -0.56876969
-2.2247758 2.2316341 -0.56914586
-2.3388023 2.3460121 -0.56992829
-2.4629459 2.4705384 -0.57037055
-2.5997095 2.6077237 -0.57066298
-2.7479534 2.7564247 -0.57012069
-2.9070957 2.9160573 -0.56822383
-3.108062 3.1176434 -0.57026267
-3.3271449 3.3374014 -0.57067794
-3.5832341 3.59428 -0.57184529
-3.8848989 3.8968747 -0.57371724
-4.2133374 4.226326 -0.57212532
-4.6275034 4.6417685 -0.57343251
-5.1291227 5.1449342 -0.57479411
-5.7517872 5.7695179 -0.57648349
-6.5371232 6.5572753 -0.57790005
-7.5565133 7.5798078 -0.57876116
-8.9962931 9.0240259 -0.58286875
-11.082027 11.11619 -0.58732182
-14.434062 14.478558 -0.59486848
-20.644583 20.708223 -0.60764575
-36.30619 36.41811 -0.64111549
-21.480484 21.546701 3.1722124
-19.54014 19.600376 3.1183946
-1.5176338 1.4853301 -0.56899965
-1.5585523 1.5253775 -0.56495768
-1.6233256 1.5887721 -0.56833518
-1.6799424 1.6441838 -0.56744015
-1.7491077 1.711877 -0.56931889
-1.8095104 1.7709938 -0.56683981
-1.8816336 1.8415819 -0.56649637
-1.9656013 1.9237623 -0.56790167
-2.0498199 2.0061884 -0.56742203
-2.1327572 2.0873601 -0.56464899
-2.2454648 2.1976686 -0.56748235
-2.3665333 2.3161602 -0.56970251
-2.4838395 2.4309695 -0.56824368
-2.62836 2.5724139 -0.56996554
-2.7662895 2.7074075 -0.566975
-2.9459159 2.8832104 -0.56883895
-3.1535561 3.0864305 -0.57160318
-3.3671989 3.295526 -0.57055432
-3.626538 3.5493448 -0.57174772
-3.9108005 3.8275568 -0.57054871
-4.2666669 4.175848 -0.57235104
-4.6913247 4.5914669 -0.57430142
-5.1859488 5.0755625 -0.57412475
-5.8186097 5.694757 -0.57611889
-6.6151242 6.4743171 -0.57771403
-7.6630735 7.4999604 -0.57981545
-9.1111603 8.9172239 -0.58316261
-11.233366 10.994257 -0.58813316
-14.611693 14.300674 -0.59489703
-20.91601 20.4708 -0.60817987
-36.811409 36.027855 -0.64216536
-21.378231 20.923182 3.118881
-19.366835 18.954599 3.0533097
-1.52975 1.4607974 -0.56676483
-1.5890173 1.5173934 -0.56919438
-1.6374264 1.5636204 -0.56649762
-1.7038335 1.6270343 -0.56870914
-1.7720852 1.6922096 -0.56998187
-1.8387378 1.7558578 -0.56918901
-1.8998456 1.8142112 -0.5652203
-1.9958378 1.9058768 -0.5698235
-2.0638826 1.9708544 -0.56456357
-2.165468 2.0678611 -0.56653446
-2.2825143 2.1796315 -0.57002914
-2.3875165 2.2799008 -0.56796205
-2.5121384 2.3989055 -0.56792641
-2.6578867 2.5380843 -0.56955755
-2.8245878 2.6972713 -0.57208264
-2.9967451 2.8616688 -0.57181585
-3.1805637 3.0372016 -0.56968606
-3.4035938 3.2501791 -0.56990618
-3.6789782 3.5131507 -0.5731613
-3.9622343 3.7836392 -0.57122159
-4.3244448 4.1295233 -0.57324666
-4.7470918 4.5331197 -0.57426113
-5.2614694 5.024312 -0.57560229
-5.8832641 5.6180797 -0.57563692
-6.6917391 6.3901134 -0.57749909
-7.7751203 7.4246616 -0.58134151
-9.2272577 8.8113451 -0.58361447
-11.369183 10.856724 -0.58820999
-14.800533 14.133409 -0.59546471
-21.191261 20.236078 -0.60890198
-37.324127 35.641766 -0.64341551
-20.472589 19.549801 2.9514623
-19.221966 18.355549 2.9946594
-1.5476143 1.4418954 -0.56677169
-1.6001995 1.4908884 -0.56659019
-1.6674517 1.5535465 -0.57023329
-1.7232699 1.6055518 -0.568564
