# .PCD v0.7 - Point Cloud Data file format
VERSION 0.7
FIELDS x y z
SIZE 4 4 4
TYPE F F F
COUNT 1 1 1
WIDTH 1466
HEIGHT 1
VIEWPOINT 0 0 0 1 0 0 0
POINTS 1466
DATA ascii
-6.3413725 3.6008155 -0.57697153
-7.0950742 4.028789 -0.57735497
-8.0979033 4.5982246 -0.58122003
-9.3926849 5.3334389 -0.58407634
-11.157171 6.3353658 -0.58689874
-13.763578 7.8153596 -0.59222972
-17.936462 10.184844 -0.60016561
-25.778334 14.637686 -0.6160289
-45.822678 26.019445 -0.65695852
-23.903799 13.573271 2.8660717
-22.870283 12.986411 2.9633083
-1.8542272 1.0229411 -0.56742966
-1.9226331 1.0606793 -0.56884646
-1.980994 1.0928758 -0.56609082
-2.0473506 1.1294836 -0.56444544
-2.1412153 1.1812668 -0.56885743
-2.226896 1.2285352 -0.56938136
-2.3062546 1.2723159 -0.56672633
-2.4034183 1.3259192 -0.56677556
-2.5114222 1.3855028 -0.56743252
-2.6258101 1.4486084 -0.56741989
-2.7490897 1.5166193 -0.56707317
-2.9001212 1.5999405 -0.56984371
-3.0506399 1.6829786 -0.56964731
-3.2184677 1.7755661 -0.56966162
-3.4039061 1.8778689 -0.56943995
-3.6164603 1.9951308 -0.56997627
-3.8652906 2.1324058 -0.57184762
-4.1259646 2.2762146 -0.57063419
-4.4485888 2.4542 -0.57245135
-4.8138385 2.6557009 -0.57322168
-5.2479258 2.8951788 -0.57459986
-5.7549868 3.1749144 -0.57503301
-6.3894701 3.5249465 -0.57736033
-7.1575437 3.9486778 -0.57844353
-8.1314669 4.4859724 -0.57962608
-9.4348383 5.2050171 -0.58267361
-11.227022 6.1937299 -0.58652246
-13.857648 7.6449947 -0.59218764
-18.060246 9.9634867 -0.60016263
-25.971691 14.328077 -0.61639273
-46.189407 25.481798 -0.65767431
-23.619944 13.030663 2.8126128
-22.571861 12.452457 2.9045823
-1.8702109 1.0019649 -0.56850767
-1.9273002 1.0325506 -0.56642795
-2.0042434 1.0737728 -0.56891847
-2.0787241 1.1136758 -0.56927645
-2.1561759 1.1551707 -0.56901526
-2.2277987 1.1935425 -0.56581694
-2.3169422 1.2413012 -0.56555909
-2.426559 1.3000282 -0.56841987
-2.5427988 1.3623037 -0.57069379
-2.6538615 1.4218055 -0.56966048
-2.7770889 1.4878246 -0.56903189
-2.9147031 1.5615513 -0.56889296
-3.0757742 1.6478451 -0.5705139
-3.2502167 1.7413027 -0.57144809
-3.4185317 1.8314774 -0.56807619
-3.6337337 1.9467719 -0.56888282
-3.8861814 2.0820205 -0.57110751
-4.1625896 2.2301064 -0.57186371
-4.4743147 2.3971128 -0.57192552
-4.8540106 2.6005347 -0.57415408
-5.2881875 2.8331449 -0.57515031
-5.8033633 3.1091504 -0.57600313
-6.4300685 3.4449074 -0.57715756
-7.2009549 3.8579097 -0.5780744
-8.1918631 4.3887882 -0.58004045
-9.5084658 5.0941577 -0.58330798
-11.289396 6.0482907 -0.58585137
-13.959538 7.4788184 -0.59256709
-18.194021 9.7474422 -0.60057974
-26.170509 14.020843 -0.61697286
-46.551613 24.940012 -0.6584152
-23.355206 12.512545 2.7625582
-22.309204 11.952149 2.851655
-1.8840097 0.97973669 -0.56899709
-1.9369395 1.0072616 -0.56557798
-2.0142813 1.0474814 -0.56806874
-2.086067 1.0848119 -0.56759137
-2.1678216 1.1273266 -0.56838739
-2.2436635 1.1667665 -0.56615961
-2.3371172 1.2153651 -0.56679291
-2.4557827 1.2770742 -0.57154381
-2.5536032 1.3279436 -0.56941086
-2.6627989 1.3847283 -0.56788105
-2.7887928 1.4502486 -0.56773317
-2.9397278 1.528739 -0.57006514
-3.0942957 1.6091185 -0.57023615
-3.2610288 1.6958244 -0.56963968
-3.4580965 1.7983049 -0.5709331
-3.6684768 1.9077085 -0.57060641
-3.9270725 2.0421853 -0.57338309
-4.1943026 2.1811521 -0.57249254
-4.5054717 2.3429687 -0.57218218
-4.8844924 2.5400698 -0.57402176
-5.3242993 2.7687817 -0.57533145
-5.8397598 3.036835 -0.57586569
-6.4764628 3.367938 -0.5775609
-7.2558174 3.7732239 -0.5787102
-8.2603703 4.2956185 -0.58110726
-9.5709696 4.9771662 -0.5833438
-11.394207 5.9253001 -0.58746499
-14.039189 7.3007631 -0.59209263
-18.32505 9.5295277 -0.60099143
-26.356731 13.706223 -0.61734313
-46.906013 24.39241 -0.65913564
-22.800077 11.856666 2.6794474
-22.037111 11.459902 2.7986512
-1.8842562 0.95061642 -0.56549847
-1.9660368 0.99187511 -0.5704698
-2.0322428 1.0252763 -0.56953567
-2.1002135 1.0595679 -0.56785256
-2.1711953 1.0953785 -0.56569761
-2.2625017 1.1414431 -0.56732857
-2.3538501 1.1875288 -0.5672667
-2.4508352 1.2364583 -0.56681103
-2.5637496 1.293424 -0.56808388
-2.6783235 1.3512272 -0.5676055
-2.8131003 1.4192227 -0.5690859
-2.9530766 1.4898415 -0.56905818
-3.1148729 1.5714686 -0.57042408
-3.2776129 1.6535717 -0.56894177
-3.4737175 1.7525073 -0.56991124
-3.7033014 1.8683336 -0.57240641
-3.9252269 1.980296 -0.56951517
-4.215765 2.1268737 -0.57180905
-4.5337229 2.2872853 -0.57215494
-4.9103665 2.477304 -0.57343924
-5.3731103 2.7107601 -0.57696033
-5.8787632 2.9658647 -0.57607204
-6.5168161 3.2877655 -0.5775106
-7.3080978 3.6869709 -0.57922024
-8.3181839 4.1965642 -0.58150023
-9.6350756 4.8609424 -0.5835638
-11.464087 5.7836876 -0.58735669
-14.13414 7.1307425 -0.59235436
-18.43528 9.3006887 -0.60081035
-26.534027 13.386546 -0.61759365
-47.259758 23.842777 -0.65993685
-23.289061 11.749444 2.500761
-22.837265 11.521511 2.6669667
-21.795898 10.996137 2.750638
-1.9044899 0.93162644 -0.5680899
-1.9685774 0.96297634 -0.56772822
-2.0378139 0.99684501 -0.56761885
-2.1130185 1.0336331 -0.56783521
-2.1897159 1.0711515 -0.56704849
-2.2802088 1.1154182 -0.56828642
-2.3735449 1.1610758 -0.56852931
-2.467191 1.2068851 -0.56711859
-2.5813553 1.2627313 -0.56850153
-2.6998284 1.3206851 -0.56867838
-2.8229971 1.380936 -0.56760991
-2.9608238 1.4483573 -0.56707627
-3.1241539 1.528254 -0.56863934
-3.3061445 1.6172791 -0.57039928
-3.4981086 1.7111828 -0.57041764
-3.7213926 1.8204075 -0.57169956
-3.9614043 1.937815 -0.57126373
-4.2440104 2.0760584 -0.57213438
-4.5722232 2.2366116 -0.5734995
-4.9379458 2.4155135 -0.57314801
-5.3952193 2.6391995 -0.57580608
-5.9021854 2.8871939 -0.57484478
-6.5573902 3.2077031 -0.57756716
-7.3468366 3.5938797 -0.57874423
-8.3602333 4.0896068 -0.5808804
-9.6956434 4.7428541 -0.58365583
-11.541162 5.6456332 -0.58770436
-14.233453 6.9626312 -0.59288359
-18.572206 9.0850363 -0.60158658
-26.723957 13.072658 -0.61822611
-47.593666 23.281572 -0.66055197
-24.035942 11.757751 2.3409865
-23.926941 11.704431 2.5536087
-22.577677 11.044406 2.6205938
-21.556993 10.545115 2.7039196
-1.9184476 0.90939397 -0.56887478
-1.9867046 0.94174951 -0.56957322
-2.059628 0.97631711 -0.57030791
-2.1169193 1.0034747 -0.56552482
-2.1983113 1.0420567 -0.56591338
-2.3081169 1.0941073 -0.57184559
-2.3800111 1.1281871 -0.56671244
-2.4918132 1.1811841 -0.56939667
-2.5941792 1.2297082 -0.56795263
-2.7301896 1.2941806 -0.57167822
-2.8607898 1.3560885 -0.57181269
-2.9901927 1.4174289 -0.56931996
-3.1600471 1.4979442 -0.57177651
-3.3280711 1.5775921 -0.57079226
-3.5249228 1.6709049 -0.57139653
-3.7470603 1.7762038 -0.57224417
-4.0020175 1.8970602 -0.57371312
-4.2598357 2.0192728 -0.57087731
-4.5953312 2.1783061 -0.57299489
-4.9770885 2.3592691 -0.57428062
-5.4202929 2.5693595 -0.57506675
-5.9454646 2.8183045 -0.57564127
-6.5976448 3.1274548 -0.57768178
-7.397768 3.5067341 -0.57931578
-8.3973103 3.9805429 -0.58001179
-9.7472944 4.6204705 -0.58330083
-11.596212 5.4969058 -0.58702135
-14.3223 6.7891417 -0.59306216
-18.69104 8.8600378 -0.6018613
-26.898283 12.750484 -0.61858511
-47.93211 22.721066 -0.66132158
-24.731213 11.723237 2.3944817
-24.657835 11.688454 2.6160765
-22.333462 10.58664 2.5769429
-21.345934 10.118526 2.6616387
-1.9211917 0.88193023 -0.56642991
-1.9917965 0.91434157 -0.56776679
-2.0588605 0.94512767 -0.56683457
-2.1395609 0.98217344 -0.56830412
-2.221369 1.0197277 -0.56857818
-2.3100026 1.0604153 -0.56903917
-2.3925695 1.0983179 -0.5664441
-2.5092404 1.1518762 -0.57009923
-2.6099367 1.1981012 -0.56813413
-2.7329731 1.2545815 -0.56898779
-2.8538747 1.3100818 -0.56716776
-3.0154746 1.3842648 -0.57084954
-3.1551569 1.4483865 -0.5676263
-3.3485792 1.5371778 -0.57102454
-3.5413904 1.6256884 -0.57078236
-3.7761829 1.7334709 -0.57339311
-4.017858 1.8444127 -0.57268941
-4.3025126 1.9750843 -0.57329851
-4.6229706 2.1221919 -0.57314408
-5.0124502 2.3009839 -0.57505262
-5.4689651 2.5105488 -0.57691175
-5.9837275 2.7468524 -0.57603204
-6.6407452 3.0484588 -0.57812977
-7.4388409 3.4148276 -0.57920009
-8.4505205 3.8792431 -0.58034849
-9.8022699 4.4997683 -0.58323544
-11.672759 5.3584232 -0.58751637
-14.409919 6.6149268 -0.59327734
-18.807518 8.6336613 -0.60214794
-27.072718 12.427832 -0.61903542
-48.240303 22.14489 -0.66176671
-22.100275 10.145213 2.5354507
-21.118586 9.6945658 2.6182284
-1.9314607 0.85805064 -0.56630397
-2.0043483 0.89043093 -0.56818068
-2.0825081 0.92515337 -0.57016993
-2.1520736 0.95605785 -0.56846207
-2.2312014 0.99121028 -0.56793225
-2.3164916 1.0291004 -0.56747758
-2.4200478 1.0751052 -0.56977671
-2.5151434 1.1173514 -0.56827581
-2.6328597 1.1696467 -0.5699501
-2.7466152 1.2201827 -0.56866133
-2.8805714 1.2796926 -0.56930304
-3.0247629 1.3437496 -0.56943685
-3.1945043 1.4191573 -0.57152241
-3.3607912 1.4930301 -0.56993324
-3.5565572 1.5799991 -0.57005239
-3.7742264 1.6766986 -0.56992233
-4.0338497 1.7920361 -0.57178473
-4.3116493 1.9154484 -0.57133442
-4.6466889 2.0642898 -0.57289439
-5.0197058 2.2300022 -0.57269579
-5.4869213 2.4375625 -0.57560056
-6.0038238 2.6671963 -0.57476598
-6.6785345 2.9669363 -0.5781998
-7.4893279 3.3271308 -0.57990181
-8.5127172 3.7817712 -0.58138233
-9.8680353 4.3838706 -0.58389693
-11.737683 5.2144608 -0.58751243
-14.498182 6.4408116 -0.59360564
-18.91853 8.4045486 -0.60234779
-27.224174 12.094328 -0.61905128
-48.572109 21.57814 -0.66262847
-21.866693 9.7142696 2.4947605
-20.911325 9.2898483 2.5781758
-1.9457583 0.83591002 -0.56743944
-2.0214901 0.86844486 -0.56996965
-2.0969687 0.90087092 -0.57105297
-2.1517508 0.92440575 -0.56533158
-2.2428885 0.96355903 -0.56784827
-2.3425255 1.0063637 -0.57078058
-2.4388616 1.0477504 -0.57112974
-2.5312428 1.0874379 -0.56884909
-2.6386945 1.1335999 -0.56815279
-2.7712562 1.1905491 -0.57068884
-2.9035058 1.2473644 -0.57076114
-3.0381298 1.3051996 -0.56888884
-3.2137876 1.3806634 -0.57189173
-3.3847291 1.454101 -0.57091731
-3.5929706 1.5435628 -0.57280332
-3.8145761 1.6387659 -0.57292908
-4.0611343 1.744689 -0.57256794
-4.3482962 1.8680553 -0.57310331
-4.6772575 2.0093794 -0.57357353
-5.0472651 2.1683369 -0.5727548
-5.4966908 2.361413 -0.57353598
-6.0401607 2.5948911 -0.5751465
-6.7003312 2.8785045 -0.57697886
-7.509119 3.2259648 -0.57831901
-8.5532322 3.6745222 -0.58101952
-9.9111528 4.257894 -0.58330613
-11.811835 5.0744386 -0.58805639
-14.582895 6.2649035 -0.59387505
-19.005346 8.1648159 -0.60186982
-27.385004 11.764771 -0.61937201
-48.87133 20.995432 -0.66313839
-24.388788 10.477577 2.544776
-21.6458 9.2991724 2.4563274
-20.689911 8.8885164 2.53721
-1.9558741 0.81191641 -0.56743503
-2.0368004 0.8455103 -0.57131189
-2.096127 0.87013781 -0.56786716
-2.1676815 0.89984119 -0.56656706
-2.2597423 0.93805718 -0.56915182
-2.3444681 0.97322839 -0.568295
-2.4435816 1.0143721 -0.56927109
-2.5456669 1.0567493 -0.56912738
-2.6537566 1.1016192 -0.56843626
-2.7830484 1.1552905 -0.57014871
-2.9129574 1.2092179 -0.56965315
-3.0527298 1.2672398 -0.56866187
-3.2219439 1.3374834 -0.57037342
-3.4065588 1.4141202 -0.57162321
-3.6019726 1.4952397 -0.57126403
-3.830195 1.5899787 -0.57229519
-4.0691857 1.6891879 -0.57073152
-4.3659477 1.8123786 -0.57244921
-4.6892233 1.9465759 -0.57206231
-5.0876255 2.1119595 -0.5743444
-5.5413361 2.3003023 -0.57519948
-6.0903511 2.5282078 -0.57692176
-6.7410622 2.7983289 -0.57747954
-7.5652428 3.1404603 -0.57962352
-8.5912914 3.5663905 -0.58058202
-9.9849463 4.1449199 -0.58460528
-11.876001 4.9299288 -0.58818841
-14.659573 6.0854368 -0.59390539
-19.136442 7.9438605 -0.60288244
-27.516342 11.422499 -0.61911899
-49.166378 20.409794 -0.66368634
-15.636655 6.4910402 0.49262372
-15.597609 6.4748311 0.63190818
-15.60957 6.4797964 0.77310264
-15.612858 6.4811611 0.91411203
-15.561254 6.4597397 1.051598
-21.41659 8.8903885 2.4177289
-20.512671 8.5151567 2.5024457
-1.973296 0.79084712 -0.56962514
-2.020087 0.80959976 -0.56378889
-2.1011004 0.84206796 -0.56636655
-2.1940289 0.87931126 -0.57058436
-2.2607503 0.90605152 -0.56655681
-2.3598645 0.94577396 -0.56916499
-2.4560595 0.98432654 -0.5693152
-2.5513418 1.0225133 -0.56754225
-2.6661224 1.0685145 -0.56822765
-2.7848709 1.1161058 -0.56766754
-2.9162917 1.1687759 -0.56745178
-3.0794494 1.2341654 -0.57076907
-3.2423081 1.299435 -0.57110661
-3.4133933 1.3680016 -0.56990427
-3.6219592 1.4515896 -0.57155979
-3.8471892 1.5418561 -0.5719583
-4.0822368 1.6360573 -0.56969732
-4.3774362 1.7543657 -0.5710839
-4.7205915 1.8918936 -0.5730077
-5.1165948 2.0506017 -0.57472479
-5.5656896 2.2305875 -0.57483685
-6.1133027 2.450057 -0.57619846
-6.7689524 2.7128248 -0.57696748
-7.5824971 3.038873 -0.57803881
-8.6448298 3.4646292 -0.58127713
-10.044168 4.0254483 -0.58513033
-11.944587 4.7870884 -0.58862537
-14.738376 5.9067683 -0.59411049
-19.231594 7.7075362 -0.60284871
-27.698299 11.100778 -0.62009484
-49.46566 19.824585 -0.66438538
-15.653442 6.2735033 0.21024522
-15.690829 6.2884874 0.35127798
-15.806316 6.3347716 0.49547729
-15.970137 6.4004264 0.6437633
-16.052679 6.4335079 0.79107082
-16.027983 6.4236102 0.9337219
-15.926999 6.3831387 1.0709292
-15.757426 6.3151779 1.2012407
-15.611544 6.256712 1.3306865
-15.57831 6.2433925 1.4683061
-21.203379 8.4977779 2.3816831
-20.322979 8.1449356 2.4668994
-1.9663606 0.76014221 -0.56488216
-2.0435309 0.78997415 -0.5675779
-2.1166725 0.81824875 -0.56780899
-2.2001295 0.85051101 -0.56940806
-2.2794125 0.88115972 -0.56847537
-2.3692448 0.91588646 -0.56866813
-2.4696403 0.95469666 -0.56969893
-2.5658092 0.99187297 -0.56800443
-2.6788847 1.0355849 -0.56819075
-2.8045092 1.0841479 -0.56891012
-2.9435403 1.1378937 -0.56998813
-3.0950673 1.1964699 -0.57089376
-3.24858 1.2558138 -0.56944829
-3.4332879 1.327217 -0.57045794
-3.6324737 1.4042169 -0.57045114
-3.868927 1.4956234 -0.57241261
-4.1057811 1.5871847 -0.57021618
-4.4170613 1.7075174 -0.57347083
-4.7351918 1.8304981 -0.57200456
-5.1403489 1.987121 -0.57460493
-5.6020079 2.1655858 -0.57579404
-6.1331506 2.3709114 -0.57527792
-6.8054175 2.6307917 -0.57727468
-7.6315088 2.9501364 -0.5789659
-8.6752615 3.3536234 -0.58050662
-10.095418 3.9026175 -0.58527607
-11.991967 4.6357727 -0.58810669
-14.804978 5.7232075 -0.5939135
-19.326214 7.4709959 -0.60288948
-27.842867 10.763305 -0.62032145
-49.738411 19.227535 -0.664823
-15.886216 6.1411848 -0.070777193
-15.646734 6.0486073 0.06971024
-15.780215 6.1002078 0.21092451
-16.269802 6.2894688 0.36248091
-17.254761 6.6702275 0.53826964
-17.281651 6.6806221 0.69326717
-17.300556 6.6879301 0.84844899
-17.240503 6.6647153 0.99950832
-17.162197 6.6344442 1.1484113
-16.997089 6.5706186 1.2894875
-16.160509 6.2472186 1.3708273
-15.674245 6.0592422 1.4702145
-15.551567 6.0118184 1.5984447
-20.999632 8.1178942 2.3474071
-20.115858 7.7762504 2.4299674
-1.9854965 0.7396093 -0.56772387
-2.0512493 0.76410264 -0.56706917
-2.1446953 0.79891187 -0.57264769
-2.2122223 0.82406598 -0.56987208
-2.2742281 0.84716356 -0.5645417
-2.3848176 0.88835877 -0.56974095
-2.4867334 0.92632312 -0.57097131
-2.5799694 0.96105403 -0.56848007
-2.6967103 1.0045408 -0.56930864
-2.8265493 1.0529065 -0.57071161
-2.9466493 1.0976446 -0.56793368
-3.0999987 1.154768 -0.56914121
-3.2643421 1.215987 -0.56954718
-3.451901 1.2858537 -0.57088029
-3.6616039 1.3639693 -0.57234859
-3.872154 1.4424005 -0.5702228
-4.1410441 1.5425638 -0.57243603
-4.4456811 1.6560428 -0.57449931
-4.762763 1.7741578 -0.57265651
-5.1631236 1.9232943 -0.57446367
-5.6258035 2.0956454 -0.5755477
-6.1827283 2.3031032 -0.57722819
-6.8288083 2.543772 -0.57656193
-7.6805234 2.8610408 -0.57997161
-8.7307253 3.2522473 -0.58149803
-10.125108 3.7716634 -0.58426446
-12.053387 4.4899588 -0.58836669
-14.873462 5.5404534 -0.59388286
-19.436695 7.2402849 -0.603513
-27.985556 10.424787 -0.62059766
-50.034229 18.63805 -0.66566336
-15.688766 5.8441591 -0.069572076
-15.722728 5.8568101 0.069722675
-17.749922 6.6119523 0.23614779
-17.876757 6.6591988 0.39642856
-17.936119 6.6813116 0.55691987
-17.971523 6.6945 0.7175855
-17.963873 6.6916499 0.87687755
-17.901339 6.6683559 1.0329881
-17.755278 6.6139469 1.1825659
-17.583216 6.5498533 1.3277435
-17.343767 6.4606571 1.4643486
-16.377825 6.1008372 1.5290567
-15.578287 5.8030052 1.5937363
-20.788942 7.7440052 2.3130362
-19.945238 7.4297204 2.3981395
-1.9847119 0.71165234 -0.56495464
-2.0591114 0.73832953 -0.56668991
-2.1412065 0.76776618 -0.56915236
-2.2109153 0.79276145 -0.56698143
-2.3009231 0.82503533 -0.56860703
-2.3975096 0.85966808 -0.57020462
-2.4939735 0.89425677 -0.57006574
-2.5742805 0.92305225 -0.5646829
-2.7132909 0.97289687 -0.57024026
-2.8163953 1.0098666 -0.56611133
-2.9661381 1.0635595 -0.56912625
-3.1255841 1.1207316 -0.57126522
-3.283967 1.1775225 -0.57040185
-3.4647026 1.2423283 -0.57042789
-3.6691527 1.3156374 -0.57095665
-3.9013078 1.3988806 -0.57193977
-4.1615558 1.492197 -0.57269174
-4.4623408 1.6000485 -0.57406628
-4.793345 1.7187357 -0.57374901
-5.1775565 1.8565015 -0.57348621
-5.6455746 2.0243173 -0.57498032
-6.1912265 2.21997 -0.57542956
-6.8664665 2.4620888 -0.57714164
-7.7070727 2.7635026 -0.57936656
-8.7806187 3.1484411 -0.58219856
-10.171437 3.6471426 -0.58430582
-12.102421 4.33953 -0.58811104
-14.949532 5.3604102 -0.59424347
-19.520161 6.9992871 -0.60338664
-28.131453 10.087013 -0.62103552
-16.110064 5.7765384 -0.2133697
-15.657287 5.6141877 -0.069121115
-15.81352 5.670208 0.06981083
-18.392187 6.5948334 0.2435953
-18.50708 6.6360297 0.40856594
-18.582647 6.663126 0.57440722
-18.607025 6.6718669 0.73962873
-18.562553 6.655921 0.90203792
-18.465059 6.6209621 1.060739
-18.337301 6.5751529 1.2158539
-18.123598 6.4985256 1.3624119
-17.878273 6.4105601 1.5027083
-17.50489 6.2766776 1.6269524
-15.603877 5.5950365 1.5891956
-15.669336 5.6185083 1.7355963
-19.762587 7.0862131 2.3655226
-2.0001688 0.6895594 -0.56689805
-2.058341 0.70961422 -0.56403387
-2.1387312 0.73732883 -0.56604165
-2.2353649 0.77064329 -0.57077813
-2.3156359 0.79831684 -0.56977397
-2.3903213 0.82406467 -0.56604218
-2.5011656 0.86227828 -0.56924307
-2.6049705 0.89806509 -0.56894958
-2.7114522 0.93477476 -0.56739521
-2.8593986 0.98577929 -0.5722754
-2.9789894 1.0270083 -0.56912595
-3.1346128 1.0806595 -0.57044357
-3.3050327 1.1394119 -0.57158405
-3.4832826 1.2008637 -0.57101262
-3.6888134 1.2717206 -0.57153946
-3.9162934 1.3501444 -0.57165956
-4.1724143 1.4384422 -0.57170868
-4.4744511 1.5425695 -0.57314068
-4.8104148 1.6583931 -0.57330799
-5.2069116 1.7950858 -0.57424933
-5.6817141 1.9587742 -0.57616436
-6.2179637 2.1436465 -0.57542115
-6.9041429 2.3802073 -0.57780474
-7.7423525 2.6691806 -0.57950759
-8.8133783 3.0384171 -0.5818494
-10.227235 3.5258451 -0.58497632
-12.178514 4.1985497 -0.58925539
-15.017547 5.1773076 -0.5943715
-19.614738 6.7621922 -0.6036942
-28.255301 9.7410307 -0.62107831
-16.118439 5.5568409 -0.21255957
-15.711117 5.4164166 -0.069059506
-15.70039 5.4127183 0.069012359
-18.953625 6.5342727 0.24994816
-19.079428 6.5776434 0.41938394
-19.154734 6.6036053 0.58953637
-19.176466 6.6110973 0.75897515
-19.116676 6.5904851 0.92495722
-19.010103 6.5537438 1.0873379
-18.845964 6.4971566 1.2441895
-18.630907 6.4230161 1.3945054
-18.327312 6.3183513 1.5338048
-17.957863 6.1909838 1.6618519
-15.575025 5.3694987 1.5794133
-15.789782 5.4435363 1.7413917
-16.505445 5.6902618 1.9671285
-2.013463 0.66655833 -0.56829989
-2.0923891 0.69268686 -0.57098663
-2.1564157 0.71388292 -0.5683558
-2.2305057 0.73841047 -0.5671761
-2.3217087 0.76860332 -0.56889969
-2.4093373 0.79761279 -0.56817979
-2.5207434 0.83449388 -0.57132024
-2.6061382 0.86276388 -0.56684464
-2.7394948 0.90691167 -0.57088655
-2.8627667 0.947721 -0.5705741
-2.9828691 0.987481 -0.56750447
-3.1508086 1.0430773 -0.57101357
-3.3093851 1.0955743 -0.56996381
-3.4985058 1.1581829 -0.57113039
-3.6917949 1.2221713 -0.56962985
-3.943038 1.3053455 -0.57317716
-4.1858745 1.3857368 -0.57117504
-4.4765697 1.4819716 -0.57103473
-4.8344326 1.6004424 -0.57378167
-5.2256103 1.7299421 -0.57392216
-5.6892109 1.8834174 -0.57453269
-6.264338 2.0738134 -0.57730919
-6.9248958 2.2924917 -0.57713872
-7.7832375 2.5766463 -0.58015239
-8.8545704 2.9313116 -0.58214521
-10.251214 3.3936715 -0.58391684
-12.221196 4.0458355 -0.58886892
-15.088305 4.9949942 -0.5946961
-19.689524 6.5182309 -0.6034835
-28.391323 9.3989677 -0.62148082
-16.265636 5.3847504 -0.21361138
-15.82327 5.2383046 -0.069264121
-15.675483 5.1893797 0.068617202
-19.469727 6.445467 0.25568968
-19.56661 6.47754 0.4283095
-19.657003 6.5074644 0.60248667
-19.663179 6.5095091 0.7750119
-19.596756 6.4875197 0.94425458
-19.511332 6.45924 1.1113801
-19.304743 6.3908486 1.2691935
-19.066296 6.3119102 1.4211768
-18.731972 6.2012324 1.5611709
-15.622785 5.1719337 1.4397655
-15.630293 5.1744194 1.5784463
-16.153873 5.3477516 1.7741596
-16.708235 5.5312729 1.9830409
-2.021528 0.6417582 -0.56830597
-2.0893173 0.6632787 -0.56787974
-2.1600842 0.68574452 -0.56705743
-2.2553434 0.71598572 -0.57120997
-2.3295002 0.73952764 -0.56853765
-2.4213648 0.76869112 -0.56874412
-2.5131752 0.79783744 -0.56733847
-2.6308434 0.83519262 -0.56994128
-2.7477393 0.87230259 -0.57032627
-2.861939 0.90855664 -0.56813943
-3.0096028 0.95543432 -0.57031232
-3.1681991 1.0057826 -0.57188064
-3.3230011 1.0549264 -0.5700317
-3.5173867 1.1166363 -0.57192791
-3.7107499 1.1780218 -0.57027638
-3.955641 1.2557654 -0.57272124
-4.2180738 1.3390778 -0.57327855
-4.5189462 1.4345933 -0.57414663
-4.8461103 1.5384555 -0.57287902
-5.2472286 1.6657953 -0.5740034
-5.7305226 1.8192227 -0.57640195
-6.2853827 1.9953698 -0.57694387
-6.9645271 2.2109721 -0.57813215
-7.8105922 2.4795656 -0.57987487
-8.8860178 2.8209724 -0.5818882
-10.300744 3.2700939 -0.58440351
-12.276128 3.8972032 -0.58916211
-15.149695 4.8094516 -0.59473991
-19.787682 6.2818356 -0.60407877
-28.517544 9.0532341 -0.62175995
-16.590443 5.2668343 -0.21701005
-16.061905 5.0990434 -0.070028961
-15.817514 5.0214586 0.068963431
-15.683116 4.9787922 0.20514183
-15.655965 4.9701729 0.34134257
-20.216419 6.4179435 0.61716729
-20.193668 6.4107208 0.79275393
-20.11017 6.3842134 0.96513748
-19.929283 6.3267884 1.1306701
-19.681553 6.2481437 1.2888184
-19.40077 6.1590056 1.4403542
-15.59195 4.9498506 1.2943029
-15.688457 4.9804878 1.4400648
-15.972778 5.0707493 1.6066145
-17.274137 5.483881 1.8896478
-17.415781 5.5288472 2.0587926
-2.0340285 0.61830157 -0.56963974
-2.104969 0.63986599 -0.56995231
-2.1548352 0.65502429 -0.56352246
-2.2586062 0.6865685 -0.56985503
-2.3396571 0.71120626 -0.56883913
-2.4242373 0.73691684 -0.56724757
-2.5330763 0.77000159 -0.56965059
-2.6368856 0.80155742 -0.56907201
-2.7506866 0.83615047 -0.56876093
-2.8903196 0.87859595 -0.57158554
-3.0333276 0.92206734 -0.57261628
-3.1908939 0.96996415 -0.57378089
-3.3609738 1.0216649 -0.57434708
-3.5333264 1.0740564 -0.57232898
-3.7297826 1.133775 -0.57101566
-3.9630346 1.2046787 -0.57160378
-4.2339015 1.2870164 -0.57323551
-4.5260429 1.3758212 -0.57285553
-4.8760452 1.4822145 -0.57421976
-5.2718654 1.6025355 -0.57449943
-5.7530098 1.7487931 -0.57645726
-6.3077865 1.9174335 -0.57679248
-6.978354 2.1212718 -0.57707101
-7.8450675 2.3847344 -0.58021349
-8.9157801 2.7102082 -0.5816108
-10.363179 3.150187 -0.58570379
-12.323165 3.7459812 -0.58916438
-15.203238 4.6214628 -0.59456599
-19.871832 6.0406165 -0.60433447
-28.649036 8.7087002 -0.62224501
-17.2029 5.2293172 -0.2241632
-16.458534 5.003046 -0.07148461
-16.140749 4.906446 0.070104368
-15.972468 4.8552923 0.20813
-15.827394 4.8111925 0.34376433
-15.731757 4.7821212 0.47842813
-15.686884 4.7684808 0.61348033
-15.65562 4.7589769 0.74848735
-15.659254 4.7600818 0.8850261
-15.674623 4.7647533 1.0225163
-15.755684 4.7893944 1.1652749
-15.887408 4.8294358 1.3138002
-16.134321 4.9044919 1.4753441
-17.121325 5.2045202 1.7155737
-18.067764 5.4922175 1.9689273
-18.294722 5.5612082 2.1544492
-2.0374992 0.59208941 -0.56852978
-2.1086342 0.61276096 -0.56886154
-2.1830957 0.63439918 -0.56882989
-2.2468936 0.65293866 -0.5648315
-2.325851 0.67588335 -0.56341922
-2.4352818 0.7076835 -0.56775272
-2.5406954 0.7383163 -0.56927931
-2.6433573 0.76814944 -0.56838721
-2.7565434 0.80104089 -0.56789237
-2.8936093 0.84087169 -0.57014823
-3.0227826 0.87840897 -0.56854367
-3.1812606 0.92446208 -0.56996149
-3.3541563 0.97470492 -0.57109076
-3.5340996 1.0269958 -0.57036555
-3.7488775 1.0894094 -0.57184494
-3.987803 1.1588402 -0.57307762
-4.2418852 1.2326756 -0.57222098
-4.5398598 1.3192657 -0.5725078
-4.8787289 1.4177399 -0.57243961
-5.2940221 1.5384223 -0.57480896
-5.7685976 1.6763322 -0.57591021
-6.3208418 1.8368123 -0.57587743
-7.0135355 2.0381064 -0.57786423
-7.8667583 2.2860496 -0.57969487
-8.9571695 2.6029191 -0.58217895
-10.388142 3.018754 -0.58497244
-12.372446 3.5953853 -0.58936226
-15.274086 4.4385905 -0.59515727
-19.946093 5.7962575 -0.60437959
-28.764938 8.3589802 -0.62248284
-51.490288 14.962879 -0.66849858
-17.101912 4.9697495 -0.074007988
-16.692062 4.8506494 0.072234377
-16.446842 4.7793894 0.21352942
-16.274158 4.7292075 0.35217819
-16.17453 4.7002563 0.49009883
-16.129271 4.6871037 0.6284796
-16.107231 4.6806993 0.76726896
-16.112686 4.6822844 0.90733045
-16.163876 4.6971602 1.0505849
-16.291151 4.7341456 1.2004813
-16.545725 4.8081236 1.363247
-17.222099 5.0046759 1.569066
-18.909777 5.4951086 1.8878651
-18.712292 5.4377198 2.0317245
-18.688133 5.4306998 2.192749
-2.0364616 0.56472868 -0.5662598
-2.1125484 0.58582819 -0.56793118
-2.170037 0.60177034 -0.56345671
-2.272311 0.63013172 -0.56923014
-2.3441293 0.6500476 -0.5658679
-2.4384584 0.67620587 -0.56651199
-2.5403531 0.70446217 -0.56721878
-2.6495214 0.73473549 -0.56772709
-2.7741654 0.7693004 -0.56953084
-2.9065745 0.80601859 -0.57070684
-3.0230668 0.83832294 -0.5666154
-3.1927433 0.88537574 -0.57002515
-3.3503807 0.92908996 -0.56845975
-3.5457101 0.98325646 -0.57024491
-3.7480564 1.0393689 -0.56972706
-3.9836934 1.1047131 -0.57049173
-4.2699671 1.1840993 -0.57400161
-4.5556269 1.2633153 -0.57249391
-4.9153867 1.3630799 -0.57473069
-5.2961364 1.468665 -0.57303441
-5.778965 1.6025577 -0.57493442
-6.3710175 1.766739 -0.57842577
-7.0341778 1.9506391 -0.57754505
-7.9036894 2.1917624 -0.58038646
-8.9898052 2.4929519 -0.58226365
-10.429315 2.8921404 -0.58524412
-12.416122 3.4430995 -0.58938146
-15.323153 4.2492447 -0.59498817
-20.024435 5.5529513 -0.60463876
-28.856253 8.0020924 -0.62228251
-51.69883 14.336538 -0.66886675
-17.961519 4.9808865 -0.077457011
-17.45146 4.8394427 0.075257435
-17.196842 4.7688351 0.22248851
-17.01981 4.7197423 0.36703068
-16.922255 4.6926894 0.51096827
-16.868341 4.6777391 0.65498686
-16.863947 4.6765199 0.80051535
-16.881014 4.681253 0.94728309
-16.985756 4.710299 1.1001559
-17.237215 4.7800307 1.2657691
-17.767469 4.9270749 1.4588078
-19.917599 5.523325 1.8083223
-19.905062 5.5198479 1.9803035
-19.293159 5.3501625 2.0874922
-18.791924 5.211165 2.1972423
-2.0384469 0.53837764 -0.56492829
-2.1386938 0.56485403 -0.57304949
-2.1966853 0.58017027 -0.56848061
-2.2633533 0.59777808 -0.5651021
-2.3715937 0.62636566 -0.57059538
-2.4530735 0.64788544 -0.56801361
-2.5628428 0.67687678 -0.57033885
-2.6739185 0.70621312 -0.57105082
-2.7799823 0.73422581 -0.56882852
-2.9076219 0.76793694 -0.56901538
-3.0465016 0.80461669 -0.56911033
-3.2161975 0.84943539 -0.57230449
-3.371145 0.89035881 -0.57008213
-3.5430796 0.93576878 -0.56792837
-3.7601354 0.9930957 -0.56966388
-4.0028172 1.0571908 -0.57132554
-4.2730031 1.1285501 -0.57250094
-4.5847812 1.2108942 -0.57424301
-4.9208465 1.2996531 -0.57345712
-5.3214431 1.4054554 -0.57385927
-5.8083644 1.5340569 -0.57593906
-6.377027 1.6842475 -0.57704753
-7.0783153 1.8694658 -0.57923776
-7.9351892 2.0957763 -0.58076322
-9.0131302 2.3804731 -0.5818345
-10.454132 2.7610586 -0.58468735
-12.451886 3.2886887 -0.58911496
-15.384953 4.0633459 -0.59540278
-20.073807 5.3017273 -0.60411537
-28.979275 7.6537657 -0.62285882
-51.915283 13.711433 -0.6694352
-18.674795 4.9322319 0.080265321
-18.123623 4.7866607 0.23369981
-17.912535 4.7309098 0.38499859
-17.802174 4.7017622 0.53575128
-17.757532 4.6899719 0.6872223
-17.763687 4.6915975 0.84042323
-17.825136 4.7078266 0.99693894
-18.076818 4.7742991 1.1669328
-21.481688 5.6735649 1.5722088
-21.261183 5.6153269 1.7398603
-21.051273 5.5598879 1.9048978
-19.924517 5.2622976 1.9756521
-19.081516 5.0396514 2.0577321
-18.647188 4.9249406 2.173074
-4.8092465 1.2701783 1.3328184
-2.0603104 0.517138 -0.56918216
-2.1356266 0.53604239 -0.57041836
-2.2140794 0.5557341 -0.57117045
-2.2800171 0.57228446 -0.56746274
-2.3751023 0.59615082 -0.56963271
-2.4720125 0.62047529 -0.57058918
-2.565733 0.6439991 -0.56917667
-2.679769 0.6726222 -0.57049084
-2.792218 0.70084691 -0.56952572
-2.9150286 0.73167235 -0.56866115
-3.0698037 0.77052093 -0.57165015
-3.2104619 0.80582613 -0.56947756
-3.3946187 0.85204953 -0.57223666
-3.5616145 0.89396548 -0.5690943
-3.7875624 0.95067841 -0.5720048
-4.0257058 1.0104525 -0.57277578
-4.2945056 1.0779213 -0.57356268
-4.5896916 1.1520129 -0.57304049
-4.9392705 1.2397572 -0.57378423
-5.3458567 1.3418103 -0.57466924
-5.8279233 1.4628092 -0.57605135
-6.4006572 1.6065654 -0.57735449
-7.0823908 1.7776805 -0.57773882
-7.9393387 1.9927745 -0.57922971
-9.0481644 2.2710898 -0.58224928
-10.512852 2.6387265 -0.58611244
-12.494473 3.1361136 -0.58926076
-15.434575 3.8740795 -0.59543455
-20.162066 5.0606799 -0.60485303
-29.073706 7.297502 -0.6229127
-52.107475 13.078979 -0.66978908
-19.975349 5.013814 0.42797774
-19.209867 4.8216782 0.57628751
-19.114002 4.797616 0.73737937
-19.535406 4.903388 0.92132324
-22.400829 5.6226096 2.0206079
-19.668196 4.9367185 1.94407
-18.889479 4.7412601 2.0305824
-18.499493 4.643374 2.1490457
-5.3390985 1.3401141 1.3773377
-4.7468128 1.1914502 1.267857
-4.4149666 1.1081569 1.2196804
-2.0674558 0.49199063 -0.5694418
-2.1254425 0.5057897 -0.5659942
-2.2144775 0.5269773 -0.56955838
-2.2808931 0.54278213 -0.56597686
-2.3883326 0.56834942 -0.57108653
-2.465925 0.58681399 -0.56747562
-2.5814526 0.61430597 -0.57094496
-2.6798141 0.63771302 -0.56878805
-2.8155212 0.67000711 -0.57255518
-2.9351323 0.69847089 -0.57086438
-3.0653191 0.7294513 -0.56910175
-3.2387257 0.77071673 -0.57276672
-3.402144 0.80960518 -0.57178378
-3.5734856 0.85037923 -0.56927729
-3.7914801 0.90225518 -0.57087779
-4.0156918 0.95561057 -0.56963599
-4.2938972 1.0218149 -0.57176006
-4.6046648 1.0957681 -0.57318437
-4.9575567 1.1797454 -0.57417995
-5.3665853 1.2770816 -0.57516599
-5.8244014 1.3860277 -0.57397521
-6.4054899 1.5243088 -0.57605612
-7.1026173 1.6902037 -0.57764971
-7.9715495 1.8969827 -0.5798341
-9.0819845 2.1612318 -0.58267146
-10.532835 2.5064895 -0.58546394
-12.541208 2.9844203 -0.58968955
-15.485229 3.6850061 -0.59559554
-20.223455 4.8125577 -0.60487366
-29.171389 6.9418898 -0.62312961
-52.293095 12.444141 -0.67015743
-20.362976 4.8457594 1.8312756
-19.422318 4.6219115 1.9140042
-18.69627 4.4491348 2.0037804
-18.33061 4.3621192 2.1230352
-5.1478338 1.2250254 1.2773745
-4.7278171 1.1250745 1.2159834
-4.4417672 1.0570034 1.1828194
-4.2295136 1.0064936 1.1649399
-2.0578556 0.46304679 -0.56518662
-2.1406429 0.48167512 -0.56842184
-2.2083547 0.49691123 -0.5663693
-2.2859185 0.51436412 -0.5656116
-2.3894188 0.53765321 -0.56972235
-2.4774008 0.55745041 -0.56849611
-2.5824637 0.58109105 -0.56954521
-2.6994686 0.60741884 -0.5713312
-2.798363 0.62967145 -0.56744844
-2.949836 0.66375506 -0.57209343
-3.0743527 0.69177306 -0.56915659
-3.242269 0.72955668 -0.57176363
-3.4042215 0.76599824 -0.57050681
-3.6008024 0.81023175 -0.5719986
-3.8095584 0.85720479 -0.57196945
-4.0418973 0.90948439 -0.57172376
-4.32166 0.972435 -0.57382131
-4.6225204 1.0401328 -0.57377154
-4.9780641 1.1201352 -0.5749163
-5.3864045 1.2120177 -0.57564926
-5.8400488 1.3140941 -0.57388145
-6.4443865 1.4500786 -0.57790691
-7.1200004 1.6021013 -0.57741761
-7.9880447 1.7974237 -0.57938248
-9.0850248 2.0442598 -0.5812099
-10.559817 2.3761091 -0.58529544
-12.570532 2.8285484 -0.58938843
-15.529426 3.4943416 -0.5955978
-20.283495 4.5640745 -0.60494506
-29.26368 6.584744 -0.62332428
-52.478146 11.80833 -0.67061746
-21.829542 4.9119573 1.5833228
-21.061438 4.7391229 1.7080399
-20.307486 4.5694733 1.8210945
-19.174938 4.3146338 1.8842551
-18.525356 4.1684685 1.9798194
-18.193583 4.0938148 2.1011758
-5.7952819 1.3040209 1.3298595
-5.1203628 1.1521544 1.2208765
-4.7496929 1.0687485 1.1752307
-4.4836473 1.0088843 1.1499058
-4.249218 0.9561345 1.1283284
-4.0718536 0.91622496 1.1183277
-2.0678496 0.43865463 -0.5664072
-2.1450722 0.4550359 -0.56806928
-2.2164352 0.47017416 -0.56691599
-2.3085465 0.48971385 -0.56967753
-2.3989778 0.50889707 -0.57046634
-2.4820127 0.52651137 -0.56802583
-2.5884686 0.5490939 -0.56933743
-2.7094657 0.57476115 -0.571908
-2.8111937 0.59634078 -0.56852037
-2.9482152 0.62540728 -0.57024455
-3.1039984 0.6584537 -0.57310265
-3.2408757 0.68748957 -0.56998402
-3.41345 0.72409791 -0.57051808
-3.5947011 0.76254684 -0.56949681
-3.816931 0.80968869 -0.57153833
-4.0607734 0.86141515 -0.57285213
-4.3252254 0.91751355 -0.57275337
-4.6230683 0.98069525 -0.57229948
-4.9782562 1.0560415 -0.57339549
-5.405303 1.1466312 -0.57611859
-5.8870025 1.2488146 -0.57694286
-6.4554744 1.369405 -0.57734758
-7.1457324 1.5158299 -0.57794911
-8.0104885 1.6992714 -0.57945102
-9.1093121 1.9323657 -0.58119959
-10.596395 2.247822 -0.58574659
-12.602508 2.6733801 -0.58930176
-15.563993 3.3016026 -0.59532154
-20.340736 4.3148966 -0.6050241
-29.347908 6.2255955 -0.62344068
-52.637066 11.165943 -0.67084301
-22.168268 4.7025723 1.6035756
-21.952507 4.6568031 1.7755257
-19.848392 4.2104559 1.7751478
-18.933659 4.0164123 1.855552
-18.314764 3.8851256 1.9520601
-18.050375 3.8290408 2.079042
-5.63416 1.1951789 1.2392416
-5.1251469 1.0872015 1.1729254
-4.784965 1.0150385 1.1378437
-4.5161166 0.95800745 1.1144372
-4.2962527 0.91136754 1.0988882
-4.1132779 0.87255299 1.0892999
-3.9566069 0.83931822 1.083759
-2.070708 0.41272199 -0.56575727
-2.1514106 0.42880717 -0.56830847
-2.2289042 0.44425279 -0.56866515
-2.2931728 0.45706245 -0.5644542
-2.3986232 0.47808021 -0.56894112
-2.4929502 0.49688095 -0.56908756
-2.6019621 0.51860863 -0.57085955
-2.7144213 0.54102337 -0.57150656
-2.8295131 0.56396276 -0.5707795
-2.9448218 0.58694553 -0.56814927
-3.1019201 0.61825746 -0.57127213
-3.2538233 0.64853394 -0.5708155
-3.436167 0.68487763 -0.57286406
-3.6169899 0.7209183 -0.57158035
-3.8213615 0.76165253 -0.57075626
-4.0675678 0.81072497 -0.57236105
-4.3187475 0.8607887 -0.57045078
-4.6539865 0.9276067 -0.57467145
-4.9882202 0.99422431 -0.57309169
-5.4102926 1.0783495 -0.57519364
-5.8955793 1.1750741 -0.57632375
-6.4728513 1.2901328 -0.57743925
-7.1772041 1.4305204 -0.57902807
-8.0297279 1.6004407 -0.57937533
-9.1555986 1.8248429 -0.58267707
-10.607968 2.1143212 -0.58490491
-12.650079 2.5213432 -0.59003186
-15.605886 3.1104784 -0.59541589
-20.394438 4.0649056 -0.60508895
-29.446394 5.8690915 -0.62395257
-52.814285 10.526649 -0.6714012
-23.432125 4.670361 1.6907167
-23.282005 4.6404395 1.8782988
-19.49827 3.8862867 1.7394291
-18.707869 3.7287481 1.8287921
-18.165497 3.6206458 1.9312594
-17.931423 3.5739915 2.0601234
-5.6011219 1.1163844 1.1792855
-5.1569448 1.0278536 1.131412
-4.8252864 0.9617492 1.1015104
-4.5723352 0.91133237 1.0845344
-4.3596501 0.86894119 1.0731083
-4.1760845 0.83235389 1.0654533
-4.0159883 0.80044442 1.0608482
-3.865592 0.77046829 1.0561541
-2.0866938 0.38929513 -0.56877404
-2.1589789 0.40278065 -0.56895638
-2.2285824 0.41576594 -0.56723577
-2.3231623 0.43341082 -0.570481
-2.4024603 0.44820473 -0.568501
-2.4916239 0.46483919 -0.56743717
-2.6012709 0.485295 -0.56935561
-2.7168255 0.50685292 -0.57065743
-2.8278565 0.52756697 -0.56909376
-2.9601724 0.55225194 -0.56975764
-3.1039507 0.57907528 -0.57029158
-3.2614815 0.60846436 -0.57080323
-3.4345284 0.64074808 -0.57123417
-3.6369574 0.67851341 -0.57337391
-3.8407738 0.71653759 -0.57229638
-4.0749283 0.76022154 -0.57203805
-4.3453569 0.81067294 -0.57260555
-4.6599073 0.86935568 -0.5740391
-5.0084815 0.93438601 -0.57405609
-5.432435 1.013479 -0.57617921
-5.9100304 1.1025796 -0.5763675
-6.4775281 1.2084523 -0.57648718
-7.1966743 1.3426168 -0.57922316
-8.0688972 1.5053394 -0.58082205
-9.1842527 1.7134209 -0.5831157
-10.650883 1.9870365 -0.58587962
-12.673341 2.3643477 -0.58971626
-15.664404 2.9223626 -0.59623247
-20.452684 3.8156679 -0.60537928
-29.50968 5.5053473 -0.62381196
-52.959644 9.8801899 -0.67165381
-19.195562 3.5811381 1.7083672
-18.504164 3.4521501 1.8045928
-18.00168 3.3584068 1.9093086
-17.787939 3.3185308 2.0387962
-18.149548 3.3859928 2.2357848
-6.3287001 1.1806868 1.2181132
-5.625082 1.0494194 1.1320231
-5.2176223 0.97340333 1.0959388
-4.9041753 0.91492653 1.073406
-4.6317582 0.86410421 1.0548267
-4.4279962 0.82609016 1.0478094
-4.2340765 0.7899124 1.0397295
-4.0718884 0.75965446 1.0364081
-3.9279358 0.73279858 1.0351301
-3.7961168 0.7082063 1.0347146
-2.0926929 0.3638469 -0.56914669
-2.1494794 0.37372011 -0.5651992
-2.2230091 0.38650438 -0.56456482
-2.3310034 0.40528083 -0.57113957
-2.4188087 0.42054716 -0.57110274
-2.494559 0.43371749 -0.56684816
-2.6177332 0.45513323 -0.57169068
-2.7147479 0.47200072 -0.56895888
-2.8230565 0.49083185 -0.56687027
-2.9689145 0.51619148 -0.57017547
-3.1117766 0.54103029 -0.57046396
-3.2681417 0.56821674 -0.57070291
-3.4408307 0.59824139 -0.57101572
-3.6351352 0.63202423 -0.57181817
-3.8459191 0.66867226 -0.57179469
-4.0792532 0.70924103 -0.57137781
-4.3688335 0.75958896 -0.57442492
-4.6571674 0.80972028 -0.5724318
-5.0110612 0.87125015 -0.57308042
-5.4314022 0.94433296 -0.57479465
-5.9132628 1.0281118 -0.57540637
-6.5051599 1.1310222 -0.57766497
-7.1962266 1.2511748 -0.57790512
-8.0901632 1.4065994 -0.58106381
-9.17486 1.5951906 -0.58123004
-10.669704 1.8550925 -0.58561593
-12.708838 2.2096272 -0.5900591
-15.671632 2.7247546 -0.59518731
-20.505716 3.5652347 -0.6056056
-29.571598 5.1414776 -0.62373722
-53.0882 9.2302008 -0.67179394
-18.891417 3.2845638 1.6775775
-18.305462 3.1826863 1.7812634
-17.853897 3.1041751 1.8894429
-17.669291 3.0720782 2.0207148
-17.949907 3.120868 2.2062979
-6.2986503 1.0951173 1.154695
-5.6781678 0.98723692 1.0904834
-5.2981176 0.92115933 1.063863
-4.9683533 0.86382473 1.0412711
-4.7181559 0.82032412 1.0304052
-4.5076346 0.78372169 1.024287
-4.3193851 0.75099158 1.0198461
-4.1398411 0.71977514 1.0143387
-3.9927251 0.69419676 1.0140095
-3.8558695 0.67040235 1.0138894
-3.7271078 0.64801508 1.0136561
-2.0841193 0.33601055 -0.56564844
-2.1678617 0.34951186 -0.56885964
-2.2328444 0.35998863 -0.56589562
-2.3398027 0.37723294 -0.57211578
-2.4147725 0.38931987 -0.5689764
-2.4999459 0.40305185 -0.56690311
-2.5967577 0.41866028 -0.5659427
-2.7180743 0.43821949 -0.56848371
-2.8392115 0.45774972 -0.56894094
-2.9682386 0.47855201 -0.56887251
-3.1165736 0.50246722 -0.5701676
-3.268204 0.5269137 -0.56953931
-3.4434922 0.55517441 -0.57028139
-3.6324606 0.58564073 -0.57022154
-3.8508224 0.62084597 -0.57134545
-4.0916224 0.65966874 -0.57193089
-4.375051 0.70536429 -0.57405859
-4.6741271 0.7535826 -0.57333404
-5.0374355 0.81215668 -0.57491112
-5.4444366 0.87777513 -0.57498831
-5.9340305 0.95670956 -0.57623887
-6.5140443 1.0502219 -0.57726347
-7.2160759 1.1634064 -0.57830662
-8.0974083 1.3054986 -0.58038735
-9.2243719 1.4871924 -0.58316404
-10.695289 1.7243398 -0.58581209
-12.726745 2.0518599 -0.58967447
-15.726716 2.5355279 -0.59605014
-20.546936 3.3126643 -0.60557413
-29.659824 4.7818828 -0.62431073
-53.211426 8.5789719 -0.67196757
-19.602827 3.1604509 1.5709984
-18.633823 3.0042243 1.6512977
-18.109764 2.9197328 1.7585939
-17.698597 2.8534431 1.8691533
-17.542685 2.8283062 2.0021071
-17.789026 2.8680224 2.1820235
-7.5110359 1.2109611 1.2439128
-6.3414674 1.0223984 1.1051069
-5.787406 0.93307012 1.0587882
-5.379787 0.86735213 1.0310535
-5.0697803 0.81737149 1.0159179
-4.8087835 0.77529252 1.0057545
-4.5821352 0.73875129 0.99864
-4.3971076 0.7089203 0.99711525
-4.214726 0.67951602 0.99308723
-4.0726471 0.65660942 0.9958213
-3.9141963 0.63106334 0.99202019
-3.8001351 0.61267394 0.9971779
-3.6688099 0.59150112 0.99574757
-2.1011975 0.31230751 -0.56919831
-2.1682343 0.32227144 -0.56787467
-2.2494423 0.33434162 -0.56901729
-2.326493 0.3457939 -0.56777871
-2.4299901 0.36117697 -0.57147235
-2.5093417 0.37297127 -0.5679509
-2.6227243 0.38982368 -0.57051408
-2.715122 0.40355703 -0.56678551
-2.854707 0.42430398 -0.57095736
-2.9768279 0.44245517 -0.56943291
-3.1249876 0.46447664 -0.57061893
-3.2863004 0.48845303 -0.57160294
-3.4615948 0.51450759 -0.57218832
-3.6366599 0.54052806 -0.56979436
-3.8633089 0.57421565 -0.5721072
-4.0948992 0.60863763 -0.57129961
-4.375495 0.65034342 -0.57302427
-4.6924219 0.69744927 -0.57448274
-5.0386844 0.74891531 -0.57395929
-5.4576778 0.81119162 -0.57528979
-5.9340944 0.88200289 -0.5751484
-6.5292811 0.97046733 -0.57751256
-7.2433519 1.0766019 -0.57938778
-8.1114521 1.2056304 -0.58028752
-9.2288561 1.3717136 -0.58233714
-10.701915 1.5906589 -0.58505946
-12.751557 1.8953037 -0.58969975
-15.751528 2.3411984 -0.5958544
-20.59602 3.0612507 -0.60586554
-29.698811 4.4142265 -0.6239416
-53.318497 7.9248939 -0.67203832
-19.160698 2.8479142 1.5326433
-18.39698 2.7344005 1.6272063
-17.909262 2.6619093 1.735814
-17.563614 2.6105347 1.8513676
-17.399811 2.5861878 1.9820218
-17.620295 2.6189592 2.1572134
-7.4053483 1.10068 1.160275
-6.4617996 0.96043742 1.0681107
-5.8924475 0.87581283 1.0249034
-5.5068173 0.81849539 1.0055381
-5.1807384 0.77002931 0.99101573
-4.9113021 0.72998208 0.98228788
-4.6678371 0.6937952 0.97441763
-4.4783406 0.66562968 0.97416127
-4.3024216 0.63948232 0.97378695
-4.1395125 0.61526865 0.97350895
-4.0000324 0.59453726 0.97620469
-3.8710287 0.57536304 0.97921264
-3.730526 0.55447972 0.97704905
-3.6179085 0.53774101 0.98006374
-2.1161523 0.28798276 -0.57224691
-2.1672187 0.29493228 -0.566616
-2.2536533 0.30669498 -0.56908554
-2.3278584 0.31679341 -0.56711841
-2.4174063 0.32897979 -0.56751871
-2.5122025 0.34188041 -0.56760401
-2.614665 0.35582429 -0.56776631
-2.7322156 0.37182155 -0.56935644
-2.8706872 0.39066583 -0.57314938
-3.0013707 0.40845031 -0.57312363
-3.127775 0.42565238 -0.57012904
-3.2786021 0.44617814 -0.56926668
-3.4618549 0.4711166 -0.57123059
-3.6448479 0.49601975 -0.57007849
-3.868171 0.52641135 -0.57182544
-4.1053028 0.55868208 -0.57174939
-4.3744373 0.59530807 -0.5718838
-4.6766009 0.63642883 -0.57154447
-5.0530005 0.68765229 -0.57458341
-5.467947 0.74412155 -0.57536429
-5.9555016 0.81047183 -0.57621378
-6.541533 0.89022356 -0.57758439
-7.2350659 0.98460501 -0.57771289
-8.1197596 1.1050012 -0.57986593
-9.2459955 1.2582682 -0.5823983
-10.739055 1.4614556 -0.58606309
-12.784373 1.7397987 -0.59018338
-15.772163 2.1464009 -0.59559155
-20.628822 2.8073335 -0.60576916
-29.76882 4.0511765 -0.62431866
-53.455486 7.2746458 -0.67258662
-18.791103 2.5572422 1.5004512
-18.157951 2.4710777 1.6032555
-17.735243 2.4135523 1.7159413
-17.443068 2.3737907 1.8354453
-17.247932 2.3472352 1.9612854
-17.498083 2.3812776 2.1385047
-9.3404684 1.2711248 1.3008559
-7.4661765 1.0160564 1.1037127
-6.6157875 0.9003287 1.0347532
-6.0423245 0.82228738 0.99702638
-5.6336565 0.76667255 0.97817689
-5.3029885 0.72167265 0.96662575
-5.0339646 0.68506175 0.96125549
-4.7799654 0.65049553 0.95434791
-4.5909138 0.6247679 0.9566837
-4.3911328 0.59758008 0.95352072
-4.2376041 0.57668668 0.95743912
-4.0592489 0.55241472 0.95296341
-3.9301047 0.53483975 0.95746148
-3.8035927 0.51762301 0.96047133
-3.6919255 0.50242645 0.96524829
-3.5825806 0.48754594 0.96879637
-2.1126649 0.26109293 -0.57039255
-2.1852698 0.27006578 -0.57042408
-2.2555633 0.27875298 -0.56865931
-2.3465681 0.28999978 -0.5707646
-2.4367957 0.3011505 -0.57115811
-2.5321405 0.31293368 -0.5711962
-2.619559 0.32373723 -0.56792164
-2.7386417 0.33845407 -0.56978518
-2.8638871 0.35393244 -0.57087964
-2.9923291 0.36980593 -0.57048565
-3.1374164 0.38773647 -0.57097423
-3.2983308 0.40762302 -0.57177866
-3.4757309 0.42954695 -0.57260537
-3.6638606 0.45279688 -0.57213807
-3.8835506 0.47994721 -0.57318324
-4.1241035 0.50967586 -0.57345158
-4.3859997 0.5420422 -0.5724808
-4.7179337 0.58306414 -0.5756762
-5.0605898 0.62541115 -0.57452846
-5.4760413 0.67675459 -0.57529682
-5.9871521 0.73992008 -0.57835203
-6.5466318 0.80906308 -0.5771125
-7.2489619 0.89586031 -0.57789916
-8.1404648 1.0060364 -0.58041728
-9.2724075 1.1459271 -0.5831303
-10.762282 1.3300529 -0.58639383
-12.793877 1.5811267 -0.58967996
-15.823971 1.9555997 -0.59659475
-20.6572 2.5529125 -0.60563487
-29.830448 3.6865852 -0.62461323
-53.547989 6.6177087 -0.67267579
-19.75057 2.4408669 1.4082208
-18.504982 2.2869315 1.4752475
-17.954027 2.218842 1.5827214
-17.546295 2.1684525 1.694952
-16.876307 2.0856524 1.7729753
-16.487452 2.0375957 1.8718194
-16.498528 2.0389645 2.013129
-8.9197474 1.1023437 1.1642462
-7.6096621 0.94043732 1.0581143
-6.8019123 0.84061188 1.0039117
-6.1950293 0.76561046 0.96739829
-5.7919636 0.71579772 0.95419055
-5.4401026 0.67231309 0.94306326
-5.1655889 0.63838744 0.94007862
-4.9184251 0.60784179 0.93769461
-4.6866274 0.57919514 0.93421978
-4.507165 0.55701637 0.93773341
-4.3270416 0.53475589 0.93810469
-4.1823587 0.51687527 0.94344974
-4.0160675 0.49632427 0.94132215
-3.9050107 0.48259932 0.94983041
-3.7701042 0.46592698 0.95049638
-3.653029 0.45145828 0.95355535
-3.5479679 0.43847433 0.95790601
-2.118696 0.23542804 -0.57119608
-2.1785574 0.24207978 -0.56785196
-2.254945 0.25056791 -0.5676837
-2.3298173 0.25888768 -0.56587315
-2.4351335 0.27059034 -0.56994557
-2.5282955 0.28094244 -0.56950647
-2.6308718 0.29234067 -0.56955189
-2.7361939 0.30404398 -0.5684551
-2.8416412 0.31576121 -0.56562847
-2.9947312 0.33277246 -0.57012039
-3.1303997 0.34784785 -0.56887585
-3.2947309 0.36610821 -0.5703311
-3.4621582 0.38471261 -0.569547
-3.6623223 0.40695471 -0.57107329
-3.8825834 0.43142995 -0.57221419
-4.1398773 0.46002027 -0.57481486
-4.3940673 0.48826572 -0.57270682
-4.7168217 0.52412993 -0.57471061
-5.0500073 0.56115329 -0.57250041
-5.48071 0.60901272 -0.57495713
-5.9734883 0.66376984 -0.57620013
-6.5538549 0.7282598 -0.57691628
-7.2684731 0.80766767 -0.57861918
-8.1634274 0.90711439 -0.58121526
-9.2843008 1.0316651 -0.58303642
-10.776347 1.1974602 -0.58631355
-12.815686 1.4240701 -0.5898335
-15.825907 1.7585638 -0.59580743
-20.679832 2.2979286 -0.60542423
-29.87207 3.3193638 -0.62458289
-53.653267 5.9619136 -0.6730265
-19.052767 2.11713 1.3565085
-16.870611 1.8746506 1.3430136
-16.018909 1.7800102 1.4100968
-15.617171 1.7353692 1.5064256
-15.298822 1.6999946 1.604932
-15.024316 1.6694915 1.7032504
-8.985507 0.99846327 1.0948191
-7.8226299 0.86924523 1.0195733
-7.0213189 0.78020412 0.97489816
-6.4173155 0.71308768 0.94578242
-5.9662457 0.66296506 0.93032867
-5.6099591 0.62337476 0.9228738
-5.2973447 0.58863723 0.91699153
-5.036037 0.55960095 0.91518021
-4.8096938 0.53444988 0.91564292
-4.60741 0.51197219 0.91710454
-4.4313574 0.49240935 0.92063195
-4.2750912 0.47504517 0.92550552
-4.119556 0.45776221 0.92794293
-3.9713292 0.44129133 0.92949378
-3.8523495 0.4280704 0.93567044
-3.7373142 0.41528776 0.940871
-3.6048434 0.40056771 0.93962067
-3.5221233 0.3913759 0.94955724
-2.0972915 0.20697747 -0.56469661
-2.1813164 0.21526973 -0.56783825
-2.2705956 0.2240805 -0.57088685
-2.347801 0.23169976 -0.56950605
-2.4260323 0.23942025 -0.56708348
-2.5339746 0.25007287 -0.57004994
-2.6353571 0.2600781 -0.5697875
-2.7520487 0.27159417 -0.57101196
-2.8818221 0.28440124 -0.57288706
-3.0047765 0.29653534 -0.57129538
-3.1338298 0.30927137 -0.5687651
-3.2979381 0.32546687 -0.57015038
-3.4825134 0.34368223 -0.57215703
-3.6652179 0.36171299 -0.57078809
-3.8874278 0.38364244 -0.57218969
-4.1274409 0.40732881 -0.57234937
-4.4086256 0.43507838 -0.57386363
-4.7152772 0.46534121 -0.57378191
-5.0688405 0.50023371 -0.57389474
-5.4823847 0.54104549 -0.57439142
-5.9816294 0.59031498 -0.57624167
-6.5621653 0.64760685 -0.57690316
-7.2770724 0.71815968 -0.57855701
-8.1670065 0.80598551 -0.5807206
-9.2982893 0.91762948 -0.58316219
-10.766254 1.0625 -0.58500934
-12.84447 1.2675949 -0.59039623
-15.854664 1.564665 -0.59612066
-20.738441 2.0466352 -0.60635746
-29.910938 2.9518504 -0.62458938
-53.730553 5.3025599 -0.67312717
-17.3431 1.7115556 0.94237751
-16.475807 1.6259643 1.0333157
-15.963279 1.5753839 1.1350797
-15.584314 1.5379846 1.2390167
-15.259556 1.5059348 1.3415215
-14.986499 1.4789875 1.443728
-11.112764 1.0966964 1.1642884
-9.1965561 0.90758961 1.0412351
-8.0793238 0.79733223 0.98313838
-7.289547 0.71939075 0.94886845
