# .PCD v0.7 - Point Cloud Data file format
VERSION 0.7
FIELDS x y z
SIZE 4 4 4
TYPE F F F
COUNT 1 1 1
WIDTH 1398
HEIGHT 1
VIEWPOINT 0 0 0 1 0 0 0
POINTS 1398
DATA ascii
-2.370337 -4.4572401 -0.56880766
-2.562027 -4.8176985 -0.56892347
-2.7970643 -5.2596684 -0.57110941
-3.0697782 -5.7724862 -0.57199794
-3.3904643 -6.3755116 -0.57132113
-3.799583 -7.1448288 -0.57262713
-4.3173909 -8.1185274 -0.57390416
-4.9996028 -9.4013758 -0.57579172
-5.9314981 -11.153734 -0.57786113
-7.2911196 -13.7104 -0.58103603
-9.4558926 -17.781092 -0.58598548
-13.45741 -25.305643 -0.59560424
-23.293875 -43.802372 -0.61851358
-0.97447324 -1.8880628 -0.56931263
-1.0059568 -1.9490629 -0.5682112
-1.0395387 -2.0141284 -0.56712061
-1.0799018 -2.0923328 -0.56838918
-1.1150924 -2.1605153 -0.56556916
-1.1621414 -2.2516739 -0.56727564
-1.2027867 -2.330425 -0.56426942
-1.2619175 -2.4449923 -0.56812584
-1.3165925 -2.5509262 -0.56790757
-1.3777888 -2.6694953 -0.56840205
-1.4457461 -2.8011639 -0.56934303
-1.5144019 -2.9341862 -0.56808394
-1.5917051 -3.0839627 -0.56742638
-1.6820884 -3.2590823 -0.56839257
-1.7779727 -3.4448602 -0.56784159
-1.8949707 -3.6715462 -0.57017386
-2.0103836 -3.8951612 -0.56781763
-2.15184 -4.1692362 -0.56816447
-2.3229604 -4.5007854 -0.57067633
-2.5058677 -4.8551722 -0.56966698
-2.7332504 -5.2957311 -0.57133263
-2.9901199 -5.7934217 -0.57038599
-3.3103468 -6.413868 -0.57106745
-3.7116973 -7.191493 -0.57266587
-4.214829 -8.1663208 -0.57357568
-4.8879113 -9.4704323 -0.57629645
-5.7892766 -11.216847 -0.57739913
-7.1120315 -13.779713 -0.58022344
-9.223525 -17.870777 -0.58515918
-13.126776 -25.433409 -0.59476733
-22.695522 -43.973061 -0.6169365
-0.94642639 -1.8903972 -0.56646454
-0.9778676 -1.9531981 -0.56586844
-1.0114458 -2.0202675 -0.56530446
-1.0527763 -2.1028211 -0.56767875
-1.0982549 -2.1936603 -0.57066739
-1.1231096 -2.2433052 -0.56164545
-1.1761357 -2.3492198 -0.56527567
-1.2228183 -2.4424639 -0.5640018
-1.2861882 -2.5690396 -0.56837618
-1.34003 -2.6765831 -0.56635994
-1.4059944 -2.8083408 -0.56724489
-1.4795179 -2.9551971 -0.56858659
-1.5558569 -3.1076772 -0.56822664
-1.6433998 -3.2825358 -0.56891561
-1.7358589 -3.4672139 -0.56796497
-1.8451927 -3.6855979 -0.56878948
-1.9628875 -3.9206822 -0.56797653
-2.1054533 -4.2054434 -0.56952745
-2.2607875 -4.5157094 -0.56900072
-2.4523344 -4.8983059 -0.57114661
-2.6649315 -5.3229485 -0.57069051
-2.9233084 -5.8390322 -0.57129431
-3.2355874 -6.4627795 -0.57183671
-3.6226408 -7.2358828 -0.5726102
-4.1115112 -8.2123547 -0.57321465
-4.7611356 -9.5099173 -0.57509315
-5.6487589 -11.282862 -0.57717818
-6.9417162 -13.865421 -0.58019429
-8.9904613 -17.957596 -0.58433789
-12.800598 -25.567984 -0.59418857
-22.108023 -44.158684 -0.61568022
-0.92461437 -1.9049878 -0.56738687
-0.95036668 -1.9580454 -0.5638445
-0.98365057 -2.0266204 -0.56365502
-1.0245099 -2.1108031 -0.5663898
-1.0669837 -2.1983118 -0.56842136
-1.1094482 -2.2858019 -0.56882656
-1.1560155 -2.3817446 -0.56963843
-1.197925 -2.468091 -0.56647521
-1.2487564 -2.5728192 -0.56577241
-1.3141791 -2.7076099 -0.56946272
-1.3694844 -2.8215559 -0.56646991
-1.4325632 -2.9515173 -0.56444663
-1.5167209 -3.124908 -0.56792414
-1.5993611 -3.2951717 -0.56765419
-1.6908724 -3.4837132 -0.56721896
-1.7999276 -3.7084 -0.5688498
-1.9201497 -3.9560943 -0.56964302
-2.0467291 -4.2168865 -0.56762588
-2.2107859 -4.5548935 -0.57046962
-2.382005 -4.9076571 -0.56877869
-2.6033459 -5.363687 -0.57158291
-2.8478398 -5.8674188 -0.5706023
-3.1509526 -6.4919238 -0.57094401
-3.5313292 -7.2756157 -0.57227492
-4.0160036 -8.2741928 -0.57404059
-4.6403484 -9.5605345 -0.57466006
-5.5077591 -11.347664 -0.576985
-6.7583494 -13.924262 -0.57913518
-8.7739153 -18.076944 -0.58466661
-12.461125 -25.673721 -0.59304011
-21.5212 -44.340237 -0.61447537
-0.89685792 -1.9071457 -0.56470221
-0.92774868 -1.9728341 -0.56477535
-0.97050971 -2.0637643 -0.57062346
-0.99532503 -2.1165335 -0.56460071
-1.0328043 -2.1962323 -0.56455714
-1.0762668 -2.2886541 -0.5662002
-1.1175277 -2.3763945 -0.56502956
-1.1660728 -2.4796245 -0.56578863
-1.2221473 -2.5988655 -0.56815237
-1.2720933 -2.7050743 -0.56559682
-1.3325452 -2.8336236 -0.56556028
-1.4035406 -2.9845936 -0.56742871
-1.4771239 -3.1410666 -0.56751692
-1.5573279 -3.3116183 -0.56714565
-1.6439173 -3.4957488 -0.56584448
-1.7531161 -3.7279572 -0.56850004
-1.874468 -3.9860086 -0.57058841
-2.0002313 -4.2534413 -0.56919259
-2.1568 -4.586381 -0.57104844
-2.322614 -4.9389801 -0.56905586
-2.5260582 -5.3715992 -0.56907296
-2.7745569 -5.9000254 -0.57041222
-3.070837 -6.5300574 -0.57093364
-3.4372349 -7.3091931 -0.57154828
-3.9036353 -8.3009815 -0.57252568
-4.5206866 -9.6131268 -0.57443649
-5.3540592 -11.385272 -0.57550621
-6.5967193 -14.027757 -0.58002216
-8.5449371 -18.170593 -0.58425295
-12.128192 -25.790295 -0.59224319
-20.923153 -44.492558 -0.61297446
-0.87240577 -1.9159756 -0.5640977
-0.90706867 -1.9921021 -0.5670554
-0.93748432 -2.0589008 -0.56604856
-0.97091568 -2.1323228 -0.56558508
-1.0056236 -2.2085481 -0.56450164
-1.0456989 -2.2965615 -0.56493264
-1.0887887 -2.3911953 -0.5653227
-1.1320304 -2.4861624 -0.56406158
-1.1853096 -2.6031742 -0.56586522
-1.2472438 -2.7391939 -0.56948102
-1.3007336 -2.856668 -0.56692451
-1.3695346 -3.0077689 -0.5685901
-1.4387412 -3.15976 -0.56765503
-1.5169113 -3.3314371 -0.56730247
-1.604196 -3.5231316 -0.56704098
-1.7021444 -3.7382457 -0.56683433
-1.8196307 -3.996269 -0.56881118
-1.9460876 -4.273993 -0.56869757
-2.0932271 -4.5971408 -0.56914032
-2.260596 -4.964716 -0.56877536
-2.4651351 -5.4139242 -0.57030249
-2.6992886 -5.9281712 -0.56988132
-2.990906 -6.5686212 -0.57104665
-3.3474882 -7.3517456 -0.57161379
-3.8052804 -8.3571482 -0.57312894
-4.3970933 -9.6568861 -0.57377708
-5.2208977 -11.466124 -0.57630438
-6.4087887 -14.074967 -0.57867199
-8.3074675 -18.244841 -0.58331162
-11.80119 -25.917747 -0.59179288
-20.331982 -44.653049 -0.61169493
-0.84915316 -1.9274001 -0.56434441
-0.8789497 -1.9950321 -0.56477022
-0.91123223 -2.0683067 -0.56551117
-0.94952881 -2.155232 -0.56852162
-0.9890154 -2.2448583 -0.57063085
-1.0187094 -2.3122575 -0.56566954
-1.0624473 -2.4115334 -0.56699944
-1.1068878 -2.5124042 -0.5668844
-1.1580801 -2.6285999 -0.56825364
-1.2101675 -2.7468274 -0.56793135
-1.2640252 -2.8690729 -0.56625891
-1.3329039 -3.0254133 -0.56878424
-1.396856 -3.1705711 -0.56646866
-1.4744617 -3.34672 -0.56677467
-1.5613732 -3.5439909 -0.56726527
-1.6618246 -3.7719946 -0.56881022
-1.7667494 -4.0101519 -0.56765211
-1.891344 -4.2929554 -0.56808317
-2.0433955 -4.6380806 -0.57105488
-2.2049127 -5.0046906 -0.57020581
-2.3934209 -5.4325652 -0.56912291
-2.62798 -5.9649653 -0.57026881
-2.9061844 -6.5964313 -0.57031453
-3.2549534 -7.3880639 -0.57128245
-3.6970088 -8.3914375 -0.57231957
-4.2804351 -9.7156925 -0.57410043
-5.0762582 -11.522045 -0.57593423
-6.2333059 -14.148301 -0.57849199
-8.0722008 -18.322208 -0.58256763
-11.46603 -26.025494 -0.59098911
-19.739248 -44.803967 -0.61039114
-0.82693124 -1.9413123 -0.56539786
-0.85092705 -1.997645 -0.5625053
-0.88700545 -2.0823431 -0.56632394
-0.92177922 -2.1639783 -0.56779599
-0.94859165 -2.2269235 -0.5630644
-0.99452829 -2.3347647 -0.56814098
-1.0313778 -2.421273 -0.56626475
-1.0795531 -2.5343699 -0.56880248
-1.1203916 -2.6302426 -0.56558776
-1.1722565 -2.7520013 -0.56597799
-1.2321839 -2.8926876 -0.56788635
-1.2883565 -3.024559 -0.56560248
-1.3609569 -3.1949964 -0.56779969
-1.4342419 -3.3670409 -0.56718647
-1.5192021 -3.5664945 -0.56783426
-1.6166446 -3.7952514 -0.56927651
-1.716554 -4.0297999 -0.5674026
-1.8409525 -4.3218389 -0.56886673
-1.9808265 -4.6502085 -0.56950611
-2.1379137 -5.0189881 -0.56879652
-2.3267031 -5.4621921 -0.56918633
-2.5542703 -5.9964309 -0.5702312
-2.8290772 -6.6415706 -0.57116634
-3.1702302 -7.4424648 -0.57243139
-3.5938668 -8.4369984 -0.57236969
-4.1542187 -9.7524862 -0.5732128
-4.9303875 -11.574628 -0.57548869
-6.0543871 -14.213342 -0.57806367
-7.8446913 -18.416279 -0.58244759
-11.127588 -26.12324 -0.59005702
-19.143452 -44.941364 -0.60900998
-0.80133986 -1.9473007 -0.56422943
-0.83493799 -2.0289459 -0.56838524
-0.86306334 -2.0972922 -0.56746042
-0.8914386 -2.1662457 -0.56547201
-0.92324126 -2.2435279 -0.56434959
-0.95956236 -2.3317902 -0.56450331
-1.0039033 -2.4395409 -0.56760716
-1.0439116 -2.5367634 -0.56641585
-1.0900372 -2.6488512 -0.56666416
-1.1407719 -2.7721393 -0.56719178
-1.190798 -2.8937058 -0.56516892
-1.252968 -3.0447822 -0.56646031
-1.32098 -3.2100551 -0.56754631
-1.395287 -3.3906255 -0.56822628
-1.4703283 -3.5729802 -0.56594551
-1.5696136 -3.8142486 -0.569188
-1.6665605 -4.0498352 -0.56729531
-1.7798188 -4.3250594 -0.56636709
-1.9200437 -4.6658134 -0.56848282
-2.0812426 -5.0575356 -0.57022172
-2.2576742 -5.4862742 -0.56875998
-2.4740324 -6.0120373 -0.56877929
-2.7451286 -6.6708159 -0.57073534
-3.0658324 -7.4501443 -0.57007939
-3.4886456 -8.4776039 -0.57217085
-4.0324016 -9.7989616 -0.57298672
-4.7807903 -11.617587 -0.57465827
-5.8718252 -14.268864 -0.57734162
-7.6058683 -18.482685 -0.58154595
-10.795362 -26.233335 -0.58950084
-18.542459 -45.059216 -0.60747135
-0.78688371 -1.9810431 -0.57115954
-0.80874664 -2.0360847 -0.56755626
-0.83136666 -2.0930326 -0.56349927
-0.86262232 -2.171721 -0.56408978
-0.89908874 -2.2635283 -0.56655681
-0.93801695 -2.3615332 -0.56886846
-0.97246671 -2.4482632 -0.5668115
-1.0131447 -2.5506732 -0.56669718
-1.0609529 -2.6710341 -0.5685758
-1.1077508 -2.7888517 -0.56778127
-1.1595132 -2.919168 -0.56731433
-1.213367 -3.054749 -0.56549603
-1.2853394 -3.2359455 -0.56928635
-1.3459461 -3.3885276 -0.56505835
-1.4288013 -3.5971222 -0.56694376
-1.5231222 -3.8345826 -0.56938446
-1.6166251 -4.0699835 -0.56729019
-1.7349128 -4.3677826 -0.56912506
-1.8598959 -4.6824379 -0.56767887
-2.0097773 -5.0597758 -0.56764501
-2.1907201 -5.5153141 -0.56893486
-2.4002855 -6.0429115 -0.56886488
-2.6578913 -6.6914554 -0.56966186
-2.9812977 -7.5056567 -0.57147878
-3.3852124 -8.5225449 -0.57235134
-3.9130545 -9.851429 -0.57319784
-4.6364193 -11.672559 -0.57451391
-5.6979203 -14.344974 -0.57754254
-7.3716273 -18.558664 -0.58104056
-10.45263 -26.315338 -0.58841079
-17.951485 -45.194305 -0.60627079
-0.75236827 -1.9642057 -0.56359524
-0.77982676 -2.0358915 -0.56478679
-0.8083207 -2.1102805 -0.5654242
-0.83817828 -2.1882298 -0.56565791
-0.86850178 -2.2673953 -0.56480896
-0.90185761 -2.3544772 -0.56445462
-0.94732136 -2.4731693 -0.56983769
-0.98057377 -2.5599813 -0.5660435
-1.0232953 -2.6715143 -0.56595677
-1.0690049 -2.790848 -0.56546879
-1.126479 -2.9408956 -0.56880194
-1.172677 -3.0615048 -0.56403464
-1.2379243 -3.2318459 -0.56584436
-1.3091604 -3.4178214 -0.56721592
-1.3854281 -3.6169331 -0.56733823
-1.4708425 -3.8399243 -0.56744915
-1.5668163 -4.0904832 -0.56741917
-1.6770042 -4.3781505 -0.56774616
-1.8009143 -4.701642 -0.56727946
-1.9478772 -5.0853176 -0.56778044
-2.1256716 -5.5494852 -0.56972039
-2.3239844 -6.0672197 -0.56842005
-2.5762994 -6.7259378 -0.56985742
-2.8848045 -7.5313506 -0.57069105
-3.2782254 -8.5584536 -0.57201248
-3.7881742 -9.8897753 -0.57267541
-4.4904404 -11.723181 -0.57424438
-5.5110569 -14.387701 -0.57649088
-7.133008 -18.622126 -0.58023745
-10.119118 -26.417953 -0.58787858
-17.354858 -45.308281 -0.6048913
-0.73236144 -1.9846928 -0.56684685
-0.7583037 -2.0549963 -0.56745702
-0.78333789 -2.1228385 -0.56616533
-0.8088901 -2.1920848 -0.56404066
-0.84323919 -2.2851706 -0.56661105
-0.876513 -2.3753421 -0.56682998
-0.91274518 -2.473531 -0.56729215
-0.95457524 -2.5868902 -0.56935495
-0.99020487 -2.6834462 -0.56586224
-1.0347114 -2.8040583 -0.5655247
-1.0838207 -2.9371443 -0.56545597
-1.1397692 -3.0887642 -0.56643182
-1.2031032 -3.2603984 -0.56821036
-1.2702469 -3.4423573 -0.56865263
-1.3424155 -3.6379335 -0.56800014
-1.4216436 -3.8526411 -0.56670225
-1.519942 -4.119029 -0.56874335
-1.6272662 -4.4098763 -0.56922245
-1.7436363 -4.7252383 -0.56749666
-1.8832828 -5.1036792 -0.56720209
-2.0511096 -5.5584884 -0.56801248
-2.2519529 -6.1027718 -0.56911349
-2.4908988 -6.7503128 -0.5692845
-2.7903862 -7.5619211 -0.57036448
-3.1633272 -8.572588 -0.57031429
-3.6597145 -9.9177923 -0.57164872
-4.3480806 -11.783258 -0.57452482
-5.3282657 -14.439551 -0.57589966
-6.9006166 -18.700607 -0.5799951
-9.7769156 -26.49535 -0.58688128
-16.756859 -45.410934 -0.60346526
-0.70722908 -1.9916492 -0.56630701
-0.73331237 -2.0651031 -0.56771499
-0.75177115 -2.1170855 -0.562123
-0.78195047 -2.2020743 -0.56409425
-0.81509054 -2.2954011 -0.56661969
-0.83982509 -2.3650568 -0.56186879
-0.88052338 -2.4796684 -0.56617373
-0.91230708 -2.5691755 -0.56294447
-0.95915103 -2.7010942 -0.56705374
-1.0004084 -2.8172803 -0.56566757
-1.047644 -2.9503019 -0.56546628
-1.1022772 -3.1041558 -0.56672597
-1.1607163 -3.2687283 -0.56713176
-1.2192006 -3.4334273 -0.56465828
-1.2940038 -3.6440833 -0.56643313
-1.3752288 -3.8728232 -0.56714064
-1.4644254 -4.1240125 -0.56690222
-1.5639875 -4.4043922 -0.56598938
-1.6872162 -4.75142 -0.56810647
-1.8302239 -5.1541486 -0.57026678
-1.9896228 -5.6030364 -0.57002163
-2.1787987 -6.1357808 -0.56965023
-2.4079971 -6.7812328 -0.56935191
-2.6940236 -7.5867209 -0.56969327
-3.0625546 -8.6245527 -0.57122284
-3.5368142 -9.9601288 -0.57153893
-4.201704 -11.832545 -0.57436538
-5.156074 -14.520175 -0.57654297
-6.6622963 -18.761892 -0.57931125
-9.4389877 -26.581419 -0.58617246
-16.164862 -45.522354 -0.60225892
-0.68207818 -1.99841 -0.5658018
-0.70715183 -2.0718727 -0.56714272
-0.7287426 -2.1351314 -0.56449252
-0.75684887 -2.2174795 -0.56561381
-0.78840816 -2.3099444 -0.5677737
-0.81766826 -2.3956733 -0.56671089
-0.85022616 -2.4910641 -0.56634575
-0.88553697 -2.5945206 -0.56606925
-0.92028481 -2.6963277 -0.56363487
-0.96380752 -2.8238442 -0.56456327
-1.0127231 -2.9671609 -0.56626797
-1.0652086 -3.1209373 -0.56735551
-1.119415 -3.2797563 -0.56661409
-1.1819466 -3.4629667 -0.56708318
-1.2504603 -3.6637034 -0.56704992
-1.3240833 -3.8794105 -0.56567818
-1.4167347 -4.1508679 -0.56815618
-1.5154364 -4.4400525 -0.56813437
-1.6232264 -4.7558651 -0.5662086
-1.7590928 -5.1539378 -0.56780726
-1.9149452 -5.6105671 -0.56834924
-2.0995953 -6.1515708 -0.56867629
-2.3222632 -6.8039618 -0.5688197
-2.602766 -7.6258025 -0.57018161
-2.9557037 -8.6598692 -0.57111156
-3.4150779 -10.005782 -0.57170576
-4.050384 -11.867154 -0.57358438
-4.9679928 -14.555642 -0.57548213
-6.4275732 -18.832043 -0.57899314
-9.1017838 -26.66717 -0.58555114
-15.569094 -45.615639 -0.60091478
-0.65947014 -2.0127957 -0.56753594
-0.68476903 -2.0900114 -0.56975996
-0.70169586 -2.1416743 -0.56389862
-0.73181659 -2.2336073 -0.56738931
-0.75715351 -2.3109391 -0.565687
-0.78595734 -2.3988523 -0.56513405
-0.81873369 -2.4988902 -0.56579345
-0.8483128 -2.58917 -0.56258345
-0.8954609 -2.7330728 -0.56897122
-0.93011427 -2.8388395 -0.56523192
-0.97481132 -2.9752612 -0.56548345
-1.0210999 -3.1165407 -0.56423104
-1.0789868 -3.2932193 -0.56660497
-1.137902 -3.473037 -0.56639814
-1.2042981 -3.6756873 -0.56656992
-1.2779173 -3.9003832 -0.5664022
-1.3671173 -4.1726341 -0.56879151
-1.4576664 -4.4490027 -0.56694323
-1.5707412 -4.7941227 -0.56842089
-1.6952682 -5.1741967 -0.56769967
-1.848877 -5.6430321 -0.56929189
-2.023453 -6.1758628 -0.56857884
-2.2439499 -6.8488507 -0.57022262
-2.5069234 -7.6514831 -0.56975377
-2.8468325 -8.6889324 -0.57067657
-3.2888744 -10.038107 -0.57119882
-3.9012053 -11.907027 -0.57314962
-4.7853217 -14.605475 -0.57508242
-6.1891851 -18.890263 -0.57839948
-8.7558651 -26.724133 -0.58439362
-14.973092 -45.699982 -0.59955513
-0.63610476 -2.0253141 -0.56881726
-0.6488505 -2.0658958 -0.56096828
-0.67539161 -2.1504009 -0.56396699
-0.70150691 -2.2335501 -0.56514084
-0.73063862 -2.3263035 -0.56720591
-0.75525945 -2.4046946 -0.56427979
-0.79084927 -2.5180101 -0.56787777
-0.82335728 -2.6215136 -0.56736839
-0.85271484 -2.7149858 -0.56298047
-0.89657772 -2.8546424 -0.56614047
-0.93901777 -2.9897685 -0.56600338
-0.98791611 -3.1454575 -0.56722409
-1.0409788 -3.3144054 -0.56800485
-1.0938858 -3.4828579 -0.56576335
-1.1571771 -3.6843729 -0.56567264
-1.2293955 -3.9143114 -0.56618673
-1.3088962 -4.1674361 -0.5658462
-1.4073291 -4.4808397 -0.56875205
-1.51039 -4.808979 -0.56793737
-1.6297475 -5.1890049 -0.56708276
-1.7686721 -5.6313314 -0.56587458
-1.9427391 -6.1855488 -0.56722838
-2.1519611 -6.8516974 -0.56821352
-2.4086189 -7.6688786 -0.56880069
-2.7341433 -8.7053261 -0.569502
-3.169338 -10.090956 -0.57194525
-3.753659 -11.951394 -0.57302016
-4.602407 -14.653749 -0.57471144
-5.9519019 -18.950449 -0.57795775
-8.4187717 -26.804794 -0.58384961
-14.376844 -45.774895 -0.59817338
-0.60422194 -2.0099218 -0.56236506
-0.62645763 -2.0838883 -0.56371957
-0.64766729 -2.1544414 -0.56289542
-0.67553371 -2.2471378 -0.56643426
-0.69915533 -2.3257143 -0.56492341
-0.72946733 -2.4265461 -0.56725973
-0.75794405 -2.5212729 -0.56646883
-0.78867662 -2.6235037 -0.56565744
-0.82193238 -2.7341275 -0.56481129
-0.86126357 -2.8649614 -0.56604385
-0.90271711 -3.0028551 -0.56633663
-0.94660431 -3.1488442 -0.56569302
-0.99515152 -3.3103349 -0.56516743
-1.0476584 -3.4849973 -0.56397557
-1.1173742 -3.7169037 -0.5685147
-1.1802745 -3.9261394 -0.56575555
-1.2572075 -4.1820545 -0.56568921
-1.3524884 -4.4990025 -0.56890351
-1.4487374 -4.8191714 -0.56699437
-1.571138 -5.2263322 -0.56900781
-1.7033345 -5.666079 -0.56721872
-1.8712221 -6.2245512 -0.56865197
-2.0675731 -6.8777051 -0.56821895
-2.3191741 -7.7146463 -0.57003701
-2.6340461 -8.7620573 -0.5710513
-3.0409238 -10.11552 -0.57117498
-3.5990367 -11.972062 -0.57184601
-4.4218202 -14.709022 -0.57470328
-5.7123084 -19.001783 -0.57733744
-8.0781336 -26.871613 -0.58309734
-13.782153 -45.845821 -0.59684056
-0.58279526 -2.0287988 -0.56559885
-0.60386586 -2.1021488 -0.56660777
-0.61955613 -2.1567688 -0.56147063
-0.64748073 -2.2539785 -0.56610888
-0.66852319 -2.3272307 -0.56325233
-0.69698972 -2.426327 -0.56516218
-0.72325808 -2.5177712 -0.56364131
-0.75627226 -2.6326985 -0.56559211
-0.79034954 -2.7513266 -0.56631374
-0.82433105 -2.8696215 -0.56491917
-0.86660415 -3.0167804 -0.56691033
-0.90982556 -3.1672409 -0.56694525
-0.95821136 -3.3356791 -0.56743991
-1.0077422 -3.5081031 -0.56566674
-1.0657728 -3.7101166 -0.56542933
-1.1332401 -3.9449809 -0.56641978
-1.20722 -4.2025161 -0.56640619
-1.2966822 -4.5139475 -0.56873405
-1.3887905 -4.8345904 -0.56675643
-1.5004592 -5.2233262 -0.56662893
-1.6391822 -5.7062416 -0.56917846
-1.7918519 -6.2377086 -0.56779814
-1.9824131 -6.9010806 -0.5680933
-2.2215962 -7.7337132 -0.56938434
-2.52075 -8.7751131 -0.569839
-2.9153116 -10.148643 -0.57097787
-3.4545159 -12.025694 -0.57233548
-4.2303615 -14.726529 -0.57331151
-5.4812174 -19.08095 -0.57765132
-7.7367792 -26.932903 -0.5823189
-13.185596 -45.901058 -0.59540385
-0.55594862 -2.0290322 -0.56371552
-0.57673573 -2.1048985 -0.5653947
-0.59894174 -2.1859431 -0.56710535
-0.61633253 -2.2494137 -0.56301636
-0.63952732 -2.3340673 -0.56296116
-0.66854566 -2.439975 -0.56638354
-0.69693923 -2.5436022 -0.56746256
-0.72300065 -2.6387179 -0.56493264
-0.75301713 -2.7482684 -0.56373572
-0.79057127 -2.8853288 -0.56605476
-0.82624871 -3.0155399 -0.56472528
-0.8689785 -3.17149 -0.56575036
-0.91602558 -3.3431964 -0.56675971
-0.9638837 -3.5178628 -0.56528652
-1.0226574 -3.732368 -0.56686121
-1.0870847 -3.9675066 -0.56769186
-1.1539817 -4.211659 -0.56568319
-1.2364626 -4.5126877 -0.56661689
-1.3262638 -4.8404326 -0.56548673
-1.4342152 -5.2344203 -0.56587648
-1.5629448 -5.7042418 -0.5670191
-1.7131242 -6.2523475 -0.56717032
-1.8970264 -6.9235315 -0.56797826
-2.1280293 -7.7666173 -0.56983721
-2.4128273 -8.8060369 -0.56987739
-2.7914059 -10.187726 -0.57120246
-3.305773 -12.065 -0.57222825
-4.0529337 -14.791894 -0.57387263
-5.2342081 -19.103163 -0.57633168
-7.3953705 -26.990705 -0.58155853
-12.594554 -45.966038 -0.59419298
-0.53052837 -2.0340652 -0.56325877
-0.54874897 -2.1039236 -0.56327778
-0.56870955 -2.1804533 -0.56382424
-0.59005529 -2.2622936 -0.56438142
-0.61682433 -2.3649271 -0.56853193
-0.63508302 -2.4349315 -0.56335753
-0.66576755 -2.5525773 -0.56759554
-0.69040102 -2.647023 -0.56485045
-0.7176531 -2.7515082 -0.56254768
-0.755404 -2.8962464 -0.56633151
-0.79053545 -3.030942 -0.56574643
-0.83286881 -3.1932495 -0.56776214
-0.87387431 -3.350466 -0.56612766
-0.92080957 -3.5304177 -0.56544179
-0.97751415 -3.7478251 -0.56734031
-1.0367988 -3.9751246 -0.5669148
-1.1033423 -4.2302551 -0.56631583
-1.1839645 -4.5393629 -0.56809533
-1.27011 -4.8696485 -0.56703246
-1.3755234 -5.273807 -0.56826299
-1.4890209 -5.7089605 -0.56562537
-1.6369287 -6.2760444 -0.56745112
-1.8138224 -6.9542618 -0.56862658
-2.0272219 -7.7724428 -0.56839269
-2.3035662 -8.8319578 -0.56967866
-2.6591041 -10.195103 -0.56973964
-3.152972 -12.08861 -0.57146603
-3.864516 -14.816696 -0.57294798
-4.994709 -19.149897 -0.57584518
-7.0509105 -27.033449 -0.58056748
-12.001588 -46.014526 -0.59286726
-0.50934154 -2.0560291 -0.56756359
-0.52373981 -2.1141496 -0.56424868
-0.54018778 -2.1805441 -0.56208771
-0.56218714 -2.2693477 -0.56437397
-0.58602023 -2.3655531 -0.56690723
-0.60739148 -2.4518213 -0.56549442
-0.63425565 -2.5602624 -0.56752735
-0.65865755 -2.6587639 -0.56558484
-0.68733054 -2.7745068 -0.56547904
-0.71983123 -2.9057002 -0.56640649
-0.75088626 -3.0310583 -0.5640021
-0.79151213 -3.1950505 -0.56630903
-0.83281201 -3.3617632 -0.56626332
-0.8748588 -3.531491 -0.56384808
-0.92618543 -3.7386782 -0.56418902
-0.98588657 -3.9796703 -0.56579143
-1.0530258 -4.2506871 -0.56727481
-1.1226561 -4.5317597 -0.56537336
-1.2099723 -4.8842239 -0.56695426
-1.3078631 -5.2793741 -0.56708705
-1.4230093 -5.7441778 -0.56733805
-1.5598518 -6.2965617 -0.56752908
-1.7253454 -6.9646001 -0.56769425
-1.9289955 -7.7866621 -0.56765503
-2.1950581 -8.8606615 -0.56974602
-2.5321002 -10.22118 -0.5694139
-3.003037 -12.122182 -0.57126427
-3.681483 -14.860826 -0.5728606
-4.7539015 -19.189793 -0.57524359
-6.7122679 -27.095016 -0.5800733
-11.410142 -46.058647 -0.59158325
-0.48131195 -2.0505857 -0.56438458
-0.49756071 -2.1198123 -0.56408441
-0.51406187 -2.190114 -0.56288254
-0.53576356 -2.282572 -0.56598157
-0.55338353 -2.3576403 -0.56333756
-0.57740039 -2.4599619 -0.56569165
-0.60078681 -2.5595975 -0.56569958
-0.62707788 -2.6716082 -0.566634
-0.65632033 -2.7961931 -0.56821114
-0.68191749 -2.9052474 -0.564641
-0.71408612 -3.042299 -0.56441712
-0.75267226 -3.2066915 -0.56668907
-0.78919542 -3.3622954 -0.56467569
-0.83292305 -3.548593 -0.56490064
-0.88265312 -3.7604632 -0.5657959
-0.93791401 -3.9958973 -0.56641591
-1.0011024 -4.2651062 -0.56751335
-1.0652761 -4.5385118 -0.5645389
-1.1475805 -4.8891621 -0.56584674
-1.2435939 -5.2982187 -0.56742579
-1.3505825 -5.754034 -0.5666284
-1.4853408 -6.3281593 -0.56868786
-1.6403486 -6.9885554 -0.56795985
-1.8350092 -7.8178897 -0.56824362
-2.0833809 -8.8760548 -0.5690456
-2.4053574 -10.247806 -0.56920648
-2.8541827 -12.159986 -0.57134867
-3.4926894 -14.880285 -0.57191193
-4.5154119 -19.237501 -0.57496583
-6.3655534 -27.119862 -0.57888567
-10.81514 -46.07692 -0.59006524
-0.45861408 -2.0678537 -0.56754214
-0.47068369 -2.1222744 -0.56315696
-0.48917001 -2.2056279 -0.56528109
-0.50409663 -2.2729309 -0.56201148
-0.52488142 -2.3666477 -0.56390506
-0.54381883 -2.4520347 -0.56228852
-0.56691325 -2.5561659 -0.56335789
-0.59039271 -2.6620328 -0.56302083
-0.62114114 -2.8006749 -0.56752694
-0.64449471 -2.9059741 -0.56319946
-0.67537314 -3.0452025 -0.56337249
-0.7111299 -3.2064269 -0.5650543
-0.74903041 -3.3773172 -0.56560892
-0.79160833 -3.5692976 -0.56660426
-0.83545774 -3.7670109 -0.56519258
-0.88835478 -4.0055194 -0.56618863
-0.9450857 -4.2613149 -0.56541979
-1.0135146 -4.5698552 -0.56684458
-1.089164 -4.9109521 -0.56677574
-1.1776541 -5.3099465 -0.56708807
-1.2773838 -5.7596197 -0.56558895
-1.4006927 -6.3156095 -0.56596941
-1.5510998 -6.993783 -0.56679177
-1.7372352 -7.8330526 -0.56775016
-1.9746227 -8.9034128 -0.56919986
-2.2772291 -10.26784 -0.56872094
-2.6991894 -12.170425 -0.57023662
-3.3068123 -14.910148 -0.57145363
-4.2734795 -19.268772 -0.57428646
-6.0278134 -27.178923 -0.57852048
-10.226526 -46.110577 -0.58884138
-0.43136588 -2.0647769 -0.5651992
-0.44504604 -2.1302586 -0.56378078
-0.46506694 -2.2260907 -0.56901687
-0.47693637 -2.2829049 -0.562985
-0.49580356 -2.3732147 -0.56397444
-0.51906669 -2.484566 -0.56824183
-0.53491366 -2.5604191 -0.56280309
-0.56213069 -2.6906962 -0.56757826
-0.58380723 -2.7944534 -0.56476879
-0.61442363 -2.9410017 -0.56848079
-0.63864297 -3.0569301 -0.56404668
-0.67097986 -3.211714 -0.56448936
-0.70488936 -3.3740253 -0.56356341
-0.74496377 -3.5658455 -0.5645594
-0.79167587 -3.7894378 -0.56705403
-0.83697873 -4.0062842 -0.56479931
-0.89513761 -4.284668 -0.56701511
-0.95900643 -4.5903826 -0.5678851
-1.0267138 -4.9144711 -0.56568205
-1.1097211 -5.3117938 -0.56578529
-1.2106749 -5.7950196 -0.56756037
-1.3248919 -6.3417311 -0.56680751
-1.4671313 -7.0225739 -0.5676201
-1.6431122 -7.8649249 -0.56855291
-1.8606167 -8.9060326 -0.56786168
-2.151238 -10.297121 -0.5688346
-2.5489454 -12.200788 -0.57014757
-3.1249416 -14.957854 -0.57176608
-4.0339303 -19.308821 -0.57395834
-5.6857791 -27.215563 -0.57776856
-9.6390047 -46.138084 -0.58763462
-0.40811327 -2.0809772 -0.5682171
-0.41951233 -2.1391013 -0.56471312
-0.43186659 -2.2020957 -0.56148362
-0.45090324 -2.2991641 -0.5655846
-0.47093454 -2.401304 -0.5692305
-0.48441467 -2.4700396 -0.56351453
-0.50734735 -2.5869737 -0.56722587
-0.52470875 -2.6754997 -0.56296915
-0.5492391 -2.8005805 -0.56459945
-0.57516146 -2.932759 -0.56547773
-0.60423094 -3.0809848 -0.56707132
-0.63244915 -3.2248702 -0.56539208
-0.66540581 -3.3929167 -0.56530941
-0.70180625 -3.5785232 -0.56515753
-0.74285781 -3.7878458 -0.56540614
-0.78894728 -4.0228567 -0.56572521
-0.8396737 -4.2815118 -0.56518835
-0.90124917 -4.5954866 -0.56710267
-0.96505421 -4.9208298 -0.5650053
-1.0460277 -5.3337145 -0.56670725
-1.1352119 -5.7884669 -0.56550872
-1.2461394 -6.3540883 -0.56649959
-1.3814923 -7.0442548 -0.56795651
-1.5412841 -7.859036 -0.56671429
-1.7519302 -8.9331255 -0.56817263
-2.0254483 -10.327799 -0.56911039
-2.3948874 -12.211576 -0.56923246
-2.9363749 -14.972631 -0.57090759
-3.7894053 -19.322248 -0.57292908
-5.341886 -27.238377 -0.57681477
-9.0465536 -46.128544 -0.586052
-0.38043955 -2.0746253 -0.5651626
-0.3910293 -2.1323736 -0.56162524
-0.40542415 -2.2108722 -0.56240773
-0.42288372 -2.3060832 -0.56596476
-0.43882668 -2.393024 -0.5659458
-0.45631918 -2.4884145 -0.56638372
-0.4743351 -2.5866597 -0.56583536
-0.49643207 -2.7071595 -0.56830347
-0.51533407 -2.8102362 -0.56522584
-0.54024541 -2.9460838 -0.56672323
-0.5637545 -3.0742846 -0.56451952
-0.59300774 -3.233809 -0.56563807
-0.62412655 -3.403507 -0.56575251
-0.6600731 -3.5995319 -0.56715071
-0.69588375 -3.7948158 -0.56512654
-0.73827392 -4.0259795 -0.56484497
-0.78857929 -4.3003063 -0.56634647
-0.8468014 -4.617805 -0.56852889
-0.90704495 -4.9463267 -0.56660938
-0.98000431 -5.3441911 -0.56649721
-1.0656067 -5.8110008 -0.56638724
-1.1704354 -6.3826561 -0.56772053
-1.2946137 -7.0598292 -0.56788576
-1.4456745 -7.8835993 -0.56716079
-1.6413498 -8.9506617 -0.56796139
-1.8960123 -10.339396 -0.56842178
-2.2448688 -12.241791 -0.56931114
-2.7494795 -14.993551 -0.57037306
-3.5502863 -19.360537 -0.57272661
-5.0010862 -27.272087 -0.57618278
-8.4578962 -46.122871 -0.5846144
-0.35380614 -2.0727253 -0.56341732
-0.36707434 -2.1504552 -0.56515604
-0.38061857 -2.2298024 -0.56598985
-0.3937721 -2.3068604 -0.56492442
-0.40765148 -2.3881712 -0.56356996
-0.4241083 -2.484581 -0.56428152
-0.44285306 -2.5943947 -0.56629336
-0.45999467 -2.6948166 -0.56448227
-0.47937316 -2.8083427 -0.56361681
-0.50396103 -2.9523873 -0.56670088
-0.52673024 -3.0857778 -0.56539792
-0.55350089 -3.24261 -0.56594419
-0.58145183 -3.4063568 -0.56499499
-0.61274731 -3.5896971 -0.56437129
-0.64889985 -3.801492 -0.56488979
-0.68936586 -4.0385566 -0.56537753
-0.73417944 -4.3010907 -0.56521815
-0.78888881 -4.6215982 -0.56775868
-0.84390664 -4.9439125 -0.56510144
-0.91472417 -5.358788 -0.56680936
-0.99562007 -5.8327055 -0.56726658
-1.0890622 -6.3801236 -0.56626129
-1.2049197 -7.0588589 -0.56657308
-1.3490633 -7.9033051 -0.5673421
-1.5297637 -8.9619131 -0.56743884
-1.7671839 -10.352807 -0.56792152
-2.093699 -12.265653 -0.56918055
-2.5620701 -15.009541 -0.56973976
-3.3099802 -19.391071 -0.57238257
-4.6579537 -27.287991 -0.57526523
-7.8755751 -46.137989 -0.58353442
-0.32915017 -2.0823348 -0.56488645
-0.34194398 -2.1632733 -0.56737679
-0.34881628 -2.2067502 -0.55900759
-0.36482325 -2.3080168 -0.56406635
-0.38081253 -2.4091713 -0.56737775
-0.39553198 -2.5022924 -0.56715655
-0.41086039 -2.5992661 -0.5662111
-0.42675731 -2.699836 -0.56439185
-0.44684732 -2.8269336 -0.56620234
-0.46453017 -2.9388025 -0.56295431
-0.48991224 -3.0993793 -0.56674343
-0.51154971 -3.2362669 -0.56369662
-0.53852814 -3.4069428 -0.56395119
-0.56912392 -3.6005039 -0.5649274
-0.60294533 -3.8144715 -0.56567407
-0.6403842 -4.0513248 -0.56601983
-0.68248588 -4.3176765 -0.56625205
-0.72900659 -4.6119852 -0.56543374
-0.78510273 -4.9668717 -0.5665794
-0.84999979 -5.3774362 -0.56763333
-0.92184299 -5.8319445 -0.56604737
-1.0101058 -6.3903308 -0.56602204
-1.1200684 -7.0859981 -0.56760299
-1.2490902 -7.9022408 -0.56612033
-1.4174041 -8.967061 -0.56661838
-1.6394033 -10.371516 -0.56779903
-1.9417462 -12.284258 -0.5688929
-2.3781142 -15.044894 -0.56992865
-3.0673029 -19.404976 -0.5716365
-4.3168883 -27.310349 -0.57457411
-7.2880335 -46.106995 -0.58196497
-0.30289 -2.0818813 -0.56371051
-0.31471449 -2.1631558 -0.56628817
-0.32465711 -2.2314951 -0.56422198
-0.33700824 -2.3163893 -0.5650571
-0.35073906 -2.4107666 -0.56669492
-0.3646113 -2.5061159 -0.56696409
-0.3774578 -2.5944149 -0.56410068
-0.39560145 -2.7191234 -0.56736398
-0.41146034 -2.8281276 -0.5653854
-0.43117312 -2.9636214 -0.56665015
-0.45084596 -3.0988405 -0.56558841
-0.47324294 -3.2527838 -0.56551725
-0.49782619 -3.4217539 -0.56534684
-0.52695566 -3.6219721 -0.56723624
-0.55538851 -3.8174021 -0.56505316
-0.58945155 -4.0515313 -0.56499332
-0.62616563 -4.3038812 -0.56339049
-0.67284852 -4.6247511 -0.56594169
-0.72279608 -4.96806 -0.56565833
-0.78239346 -5.377696 -0.56660241
-0.85049295 -5.8457704 -0.56633145
-0.93111193 -6.3998961 -0.56581235
-1.0316631 -7.091023 -0.56694651
-1.1522571 -7.9199133 -0.56632859
-1.3098282 -9.0029612 -0.56782621
-1.5121641 -10.393695 -0.56795233
-1.7891775 -12.297717 -0.56845438
-2.1921887 -15.067769 -0.569731
-2.82463 -19.414787 -0.57085919
-3.9765205 -27.33218 -0.57396126
-6.7088585 -46.112606 -0.58095068
-0.27850538 -2.0947456 -0.56622368
-0.28752837 -2.1626108 -0.5651772
-0.29874527 -2.2469776 -0.5671649
-0.30716765 -2.3103256 -0.56261402
-0.32013983 -2.4078941 -0.56505162
-0.33283216 -2.5033581 -0.56537157
-0.34671754 -2.6077955 -0.56604016
-0.36105719 -2.7156494 -0.56566995
-0.37645376 -2.8314528 -0.56508201
-0.39108586 -2.9415064 -0.56145978
-0.41275242 -3.1044691 -0.56564659
-0.43441346 -3.26739 -0.56708503
-0.45868656 -3.4499574 -0.56903172
-0.48080921 -3.6163502 -0.56538713
-0.50757188 -3.8176425 -0.56412226
-0.53818411 -4.0478888 -0.5635199
-0.57382214 -4.3159361 -0.56400216
-0.61557037 -4.6299405 -0.56560773
-0.66053611 -4.9681454 -0.56470054
-0.71374428 -5.3683443 -0.5646497
-0.77886349 -5.8581305 -0.56655818
-0.8526125 -6.4128251 -0.56598574
-0.94360662 -7.0972266 -0.56647199
-1.0536203 -7.9246821 -0.56570035
-1.1964916 -8.9992714 -0.56662273
-1.3822788 -10.396647 -0.56714201
-1.6374427 -12.315833 -0.56831813
-2.0036004 -15.069845 -0.5688349
-2.5851824 -19.444147 -0.57074463
-3.6344085 -27.335777 -0.57305503
-6.1237984 -46.059433 -0.57928824
-0.25163186 -2.0889096 -0.56376714
-0.26076028 -2.1646886 -0.5648396
-0.27032536 -2.2440927 -0.56555498
-0.28037986 -2.3275597 -0.56592852
-0.29068714 -2.413125 -0.56539762
-0.30155197 -2.503319 -0.56448263
-0.3137621 -2.6046808 -0.564484
-0.32731509 -2.7171903 -0.56510985
-0.34021938 -2.8243146 -0.56277996
-0.3580184 -2.9720721 -0.5664109
-0.37236446 -3.0911653 -0.5623458
-0.39333501 -3.2652516 -0.56583166
-0.41262177 -3.4253595 -0.56409508
-0.43592897 -3.6188431 -0.56489611
-0.46210459 -3.8361387 -0.56597298
-0.48931894 -4.062057 -0.56461203
-0.52244538 -4.3370552 -0.5658797
-0.55900878 -4.6405845 -0.5660255
-0.59987807 -4.9798584 -0.56515074
-0.64844328 -5.3830204 -0.56531197
-0.70566452 -5.8580394 -0.56566739
-0.77568585 -6.4393182 -0.56743926
-0.85616624 -7.1074224 -0.56640267
-0.9571141 -7.945436 -0.5662989
-1.0868715 -9.0226107 -0.56720787
-1.2539072 -10.409249 -0.56694549
-1.4844261 -12.322891 -0.56775856
-1.817068 -15.084301 -0.5684942
-2.3422067 -19.443716 -0.56984347
-3.2936833 -27.342352 -0.57230049
-5.5436335 -46.020203 -0.57789379
-0.22613367 -2.0937448 -0.56427902
-0.23318502 -2.1590323 -0.56257296
-0.24161048 -2.2370427 -0.56298691
-0.25081331 -2.3222506 -0.56384516
-0.26033959 -2.4104531 -0.56397885
-0.27148959 -2.51369 -0.56602561
-0.28292397 -2.6195593 -0.56691164
-0.29406244 -2.7226892 -0.56545866
-0.30678827 -2.8405159 -0.5652138
-0.31923035 -2.9557159 -0.5625031
-0.33538535 -3.105293 -0.56412303
-0.35209158 -3.2599742 -0.56412429
-0.37053713 -3.4307594 -0.56419134
-0.39080602 -3.6184263 -0.56403828
-0.4141539 -3.8346019 -0.56495214
-0.43932274 -4.067637 -0.56459403
-0.4680123 -4.3332701 -0.56459236
-0.50104529 -4.6391191 -0.56505257
-0.53806823 -4.9819098 -0.56459004
-0.58196199 -5.3883171 -0.56507397
-0.63293421 -5.8602624 -0.56508785
-0.69494826 -6.434443 -0.56621379
-0.76841527 -7.1146655 -0.56618404
-0.86033654 -7.965754 -0.5669502
-0.97334301 -9.0120678 -0.56574988
-1.1256005 -10.421801 -0.56683242
-1.3294237 -12.308975 -0.56632143
-1.6308854 -15.100173 -0.56829363
-2.1010323 -19.453207 -0.56932151
-2.9516366 -27.32885 -0.57121509
-4.9677134 -45.995464 -0.57677251
-0.19995458 -2.0919907 -0.56310105
-0.20621739 -2.1575143 -0.56147426
-0.21504955 -2.2499194 -0.56551927
-0.22121283 -2.3144016 -0.56123656
-0.23117116 -2.4185889 -0.56517458
-0.24055645 -2.5167809 -0.5660128
-0.24950336 -2.6103866 -0.56421989
-0.2603173 -2.7235253 -0.56492484
-0.27140373 -2.8395152 -0.56430799
-0.28462163 -2.9778056 -0.5659982
-0.29726937 -3.1101303 -0.56429511
-0.31135234 -3.2574708 -0.56298602
-0.32812524 -3.4329545 -0.56384623
-0.34691024 -3.6294892 -0.56505507
-0.36657405 -3.8352187 -0.56433624
-0.38919598 -4.0718966 -0.56447834
-0.41582149 -4.350462 -0.56612325
-0.44418576 -4.6472182 -0.56533104
-0.47725338 -4.9931822 -0.56515974
-0.51673406 -5.4062424 -0.56624466
-0.55942947 -5.8529353 -0.56367534
-0.61621541 -6.4470491 -0.5666135
-0.67972004 -7.1114554 -0.56522071
-0.76159847 -7.9680948 -0.56640744
-0.86378223 -9.0371752 -0.56661642
-0.99647558 -10.425456 -0.56632197
-1.1786253 -12.331167 -0.56663281
-1.4438404 -15.105935 -0.56779939
-1.8595543 -19.455271 -0.56866968
-2.6132684 -27.340876 -0.57075161
-4.3911018 -45.941158 -0.57537091
-0.1747589 -2.1008017 -0.56485158
-0.18045048 -2.1692212 -0.56390071
-0.18699794 -2.2479289 -0.56439835
-0.19358349 -2.327095 -0.56369478
-0.20234284 -2.4323924 -0.56777585
-0.20872816 -2.5091512 -0.56367707
-0.21639752 -2.6013458 -0.56164819
-0.22654507 -2.7233307 -0.564264
-0.23638548 -2.8416238 -0.5641067
-0.24837896 -2.9857993 -0.56689417
-0.25894111 -3.1127684 -0.56415337
-0.2715669 -3.2645445 -0.5635888
-0.28581455 -3.4358175 -0.56369662
-0.30183604 -3.6284142 -0.56426728
-0.32051349 -3.8529384 -0.5663209
-0.33972308 -4.0838599 -0.56551492
-0.36149094 -4.3455343 -0.56486094
-0.3869507 -4.6515899 -0.56524134
-0.41477543 -4.9860749 -0.56373537
-0.44862923 -5.3930364 -0.56424099
-0.48786965 -5.8647513 -0.56419289
-0.53536034 -6.4356432 -0.56498981
-0.59357435 -7.1354427 -0.5665043
-0.66290283 -7.9688501 -0.56583887
-0.75273144 -9.0486927 -0.56671536
-0.86799479 -10.43429 -0.56617928
-1.0264734 -12.339384 -0.56638759
-1.2553195 -15.090376 -0.5665915
-1.6191007 -19.463442 -0.56828362
-2.2737377 -27.332928 -0.56995893
-3.8173773 -45.88924 -0.57408941
-0.14942382 -2.1099739 -0.56678087
-0.15356749 -2.1684856 -0.56317604
-0.15957758 -2.2533524 -0.56522465
-0.16634354 -2.3488927 -0.56843644
-0.17095199 -2.4139674 -0.56294179
-0.17778237 -2.5104175 -0.56342787
-0.18395999 -2.5976498 -0.56031948
-0.19347595 -2.7320223 -0.56552917
-0.20172629 -2.8485231 -0.56494123
-0.21077351 -2.9762766 -0.56455141
-0.22030084 -3.1108096 -0.56326485
-0.23156716 -3.2698982 -0.56397885
-0.24279132 -3.4283917 -0.56194597
-0.25713533 -3.6309392 -0.5641256
-0.27196923 -3.8404047 -0.56394446
-0.28906474 -4.0818062 -0.5646956
-0.30772296 -4.345274 -0.56429255
-0.32988065 -4.6581569 -0.56550366
-0.35379124 -4.9957919 -0.56429946
-0.38177511 -5.3909445 -0.56348842
-0.41620481 -5.8771172 -0.56484747
-0.45709148 -6.4544673 -0.56610608
-0.50565702 -7.1402478 -0.56634933
-0.56417549 -7.9665713 -0.5651418
-0.64031267 -9.0416851 -0.56574059
-0.73919332 -10.437952 -0.56584197
-0.87442553 -12.347529 -0.56622511
-1.0698426 -15.106962 -0.56667745
-1.3777407 -19.45471 -0.56749111
-1.934554 -27.317322 -0.56909448
-3.2454731 -45.828461 -0.57278651
-0.12363428 -2.1144741 -0.56753844
-0.12654626 -2.1642768 -0.56163639
-0.13163978 -2.2513895 -0.56428355
-0.13581075 -2.3227241 -0.56165695
-0.14183021 -2.4256725 -0.56522202
-0.14725521 -2.5184546 -0.56478256
-0.15403494 -2.6344061 -0.56779641
-0.16065675 -2.7476566 -0.5683136
-0.16639635 -2.8458188 -0.56395644
-0.17436834 -2.9821608 -0.56521815
-0.18239498 -3.1194379 -0.56437838
-0.19209786 -3.2853827 -0.56619936
-0.20181282 -3.4515345 -0.5652898
-0.21225134 -3.6300607 -0.56354094
-0.2252391 -3.8521862 -0.56522506
-0.23825912 -4.074863 -0.5632872
-0.25438032 -4.3505778 -0.56453246
-0.27268988 -4.6637201 -0.5657292
-0.29252732 -5.0029926 -0.56466383
-0.31647864 -5.4126244 -0.56530499
-0.34348267 -5.874465 -0.56414396
-0.37687838 -6.4456201 -0.56488097
-0.41757956 -7.1417179 -0.5660159
-0.46566424 -7.9640932 -0.56451714
-0.52903193 -9.0478497 -0.56567651
-0.61047572 -10.440754 -0.56554419
-0.72286391 -12.36289 -0.56647909
-0.88390052 -15.117043 -0.56660509
-1.1376952 -19.457605 -0.56712461
-1.5961443 -27.2983 -0.56824636
-2.6768241 -45.780788 -0.57173604
-0.097807176 -2.1197538 -0.56858975
-0.10033316 -2.174499 -0.56392628
-0.1039924 -2.2538049 -0.56452578
-0.10734423 -2.3264484 -0.56219584
-0.1116089 -2.4188757 -0.56327587
-0.11604036 -2.5149176 -0.56362677
-0.12091892 -2.6206498 -0.56446832
-0.12610233 -2.7329886 -0.56491631
-0.13123967 -2.8443291 -0.56329882
-0.13679239 -2.9646721 -0.56154215
-0.14334649 -3.1067173 -0.5617156
-0.15138929 -3.2810273 -0.56508523
-0.15870053 -3.4394822 -0.56295371
-0.1684242 -3.6502216 -0.56630647
-0.1780555 -3.8589582 -0.56585467
-0.18885209 -4.0929508 -0.56542379
-0.20143743 -4.3657098 -0.56613177
-0.21479671 -4.6552424 -0.56433773
-0.23118843 -5.0104971 -0.56514722
-0.24951769 -5.407743 -0.56443208
-0.27153274 -5.8848705 -0.56477994
-0.29734254 -6.4442406 -0.56439704
-0.32892182 -7.1286521 -0.5646171
-0.36798927 -7.9753518 -0.56495172
-0.41732812 -9.0446625 -0.56511366
-0.48213661 -10.449243 -0.56564009
-0.57008386 -12.355305 -0.56576753
-0.6973176 -15.112815 -0.56608242
-0.89784938 -19.458895 -0.56679755
-1.2588319 -27.282391 -0.56755006
-2.1087081 -45.701576 -0.57037985
-0.070996992 -2.0989406 -0.56273019
-0.073675714 -2.178134 -0.56459135
-0.076027721 -2.247668 -0.56271195
-0.078033589 -2.3069689 -0.55721462
-0.081874765 -2.4205289 -0.56338382
-0.085367821 -2.5237968 -0.56533873
-0.0887089 -2.6225717 -0.5646047
-0.092348337 -2.7301674 -0.5640558
-0.096369185 -2.8490391 -0.56395429
-0.10076351 -2.9789519 -0.56396961
-0.10585342 -3.1294289 -0.56554389
-0.11028343 -3.260397 -0.56125605
-0.11642519 -3.4419703 -0.56308407
-0.12285157 -3.6319587 -0.56319618
-0.13023883 -3.850354 -0.5643155
-0.13807622 -4.082057 -0.56364173
-0.14684147 -4.3411913 -0.5626756
-0.15766436 -4.6611571 -0.56477702
-0.16933124 -5.006074 -0.56437081
-0.18330273 -5.4191246 -0.56534201
-0.19876063 -5.8761187 -0.56366283
-0.21804866 -6.4463463 -0.56430393
-0.2411726 -7.1299777 -0.56444454
-0.27007508 -7.9844441 -0.56531781
-0.3059409 -9.0447741 -0.56484294
-0.35324085 -10.44314 -0.56503189
-0.41776547 -12.350734 -0.56528026
-0.51077241 -15.10037 -0.56533831
-0.65739298 -19.435032 -0.56582427
-0.92213994 -27.261957 -0.56684625
-1.5423021 -45.596306 -0.56878632
-0.045045272 -2.0932076 -0.56100225
-0.04709734 -2.188565 -0.56710219
-0.048336882 -2.2461655 -0.56214446
-0.050226547 -2.3339763 -0.563546
-0.052260317 -2.4284835 -0.56504297
-0.053996541 -2.5091639 -0.56186968
-0.056485884 -2.6248412 -0.56490105
-0.058747627 -2.7299421 -0.56381732
-0.060904033 -2.8301482 -0.56002432
-0.064278968 -2.9869776 -0.56529665
-0.067264527 -3.1257136 -0.56468028
-0.070305206 -3.2670109 -0.56220329
-0.074409701 -3.4577427 -0.56547189
-0.078209549 -3.6343179 -0.56337029
-0.082976952 -3.855854 -0.56492937
-0.088271081 -4.1018667 -0.56618434
-0.093657173 -4.3521528 -0.56390446
-0.1004792 -4.6691656 -0.56555492
-0.10789589 -5.0138116 -0.56505084
-0.1165707 -5.4169207 -0.56491983
-0.12686236 -5.895164 -0.56529737
-0.13879268 -6.4495535 -0.56439263
-0.15352911 -7.1343403 -0.56459779
-0.17181663 -7.9841428 -0.56510419
-0.19476628 -9.0505896 -0.56501383
-0.22455533 -10.434856 -0.56439161
-0.26532763 -12.329504 -0.5641166
-0.32486561 -15.096171 -0.56498885
-0.41792265 -19.420437 -0.565207
-0.58606499 -27.233839 -0.56606895
-0.97949094 -45.515942 -0.56759065
-0.019427402 -2.1069055 -0.56456673
-0.020001233 -2.1691375 -0.56196189
-0.02076292 -2.2517426 -0.56343377
-0.021498641 -2.3315318 -0.5628494
-0.022319231 -2.4205248 -0.56308478
-0.023288164 -2.5256057 -0.56544459
-0.024090055 -2.612571 -0.56215405
-0.02532088 -2.7460542 -0.56703782
-0.026293902 -2.8515785 -0.56415832
-0.027497351 -2.9820929 -0.56426555
-0.028944088 -3.1389918 -0.5669719
-0.030274002 -3.2832212 -0.56488609
-0.031845968 -3.4537015 -0.56470424
-0.033650875 -3.6494436 -0.56560808
-0.035635278 -3.8646526 -0.56611151
-0.037573162 -4.0748167 -0.56234425
-0.040249959 -4.3651156 -0.56547713
-0.042935241 -4.6563349 -0.56389427
-0.0460274 -4.9916801 -0.56245035
-0.049722888 -5.3924565 -0.56226224
-0.054142807 -5.8717976 -0.56295031
-0.059396572 -6.4415698 -0.56358743
-0.065634452 -7.1180682 -0.56320363
-0.073558882 -7.9774747 -0.56452549
-0.083259806 -9.029541 -0.56359333
-0.096172057 -10.429877 -0.56401575
-0.11386628 -12.34882 -0.5648936
-0.13910881 -15.086376 -0.56451553
-0.17898713 -19.411188 -0.56483108
-0.250958 -27.216442 -0.56560045
-0.41880602 -45.419594 -0.56628215
0.006499467 -2.1134419 -0.56629688
0.0066649769 -2.1672611 -0.56145459
0.0069136233 -2.2481141 -0.56250453
0.0071763895 -2.3335581 -0.5633173
0.0074817915 -2.4328661 -0.56593436
0.00772662 -2.5124774 -0.56248409
0.0080624213 -2.6216705 -0.56409073
0.0083769187 -2.7239358 -0.56244934
0.0087295668 -2.8386071 -0.56157082
0.009161029 -2.9789066 -0.56364137
0.0095626106 -3.1094894 -0.5616219
0.010067368 -3.2736223 -0.56321329
0.010587408 -3.4427242 -0.56288821
0.011250718 -3.6584139 -0.5669769
0.011839568 -3.8498912 -0.56392783
0.012590657 -4.0941243 -0.56498748
0.013404689 -4.3588243 -0.56464082
0.014334561 -4.6611924 -0.56446117
0.015368482 -4.9973936 -0.56307286
0.016649164 -5.4138355 -0.56447005
0.018076831 -5.8780723 -0.56353062
0.019800877 -6.438683 -0.5633136
0.021929272 -7.1307764 -0.56418782
0.024527587 -7.9756746 -0.56437677
0.027768381 -9.0294886 -0.56356871
0.03205939 -10.424804 -0.56372005
0.037924893 -12.332099 -0.56410742
0.046367139 -15.077276 -0.56415373
0.059656266 -19.398523 -0.5644412
0.083522901 -27.159275 -0.56439114
0.13940711 -45.331234 -0.5651592
0.032225437 -2.0963244 -0.56177396
0.03360147 -2.185838 -0.56633133
0.034560405 -2.2482185 -0.56259447
0.035905562 -2.3357236 -0.56390399
0.037167557 -2.4178185 -0.56249774
0.038764417 -2.5216973 -0.56461227
0.040275682 -2.6200078 -0.56379688
0.041915372 -2.7266726 -0.56307828
0.043719392 -2.8440275 -0.56270695
0.0457424 -2.9756279 -0.56308484
0.04800199 -3.1226184 -0.56405717
0.050465669 -3.2828856 -0.56487107
0.052914318 -3.4421747 -0.5628621
0.055879693 -3.6350777 -0.56342417
0.058865998 -3.8293424 -0.56098151
0.062697411 -4.0785828 -0.56290656
0.066608846 -4.3330288 -0.56136298
0.071517743 -4.6523619 -0.5634557
0.076616183 -4.984025 -0.56163025
0.083058693 -5.4031219 -0.5634169
0.090402447 -5.8808465 -0.56386054
0.098981328 -6.4389191 -0.56339812
0.10938965 -7.1159997 -0.56308252
0.12254403 -7.9717164 -0.56416065
0.13881527 -9.0301914 -0.56367648
0.16035455 -10.431361 -0.56413865
0.18957488 -12.332198 -0.5641759
0.23162046 -15.067341 -0.56384587
0.29773742 -19.368372 -0.56362778
0.41695049 -27.123404 -0.56370956
0.69533068 -45.232552 -0.56399286
0.058337178 -2.1080098 -0.56505489
0.060398452 -2.1824939 -0.56561458
0.062216356 -2.2481837 -0.56273466
0.064573362 -2.333354 -0.56348103
0.066979311 -2.4202926 -0.56322241
0.069422439 -2.508575 -0.56182277
0.072863072 -2.6329021 -0.56672156
0.075132564 -2.7149098 -0.56079757
0.079187952 -2.8614511 -0.56630415
0.082366034 -2.9762909 -0.56335938
0.086400419 -3.1220732 -0.56410795
0.090511039 -3.2706101 -0.56290781
0.095111184 -3.436836 -0.5621379
0.10099775 -3.6495464 -0.56581652
0.10616875 -3.8364003 -0.56216419
0.11291754 -4.0802674 -0.56328815
0.12035203 -4.3489122 -0.56356984
0.12859747 -4.6468606 -0.56293833
0.13845935 -5.0032191 -0.56394237
0.14923544 -5.3926125 -0.5624699
0.16249467 -5.8717337 -0.56313574
0.17856537 -6.4524474 -0.56473124
0.19704391 -7.1201677 -0.56356144
0.22051556 -7.9683146 -0.56406921
0.25015491 -9.0393305 -0.56439632
0.28851533 -10.425481 -0.56396985
0.34052837 -12.304969 -0.56307924
0.41634756 -15.04469 -0.56314725
0.53555924 -19.352396 -0.56331199
0.74968153 -27.089691 -0.56315798
1.2478133 -45.089645 -0.56235981
0.083841003 -2.0968568 -0.56229919
0.086980261 -2.1753697 -0.56400281
0.08939103 -2.2356627 -0.55983347
0.093332522 -2.334239 -0.56392926
0.09658201 -2.4155085 -0.56234294
0.10061052 -2.5162613 -0.5637787
0.10445597 -2.6124356 -0.56255019
0.10940454 -2.7361991 -0.56543022
0.11368665 -2.8432944 -0.56294489
0.11901828 -2.9766378 -0.56365943
0.12476087 -3.1202595 -0.56401479
0.13048975 -3.2635384 -0.5619244
0.13787989 -3.4483654 -0.56425834
0.14490825 -3.6241438 -0.56211191
0.15363605 -3.8424258 -0.56328136
0.16336106 -4.0856471 -0.56426549
0.17376387 -4.3458209 -0.56340355
0.18613708 -4.6552739 -0.56419224
0.19981767 -4.9974246 -0.56352359
0.21649869 -5.4146156 -0.56499982
0.23517482 -5.8817039 -0.5643267
0.25777775 -6.4470015 -0.56448942
0.2843608 -7.1118412 -0.56313658
0.31721258 -7.9334617 -0.56183565
0.36099508 -9.0284586 -0.56395203
0.41640446 -10.414243 -0.56359631
0.49137586 -12.289272 -0.56259489
0.60146689 -15.042641 -0.56330484
0.77238381 -19.317259 -0.56252313
1.0814916 -27.048019 -0.56252563
1.7987291 -44.986073 -0.56130141
0.11094709 -2.1211028 -0.56912386
0.11374968 -2.1746831 -0.56414485
0.11763825 -2.2490253 -0.56349921
0.12213803 -2.335053 -0.56444609
0.12694941 -2.4270377 -0.56534767
0.13193665 -2.5223846 -0.56547135
0.13608649 -2.6017218 -0.56056112
0.1428865 -2.7317255 -0.56482619
0.14896235 -2.8478844 -0.5641737
0.1558495 -2.9795539 -0.56453186
0.1625849 -3.1083224 -0.56217593
0.17079261 -3.2652385 -0.56253618
0.1804505 -3.4498796 -0.56482649
0.1896273 -3.6253231 -0.56261396
0.20093282 -3.8414636 -0.56345993
0.21348421 -4.0814228 -0.56400198
0.22650082 -4.3302765 -0.5617069
0.24311718 -4.6479506 -0.56362438
0.26107723 -4.9913135 -0.56315392
0.28247732 -5.4004436 -0.56384081
0.30625927 -5.8551102 -0.56209391
0.33600706 -6.4238329 -0.56278002
0.3718819 -7.1096935 -0.56328601
0.41590244 -7.9512849 -0.56341738
0.4707033 -8.9989758 -0.56242949
0.54358035 -10.392251 -0.56272531
0.642551 -12.284386 -0.56269038
0.78526229 -15.012762 -0.56250501
1.0094135 -19.298117 -0.56228465
1.4114083 -26.983515 -0.56150258
2.3466079 -44.862797 -0.56008101
0.13522241 -2.0917895 -0.56166232
0.1410481 -2.1819086 -0.56642634
0.14503253 -2.2435446 -0.56253028
0.15062872 -2.3301134 -0.56365716
0.15562384 -2.4073842 -0.56117296
0.16275746 -2.517736 -0.56483519
0.16884151 -2.6118517 -0.56314844
0.17522432 -2.7105892 -0.56085902
0.18324311 -2.8346338 -0.56195259
0.19100752 -2.9547434 -0.56023371
0.20166719 -3.1196404 -0.56462872
0.21027303 -3.2527664 -0.5607906
0.22162747 -3.4284112 -0.5617153
0.23437451 -3.6255982 -0.56306136
0.24815811 -3.8388205 -0.56347722
0.26348832 -4.0759668 -0.56365317
0.28024384 -4.3351626 -0.56274521
0.29986206 -4.6386414 -0.56290013
0.32112154 -4.9675102 -0.56087136
0.34832788 -5.3883715 -0.56298512
0.37854055 -5.8557391 -0.56255865
