# .PCD v0.7 - Point Cloud Data file format
VERSION 0.7
FIELDS x y z
SIZE 4 4 4
TYPE F F F
COUNT 1 1 1
WIDTH 1494
HEIGHT 1
VIEWPOINT 0 0 0 1 0 0 0
POINTS 1494
DATA ascii
2.0801358 0.11521428 -0.55822414
2.1592364 0.11959549 -0.56023037
2.2280169 0.1234051 -0.55832785
2.3167095 0.12831759 -0.56010461
2.3898013 0.13236599 -0.55676597
2.4842188 0.13759559 -0.55700749
2.5844185 0.14314543 -0.55692512
2.6891572 0.14894667 -0.55611652
2.8058131 0.15540801 -0.55593127
2.9407537 0.16288207 -0.55727261
3.0776906 0.17046671 -0.55672795
3.2186999 0.17827693 -0.55461031
3.3808768 0.18725955 -0.5536207
3.5748811 0.19800504 -0.55487764
3.7813034 0.20943832 -0.55472749
4.0289664 0.22315586 -0.55684531
4.2661591 0.23629345 -0.5534814
4.5588574 0.25250539 -0.55291218
4.8927498 0.27099895 -0.55212462
5.2751207 0.29217768 -0.55084747
5.733984 0.31759316 -0.55055684
6.2734585 0.34747347 -0.54969692
6.9319854 0.38394791 -0.54929745
7.7057667 0.42680597 -0.54611069
8.7006645 0.48191124 -0.54387522
9.9910259 0.55338162 -0.54108912
11.723412 0.64933473 -0.53708363
14.185612 0.78571075 -0.53160089
17.941774 0.99375659 -0.52285171
24.418583 1.3524932 -0.50821275
38.188656 2.1151881 -0.47683781
2.079124 0.14082004 -0.55837506
2.1565416 0.14606357 -0.55995488
2.2297795 0.15102401 -0.55919266
2.3031485 0.15599333 -0.55724764
2.3994105 0.1625132 -0.55942804
2.4874139 0.16847371 -0.55814618
2.5889461 0.17535053 -0.5583232
2.7031548 0.18308595 -0.55943453
2.81459 0.19063349 -0.55809253
2.9376776 0.19897029 -0.55711126
3.0874243 0.20911269 -0.55891156
3.2269731 0.21856439 -0.5564568
3.3927288 0.2297911 -0.55598211
3.581315 0.24256414 -0.55629718
3.7749288 0.2556777 -0.55421168
4.0032768 0.27114382 -0.55371368
4.2874498 0.29039097 -0.55666476
4.5705404 0.30956483 -0.55474883
4.8798985 0.33051783 -0.55109143
5.2803946 0.35764357 -0.55181569
5.7340393 0.38836917 -0.55097902
6.2490635 0.42325199 -0.54797399
6.9084182 0.46791038 -0.54784447
7.707232 0.52201444 -0.54662812
8.6848059 0.58822596 -0.54329491
9.9855423 0.67632544 -0.54120159
11.71468 0.7934407 -0.53708994
14.168494 0.95963871 -0.53136146
17.939827 1.2150728 -0.5231908
24.411062 1.6533726 -0.50844091
38.163475 2.58483 -0.47688422
2.0722737 0.16597596 -0.55704135
2.151001 0.1722815 -0.55902404
2.2278724 0.17843841 -0.55922234
2.3080027 0.18485636 -0.5589298
2.3942552 0.19176461 -0.55873358
2.4871845 0.19920766 -0.55860209
2.5863919 0.20715356 -0.55827951
2.6791193 0.21458043 -0.55496436
2.7980084 0.22410269 -0.55530906
2.9507482 0.23633617 -0.56009877
3.0657029 0.24554333 -0.555484
3.2184134 0.25777444 -0.55548537
3.3933086 0.27178246 -0.55658275
3.5728538 0.28616288 -0.55548751
3.7909484 0.30363086 -0.5570696
4.0113401 0.32128286 -0.55533344
4.2671709 0.34177327 -0.55453563
4.5614991 0.36534709 -0.55415481
4.8991237 0.39238867 -0.55376554
5.2721653 0.42226693 -0.55145663
5.7327809 0.45915931 -0.55135894
6.2685003 0.50206703 -0.55017817
6.8860402 0.55152804 -0.54656637
7.6943111 0.61626542 -0.5462079
8.6863499 0.69572139 -0.54388553
9.9610987 0.79782069 -0.54036766
11.721504 0.93881798 -0.53789145
14.159869 1.1341155 -0.53152084
17.903624 1.4339665 -0.52260971
24.366365 1.951591 -0.50797135
38.115639 3.0528204 -0.47671953
2.0885799 0.19315436 -0.56202054
2.154088 0.19921263 -0.56042057
2.2357602 0.20676579 -0.56179804
2.3179491 0.21436669 -0.56193435
2.3921943 0.22123298 -0.55884522
2.4860523 0.22991309 -0.55894053
2.5802069 0.23862061 -0.55753565
2.6800752 0.24785656 -0.55575162
2.8046942 0.25938147 -0.55722684
2.9315314 0.27111155 -0.55704182
3.0722778 0.28412792 -0.55726618
3.2317789 0.29887876 -0.5583843
3.3723578 0.31187969 -0.55373353
3.5588648 0.32912809 -0.55389994
3.7750695 0.34912294 -0.55532509
3.9847915 0.36851829 -0.55224359
4.2615752 0.3941156 -0.55439633
4.5510774 0.42088908 -0.55347568
4.8817253 0.45146781 -0.55238473
5.2624874 0.4866811 -0.55102867
5.7162457 0.52864528 -0.55035222
6.2589598 0.57883608 -0.54992396
6.8964939 0.63779604 -0.54797721
7.698103 0.71192974 -0.54705715
8.6869488 0.80337948 -0.54450047
9.9726057 0.92227846 -0.54156613
11.685089 1.080651 -0.5367896
14.141766 1.3078474 -0.53140473
17.886133 1.6541309 -0.52265334
24.349707 2.2518899 -0.50816292
38.098003 3.5233488 -0.47700477
2.0787008 0.21804939 -0.56004131
2.1450012 0.22500411 -0.55873412
2.2150137 0.23234819 -0.55726063
2.299809 0.24124295 -0.55821365
2.3693459 0.24853717 -0.55417961
2.4744792 0.25956535 -0.55701405
2.5792193 0.27055225 -0.5579989
2.6718044 0.28026417 -0.55470926
2.8016565 0.29388523 -0.55729914
2.9300046 0.30734858 -0.55742764
3.0750818 0.32256672 -0.55845201
3.2132876 0.33706409 -0.5558635
3.3925171 0.3558647 -0.55771995
3.5706496 0.37455028 -0.55640882
3.7788551 0.39639038 -0.55655688
3.9956491 0.41913143 -0.55442065
4.2500091 0.445813 -0.55356294
4.5367527 0.47589153 -0.55240345
4.8656573 0.51039267 -0.55123502
5.2676339 0.55255878 -0.55223727
5.7098656 0.59894753 -0.55040544
6.2486906 0.65546858 -0.54968822
6.8774972 0.72142851 -0.54713124
7.6828556 0.80590814 -0.54663652
8.6645355 0.90888345 -0.54375499
9.9533749 1.0440787 -0.54117811
11.685677 1.2257919 -0.53746837
14.123551 1.4815176 -0.53136468
17.863964 1.8738755 -0.52263939
24.326508 2.5517766 -0.50829524
38.042904 3.9905851 -0.47689325
2.0675104 0.24261157 -0.55778801
2.1391883 0.25102258 -0.55798179
2.2209032 0.26061141 -0.5595063
2.2968245 0.26952037 -0.5582515
2.3855612 0.27993315 -0.55873519
2.4561217 0.28821307 -0.55363762
2.5787525 0.30260316 -0.55866069
2.6989117 0.3167032 -0.56110328
2.8080592 0.32951111 -0.55933648
2.914423 0.34199235 -0.55522138
3.0740945 0.36072895 -0.55903602
3.2128265 0.37700844 -0.55654365
3.3853793 0.39725661 -0.55730742
3.5722988 0.41919062 -0.55742693
3.760313 0.44125313 -0.55458319
3.9898398 0.46818689 -0.55437148
4.2479091 0.49846995 -0.55404586
4.5375829 0.5324617 -0.55325997
4.8645973 0.57083517 -0.55186844
5.2670984 0.61806655 -0.55293608
5.6994753 0.66880369 -0.55015498
6.2367601 0.73185128 -0.54938889
6.8716307 0.80634999 -0.54741198
7.6726236 0.90034235 -0.54665488
8.6494503 1.0149678 -0.54355043
9.9270573 1.1648884 -0.54048514
11.672544 1.3697121 -0.53759831
14.122613 1.657215 -0.53205585
17.84952 2.094548 -0.52293074
24.279669 2.8490925 -0.50801009
37.991802 4.4581399 -0.4769038
2.0790763 0.26992354 -0.56176126
2.1357129 0.27727661 -0.55792242
2.2189844 0.28808764 -0.55987304
2.2967496 0.29818377 -0.55908221
2.3959987 0.31106913 -0.56203318
2.4636061 0.31984651 -0.55616915
2.5822849 0.3352544 -0.56027669
2.6625381 0.34567356 -0.55438298
2.7892561 0.36212519 -0.55643594
2.9295471 0.38033897 -0.55895132
3.0484278 0.39577308 -0.55521148
3.1968131 0.41503775 -0.55461186
3.3795698 0.43876478 -0.55719709
3.5570016 0.46180052 -0.555884
3.7677083 0.48915625 -0.55651885
3.9853914 0.51741773 -0.55459547
4.2427874 0.55083513 -0.55421942
4.544198 0.58996683 -0.55490911
4.8673515 0.63192135 -0.5530206
5.246119 0.68109626 -0.55157119
5.6882935 0.7385031 -0.54991066
6.227489 0.80850613 -0.54940641
6.8770332 0.8928355 -0.54867548
7.6437078 0.9923718 -0.54542291
8.6363258 1.121242 -0.54355103
9.9158344 1.2873588 -0.54069507
11.639163 1.511096 -0.53687614
14.090346 1.8293297 -0.5316475
17.828648 2.3146682 -0.52311361
24.266815 3.1505263 -0.50851333
37.959869 4.9282765 -0.47722757
2.0691373 0.29454648 -0.5600121
2.1389792 0.30448863 -0.55971146
2.2090254 0.31445989 -0.55829364
2.2985492 0.32720378 -0.56045729
2.3759427 0.33822095 -0.55826199
2.462136 0.35049078 -0.55676818
2.5612762 0.36460358 -0.55664909
2.6686223 0.37988457 -0.55658036
2.7941301 0.39775088 -0.5583418
2.9025705 0.41318762 -0.55473173
3.0588615 0.43543604 -0.55804479
3.1952133 0.45484602 -0.55526263
3.3664751 0.47922555 -0.55596769
3.5321667 0.50281209 -0.55292726
3.7555766 0.53461504 -0.55565596
3.9808717 0.56668627 -0.55489427
4.2313714 0.60234547 -0.55365384
4.5252256 0.64417636 -0.55351776
4.8375888 0.68864197 -0.55055946
5.2389436 0.74577576 -0.55173922
5.6778669 0.80825746 -0.54982191
6.2073202 0.8836264 -0.54854417
6.8582444 0.97628695 -0.54809278
7.6456976 1.0883827 -0.54647851
8.6282187 1.2282469 -0.5439502
9.9232559 1.4125985 -0.54200596
11.631207 1.6557292 -0.53740764
14.062165 2.0017817 -0.53147274
17.797367 2.5334964 -0.52307028
24.226219 3.4486582 -0.50851279
37.903183 5.3956056 -0.47731292
2.0676737 0.32032394 -0.56063968
2.1273551 0.32956976 -0.55768806
2.2083673 0.3421202 -0.55914831
2.2879381 0.35444728 -0.55889046
2.3786674 0.36850306 -0.55992454
2.4655821 0.3819679 -0.55856735
2.5560925 0.39598975 -0.5565387
2.6774702 0.41479358 -0.55944723
2.7963643 0.43321264 -0.5598104
2.900604 0.44936147 -0.55536997
3.0369592 0.4704856 -0.55506247
3.1884048 0.49394757 -0.55509299
3.3595903 0.52046758 -0.55584556
3.5439379 0.54902673 -0.55578476
3.752248 0.58129811 -0.55617899
3.972924 0.61548525 -0.55479944
4.2310123 0.65546829 -0.55461955
4.5181561 0.69995254 -0.55366391
4.8457355 0.75070119 -0.55249548
5.2375288 0.81139773 -0.55259919
5.6676774 0.87803638 -0.54983914
6.2098994 0.96203738 -0.5497759
6.846539 1.0606656 -0.54815817
7.6336169 1.1825997 -0.5466131
8.6165915 1.334882 -0.54421085
9.8849516 1.5313764 -0.54090142
11.609563 1.798553 -0.5373888
14.053638 2.1771891 -0.53212208
17.777245 2.75405 -0.52343464
24.190884 3.7476509 -0.50869995
37.827526 5.860239 -0.47723156
2.0520518 0.34379169 -0.55750793
2.1379092 0.35817587 -0.56156695
2.2092698 0.37013131 -0.56048679
2.2807205 0.38210183 -0.5582329
2.3662415 0.39642963 -0.55810481
2.4635653 0.41273484 -0.55921787
2.5567892 0.42835316 -0.55779505
2.6675689 0.44691271 -0.55848444
2.7849171 0.46657273 -0.5586251
2.9191675 0.48906443 -0.56003332
3.0458999 0.51029664 -0.55780125
3.197597 0.53571129 -0.55779803
3.3591363 0.5627749 -0.55687332
3.5323517 0.59179461 -0.55506694
3.7435563 0.62717891 -0.55599177
3.9394569 0.65999925 -0.55121762
4.2100453 0.7053324 -0.55296624
4.5164385 0.75666416 -0.55455166
4.8451056 0.81172764 -0.55351985
5.2174091 0.8741017 -0.55156875
5.6745443 0.95068812 -0.55159771
6.1921887 1.0374119 -0.54929578
6.8214307 1.1428324 -0.54723167
7.620636 1.2767278 -0.54676646
8.5955048 1.4400529 -0.54395634
9.8692408 1.6534489 -0.54111332
11.591159 1.9419316 -0.53760159
14.030059 2.350534 -0.53228343
17.754023 2.9744306 -0.52378821
24.148438 4.0457225 -0.50881505
37.774628 6.3285942 -0.47750986
2.0465357 0.36879247 -0.55719924
2.1270375 0.38329917 -0.55990696
2.1952262 0.39558697 -0.55811584
2.2802179 0.41090274 -0.5593043
2.3607793 0.42542019 -0.55800819
2.4591546 0.44314775 -0.55941135
2.5470767 0.45899162 -0.55686539
2.6692286 0.48100376 -0.56002784
2.7832241 0.50154614 -0.55948031
2.898783 0.52237022 -0.55731279
3.0262997 0.54534918 -0.55539787
3.1734622 0.5718683 -0.55477262
3.3405964 0.60198647 -0.55498499
3.535532 0.63711452 -0.55675566
3.7208407 0.67050773 -0.5538007
3.9561458 0.71291053 -0.55473739
4.2079897 0.75829363 -0.55387902
4.4949422 0.8100034 -0.55309343
4.8219962 0.86893964 -0.5520587
5.2033448 0.93765986 -0.55125916
5.6531363 1.0187137 -0.55069274
6.1757922 1.1128981 -0.54901373
6.8190255 1.2288109 -0.54820949
7.5929737 1.3682789 -0.54594761
8.5873728 1.5474728 -0.54460472
9.8570518 1.7762731 -0.54160166
11.564481 2.0839574 -0.53751212
13.982296 2.5196557 -0.53160661
17.707638 3.1909747 -0.52353781
24.103256 4.3434863 -0.50894994
37.713493 6.7960958 -0.4777573
2.0445237 0.39444438 -0.55792981
2.1087017 0.40682605 -0.55635518
2.1955826 0.42358774 -0.55948842
2.2690601 0.43776357 -0.55784565
2.3550081 0.45434526 -0.55792242
2.4553909 0.47371185 -0.55983794
2.5431023 0.49063376 -0.55727333
2.6551828 0.51225716 -0.55836028
2.7628496 0.53302902 -0.55666006
2.8756816 0.55479741 -0.5541411
3.0279315 0.58417052 -0.55697358
3.1814606 0.61379045 -0.55744809
3.325104 0.64150321 -0.55367982
3.5085354 0.6768921 -0.55377328
3.7249317 0.71864092 -0.55568284
3.9446003 0.76102096 -0.5543887
4.2115345 0.81251979 -0.5556187
4.4867201 0.86561066 -0.55334961
4.8077836 0.92755252 -0.55169559
5.2008791 1.0033914 -0.55226332
5.6452832 1.089129 -0.55119073
6.1565228 1.1877611 -0.54855764
6.8199759 1.3157593 -0.54954499
7.5888395 1.464094 -0.54690343
8.5597258 1.6514045 -0.54409802
9.837451 1.8979126 -0.54176605
11.535968 2.2256026 -0.53741825
13.94576 2.6905172 -0.53143519
17.661577 3.4073999 -0.52337521
24.047489 4.6394162 -0.50893849
37.637573 7.2613139 -0.47789052
2.0352631 0.41867754 -0.5567655
2.1124268 0.43455097 -0.55870551
2.1923602 0.45099425 -0.56003803
2.2638965 0.4657101 -0.55794185
2.3501446 0.48345235 -0.5581364
2.4436386 0.50268513 -0.55852544
2.5386033 0.52222049 -0.55765247
2.6404688 0.54317546 -0.55662853
2.7611332 0.56799757 -0.5576793
2.8840959 0.59329242 -0.55712616
3.0219698 0.62165469 -0.5572409
3.1409333 0.64612687 -0.55169743
3.329021 0.68481874 -0.55569226
3.5077543 0.72158629 -0.55500853
3.715853 0.76439458 -0.55568862
3.9278893 0.80801302 -0.55339468
4.1943622 0.86282957 -0.55471098
4.4813185 0.9218598 -0.55403954
4.796473 0.98669088 -0.55174828
5.1906567 1.0677791 -0.55253029
5.6309175 1.1583458 -0.55113709
6.1598673 1.2671571 -0.55020237
6.779767 1.3946778 -0.54764557
7.555264 1.5542066 -0.54581982
8.5429821 1.7573918 -0.54436618
9.8182602 2.0197315 -0.54203594
11.510323 2.3678086 -0.5375393
13.935114 2.8666167 -0.53233254
17.624149 3.6254945 -0.52354753
23.995939 4.9362464 -0.50909364
37.564293 7.727416 -0.4781304
2.0269284 0.44300768 -0.55593365
2.1256464 0.46458355 -0.56367022
2.1848125 0.47751498 -0.55956763
2.2615626 0.49428955 -0.55882239
2.3302214 0.5092957 -0.55485016
2.4317887 0.53149432 -0.55726862
2.5283141 0.55259103 -0.55684274
2.6560233 0.58050328 -0.56136984
2.7502522 0.60109812 -0.55693239
2.8828306 0.63007456 -0.5583362
3.0110378 0.65809566 -0.5566752
3.1723812 0.69335902 -0.55867648
3.3249803 0.72671127 -0.55646729
3.4991214 0.76477176 -0.55508852
3.7010424 0.80890381 -0.5549193
3.922004 0.8571974 -0.55400866
4.1759405 0.91269809 -0.55371708
4.4592628 0.9746213 -0.55275261
4.7982287 1.0487061 -0.55339175
5.1778545 1.1316775 -0.55260706
5.6122394 1.2266171 -0.55074364
6.1455989 1.3431888 -0.55036157
6.7590089 1.4772563 -0.54739469
7.5601716 1.6523592 -0.54760081
8.520443 1.8622372 -0.54434794
9.7836895 2.1383338 -0.54153806
11.483033 2.5097439 -0.53766543
13.891784 3.0362031 -0.53206325
17.590044 3.8444989 -0.52389914
23.930641 5.2303066 -0.50903428
37.456383 8.1865072 -0.4780021
2.0359535 0.47128183 -0.55995607
2.0976999 0.48557484 -0.55780065
2.1858029 0.50596887 -0.56137228
2.2658174 0.52449059 -0.56142485
2.3431139 0.54238319 -0.55946577
2.4233122 0.56094748 -0.55686474
2.524919 0.58446741 -0.55763572
2.6466961 0.6126563 -0.56094837
2.740124 0.63428295 -0.55641878
2.8648591 0.66315663 -0.55639285
3.0127156 0.69738233 -0.55852854
3.1564593 0.73065615 -0.55741268
3.314625 0.76726824 -0.5562712
3.5099857 0.81249028 -0.55835468
3.68943 0.85402799 -0.55471081
3.9152951 0.90631115 -0.55459327
4.1641002 0.9639045 -0.55367684
4.4657869 1.0337389 -0.55509502
4.7762537 1.1056056 -0.55238348
5.1531606 1.1928519 -0.55149531
5.5872679 1.2933389 -0.5498122
6.1204576 1.4167614 -0.54962867
6.7651381 1.5659919 -0.54940903
7.5319819 1.7435006 -0.54707044
8.4964714 1.9667604 -0.5443204
9.747797 2.2564166 -0.5410462
11.455376 2.6516864 -0.53785652
13.855887 3.207356 -0.53215873
17.537827 4.0596499 -0.52379107
23.873947 5.5263333 -0.50923532
37.383724 8.6535721 -0.47839662
2.0257175 0.49523118 -0.55877346
2.1051507 0.5146504 -0.56142229
2.1766586 0.53213203 -0.56066191
2.2442002 0.54864413 -0.55769807
2.3263185 0.56871969 -0.55708319
2.4174724 0.59100425 -0.55715066
2.521244 0.61637354 -0.55845577
2.6171427 0.63981807 -0.55631012
2.7393384 0.6696915 -0.55788922
2.8569472 0.69844359 -0.55648214
2.9969831 0.73267841 -0.55724001
3.1476662 0.76951623 -0.55748868
3.330337 0.81417412 -0.5605458
3.4836686 0.85165942 -0.55579215
3.6913443 0.90243024 -0.55662495
3.912807 0.9565717 -0.55586493
4.1512604 1.0148668 -0.55358702
4.4400773 1.0854746 -0.55351657
4.7595263 1.1635709 -0.55206192
5.1441927 1.257611 -0.55214882
5.5708623 1.3619198 -0.54980421
6.1106348 1.493879 -0.55035454
6.7354946 1.6466398 -0.54860455
7.4968262 1.832764 -0.5461126
8.4881306 2.0751102 -0.54537952
9.7222157 2.3768094 -0.54120761
11.417856 2.7913461 -0.53766584
13.821597 3.3789933 -0.53239727
17.477644 4.2727942 -0.52352321
23.794506 5.8170905 -0.50902808
37.287342 9.1157103 -0.47856143
2.0144253 0.5188005 -0.55737621
2.0924869 0.53890461 -0.55976987
2.1591632 0.55607665 -0.55787462
2.2335415 0.57523221 -0.55676496
2.318666 0.59715545 -0.55696696
2.4118416 0.6211521 -0.55757111
2.5144658 0.64758223 -0.558676
2.6234727 0.67565614 -0.5593794
2.7230887 0.70131159 -0.55629408
2.8446801 0.7326265 -0.55580544
2.9985869 0.77226406 -0.55926162
3.135565 0.80754179 -0.55706197
3.2973328 0.84920388 -0.55670619
3.4821889 0.89681226 -0.55727333
3.6772895 0.94705892 -0.55621958
3.9094777 1.0068573 -0.5571087
4.1481452 1.0683244 -0.55488151
4.4227047 1.1390352 -0.55305505
4.7612934 1.2262362 -0.55397397
5.1302071 1.3212472 -0.55234975
5.5604239 1.4320464 -0.55047029
6.1002369 1.5710713 -0.55111635
6.7128029 1.7288332 -0.54844636
7.479064 1.9261781 -0.54650277
8.4584827 2.1784203 -0.54515451
9.6932316 2.4964206 -0.54126209
11.383428 2.9317183 -0.53770149
13.767489 3.5457158 -0.53195232
17.43214 4.4895196 -0.52377427
23.735043 6.1127858 -0.50932544
37.18507 9.5767422 -0.47872403
2.0060337 0.54302609 -0.55685973
2.0836177 0.56402779 -0.55921036
2.159543 0.58458054 -0.55978769
2.2445447 0.6075902 -0.56132776
2.3230934 0.62885302 -0.55984557
2.4117742 0.65285856 -0.55936909
2.5005512 0.67689019 -0.55739152
2.6116524 0.70696491 -0.5586704
2.7248299 0.73760164 -0.55846041
2.8381782 0.76828456 -0.55633885
2.9704242 0.80408317 -0.55581111
3.1228142 0.84533459 -0.55660135
3.2965419 0.892362 -0.55838305
3.465404 0.93807238 -0.55639112
3.6560941 0.9896915 -0.55481243
3.8864853 1.0520576 -0.55563372
4.1341906 1.1191105 -0.55481368
4.4308543 1.1994163 -0.55587643
4.7322817 1.2810117 -0.5523895
5.1097236 1.3831837 -0.55193383
5.5388618 1.4993498 -0.55011928
6.0675092 1.642453 -0.54994267
6.7104917 1.816506 -0.5500409
7.4684715 2.0216885 -0.54750389
8.4242153 2.2804048 -0.54471201
9.6645985 2.6161721 -0.54141861
11.348214 3.0719209 -0.53778177
13.735818 3.7182364 -0.53245491
17.371225 4.7023282 -0.52364177
23.668785 6.4070549 -0.50955576
37.088158 10.039631 -0.47902954
2.0060823 0.56960303 -0.55877531
2.0600135 0.58491606 -0.55476373
2.1519361 0.61101639 -0.55972105
2.2199032 0.63031489 -0.55706149
2.3019531 0.65361196 -0.55664581
2.3885384 0.67819679 -0.55587214
2.4932413 0.70792598 -0.5576604
2.5956826 0.73701292 -0.55715078
2.7020073 0.7672025 -0.55567437
2.8259354 0.8023904 -0.55583102
2.9726708 0.84405416 -0.55813128
3.1124969 0.8837561 -0.55665725
3.2770903 0.93049043 -0.55698425
3.4399998 0.97674662 -0.5541988
3.6530888 1.0372506 -0.55624986
3.8684509 1.0984002 -0.55494446
4.1116829 1.1674631 -0.55367786
4.3941302 1.2476604 -0.55315208
4.7282634 1.3425337 -0.55380559
5.084559 1.4436995 -0.55109155
5.5169096 1.5664603 -0.54981053
6.0533428 1.718774 -0.55053264
6.6674037 1.8931291 -0.54837573
7.4412746 2.1128607 -0.54737335
8.4101877 2.3879719 -0.5456624
9.6364517 2.7361548 -0.5416857
11.305988 3.2101996 -0.53761077
13.698873 3.8896306 -0.53283656
17.327559 4.9199524 -0.52410954
23.606133 6.7026777 -0.50994277
36.977913 10.499434 -0.4792369
1.9921916 0.59222353 -0.55689245
2.0702376 0.61542439 -0.55951273
2.1347108 0.63459051 -0.55722827
2.2107751 0.65720236 -0.55675668
2.2980058 0.68313366 -0.55768043
2.3858163 0.70923728 -0.55722618
2.4742219 0.7355178 -0.55538726
2.5813446 0.76736242 -0.5560565
2.7018657 0.80318999 -0.55763423
2.8294666 0.84112221 -0.55851769
2.9572966 0.87912256 -0.55723226
3.090951 0.9188543 -0.55478263
3.2613623 0.96951294 -0.55629522
3.4378524 1.0219785 -0.55583537
3.6387515 1.0817003 -0.55605006
3.8520987 1.1451225 -0.55457669
4.0950303 1.2173394 -0.55340928
4.380579 1.3022251 -0.55342013
4.6914272 1.3946316 -0.55145794
5.0577946 1.5035425 -0.55015296
5.5131683 1.6389126 -0.55140442
6.0286279 1.7921445 -0.55024749
6.6522884 1.9775416 -0.54909098
7.4146204 2.2041619 -0.54736501
8.3572912 2.4843917 -0.54417133
9.5887375 2.8504667 -0.54093295
11.265982 3.3490651 -0.53762597
13.646954 4.0568624 -0.53271717
17.287651 5.1391406 -0.52477413
23.533775 6.9959412 -0.51019949
36.837681 10.950825 -0.47912842
1.9829938 0.61612529 -0.55639714
2.061105 0.64039475 -0.55913049
2.1443834 0.66626978 -0.5618493
2.2055864 0.68528587 -0.55752999
2.2943428 0.71286285 -0.55887645
2.3696213 0.73625219 -0.55551612
2.4680495 0.76683432 -0.55607629
2.5862794 0.8035689 -0.55920577
2.6987722 0.83852088 -0.55908149
2.8040535 0.87123227 -0.555574
2.9338448 0.91155905 -0.55488342
3.0913141 0.96048546 -0.55692548
3.2562881 1.0117437 -0.5575096
3.44031 1.0689201 -0.55831563
3.6317711 1.128408 -0.55706155
3.8373439 1.1922804 -0.55452126
4.0836663 1.2688138 -0.55394012
4.3841438 1.3621737 -0.55594456
4.6788988 1.4537554 -0.55204481
5.0654602 1.5738617 -0.55305004
5.48382 1.703848 -0.55052292
6.0122209 1.8680246 -0.55080485
6.630209 2.0600364 -0.5493179
7.3815036 2.293467 -0.54696077
8.3397093 2.591186 -0.54506004
9.5783033 2.976023 -0.54236776
11.227692 3.4884953 -0.53780514
13.603457 4.2266564 -0.53300774
17.203344 5.3451576 -0.52417052
23.42741 7.2790036 -0.50979543
36.735947 11.414027 -0.47959447
1.983858 0.64324582 -0.55881667
2.0547271 0.66622442 -0.55958039
2.1197362 0.68730295 -0.55756366
2.199142 0.71304941 -0.55807513
2.2949858 0.74412578 -0.56121945
2.3601875 0.76526678 -0.55546856
2.4629853 0.79859799 -0.55710572
2.5595067 0.82989401 -0.55558139
2.6906843 0.87242711 -0.55958611
2.7949984 0.90624988 -0.55594581
2.9457147 0.95511806 -0.5593074
3.0758533 0.99731416 -0.55630744
3.2271533 1.0463717 -0.55468243
3.4107912 1.1059144 -0.55568999
3.6043541 1.1686752 -0.55501848
3.8239398 1.2398736 -0.5547455
4.0742269 1.3210267 -0.55482119
4.3587246 1.4132721 -0.55488294
4.6727338 1.5150864 -0.55347365
5.035202 1.6326132 -0.55189657
5.476397 1.7756661 -0.55192798
5.9769359 1.9379607 -0.54971391
6.6004295 2.1401222 -0.54898942
7.3520641 2.3838322 -0.54691011
8.2918949 2.6885626 -0.54405457
9.5211735 3.0871437 -0.54124135
11.196046 3.6302042 -0.53838676
13.551835 4.3940449 -0.5330618
17.154556 5.5621905 -0.52472824
23.347397 7.5701561 -0.5100413
36.632549 11.877731 -0.48011503
1.9948089 0.67401296 -0.56419325
2.0406799 0.68951201 -0.55802161
2.1343803 0.7211718 -0.56370544
2.197015 0.74233508 -0.55980951
2.2854772 0.7722249 -0.56117386
2.3648908 0.79905748 -0.5588457
2.4566548 0.83006305 -0.5579403
2.5494127 0.86140442 -0.55564755
2.6693206 0.90191925 -0.55740738
2.8066578 0.94832325 -0.56054205
2.9140165 0.98459792 -0.55554557
3.0647621 1.0355325 -0.55656236
3.2260644 1.0900338 -0.55675697
3.3854885 1.1439005 -0.55381745
3.5806143 1.2098303 -0.55361181
3.8109746 1.2876652 -0.55511963
4.0471153 1.3674533 -0.55337715
4.3283963 1.4624935 -0.55326962
4.6556253 1.5730588 -0.55369651
5.0160022 1.6948241 -0.55203462
5.4575863 1.8440281 -0.55227572
5.9569821 2.0127656 -0.55011344
6.5698428 2.2198412 -0.54867429
7.3210869 2.4736743 -0.54682708
8.2701588 2.7943497 -0.54484165
9.5001116 3.2099307 -0.54224688
11.145761 3.7659683 -0.5381549
13.487394 4.5571675 -0.532691
17.075373 5.769486 -0.52443659
23.270914 7.8628569 -0.5104441
36.473701 12.323861 -0.479983
1.9648625 0.69092602 -0.55808419
2.0342848 0.71533781 -0.55863595
2.1068938 0.74087 -0.55880988
2.1841276 0.76802862 -0.55888981
2.2871125 0.80424231 -0.56396103
2.3616538 0.83045405 -0.56045151
2.4472919 0.86056799 -0.55817497
2.5631003 0.90129095 -0.56100386
2.6737154 0.94018775 -0.5606969
2.7692831 0.97379321 -0.55542707
2.9142978 1.0247864 -0.55795944
3.0563817 1.0747489 -0.55739832
3.2025628 1.1261522 -0.55504894
3.3750732 1.1868138 -0.55445904
3.561955 1.2525291 -0.55306637
3.7968969 1.3351443 -0.55541849
4.0402899 1.4207312 -0.55479068
4.3197813 1.5190119 -0.55451405
4.6201773 1.6246433 -0.55181485
5.0087872 1.7612945 -0.55358225
5.4166231 1.9047062 -0.55045891
5.9352069 2.0870614 -0.55043083
6.5477529 2.3024578 -0.54915237
7.2959561 2.5655568 -0.54726499
8.2253971 2.8923862 -0.54419476
9.4532518 3.3241503 -0.54186434
11.100108 3.9032524 -0.53822732
13.438496 4.7255249 -0.53301442
17.020523 5.9851122 -0.52497262
23.186689 8.153389 -0.51075721
36.351055 12.782518 -0.4804011
1.9719459 0.72078145 -0.56257099
2.0208154 0.73864412 -0.55738914
2.0969512 0.76647311 -0.55863035
2.1947947 0.80223668 -0.56410098
2.2499115 0.82238287 -0.55723935
2.3433964 0.85655326 -0.55857611
2.4343641 0.88980359 -0.55767977
2.5399044 0.92838043 -0.55838323
2.6471827 0.96759254 -0.55758572
2.758338 1.0082217 -0.5556764
2.8985422 1.059469 -0.55739504
3.0330825 1.1086458 -0.55559337
3.1913443 1.1664933 -0.55554855
3.3803468 1.2355771 -0.55777919
3.5570538 1.3001667 -0.55474579
3.773706 1.379357 -0.55446529
4.022645 1.4703486 -0.5548085
4.2836504 1.5657508 -0.55230576
4.6122289 1.6858521 -0.55329961
4.9679084 1.8158592 -0.55149037
5.4085817 1.9769332 -0.55207044
5.8994951 2.1563709 -0.54953653
6.5151033 2.3813868 -0.54882854
7.2547588 2.6517441 -0.54657936
8.2020063 2.9979799 -0.54504496
9.4041843 3.4373972 -0.54143363
11.054186 4.0405021 -0.538369
13.378979 4.8902559 -0.53299856
16.951254 6.1959863 -0.52514637
23.090477 8.4399815 -0.5108853
36.221882 13.239745 -0.48080918
1.9530349 0.74121606 -0.55973381
2.0257852 0.76882625 -0.56132513
2.0858505 0.79162222 -0.55822414
2.1686399 0.82304245 -0.5599376
2.2497575 0.85382825 -0.5597592
2.3350847 0.88621163 -0.5591501
2.4161975 0.91699558 -0.55605918
2.5210602 0.95679307 -0.55678487
2.6479654 1.0049561 -0.56031114
2.747416 1.0426997 -0.55601704
2.8778636 1.0922071 -0.55595911
3.027302 1.1489221 -0.55708027
3.1764855 1.2055402 -0.55550051
3.3556881 1.2735512 -0.5562523
3.5415096 1.3440741 -0.55485719
3.7553935 1.4252473 -0.55430776
4.0146699 1.5236479 -0.55625051
4.2713709 1.6210712 -0.55325079
4.6029472 1.746911 -0.55472118
4.9623842 1.8833247 -0.55340612
5.3827558 2.0428641 -0.55195665
5.8721337 2.2285929 -0.54949892
6.4827023 2.4603159 -0.5486061
7.2502632 2.7516208 -0.54874831
8.1575165 3.0959415 -0.54457712
9.3865108 3.5623696 -0.54289705
11.0106 4.1787443 -0.53870809
13.311047 5.0518098 -0.53272671
16.870043 6.4025202 -0.52502972
22.990005 8.7251692 -0.51099747
36.07906 13.692729 -0.48111197
1.95665 0.77024245 -0.56344175
2.0113275 0.79176641 -0.55997443
2.0721982 0.81572843 -0.55721271
2.1589372 0.84987354 -0.56008828
2.2376108 0.8808437 -0.55938959
2.3283751 0.91657341 -0.56019992
2.4275839 0.95562738 -0.56134146
2.5168471 0.99076617 -0.55850285
2.647831 1.0423284 -0.56295216
2.7368438 1.0773686 -0.55651647
2.8692064 1.1294737 -0.55692762
3.016608 1.1874988 -0.55775726
3.1738546 1.2493995 -0.55768496
3.3413174 1.3153219 -0.55650914
3.5284698 1.3889951 -0.55544811
3.7414558 1.4728378 -0.55488175
3.9791844 1.5664206 -0.55396074
4.2656512 1.6791893 -0.5551424
4.5677395 1.7981075 -0.55310094
4.9093299 1.9325758 -0.55009806
5.3540826 2.1076543 -0.55163229
5.8485804 2.3023152 -0.5499025
6.4594579 2.5427892 -0.54924351
7.1966524 2.8329887 -0.54728591
8.1293106 3.2001331 -0.54527986
9.3349895 3.6747532 -0.54248971
10.961174 4.3149066 -0.53884506
13.263169 5.2210956 -0.53333968
16.789328 6.6091805 -0.52500737
22.904808 9.0165615 -0.51152945
35.926731 14.14269 -0.4813633
1.937676 0.79042596 -0.56073439
1.9982215 0.81512398 -0.55907387
2.0651197 0.84241343 -0.55805266
2.1496646 0.87690139 -0.56043774
2.2224238 0.90658164 -0.55833763
2.2993071 0.93794423 -0.55593914
2.3878298 0.97405481 -0.55487657
2.4932425 1.0170553 -0.55599797
2.6140633 1.066341 -0.55851847
2.7234645 1.1109685 -0.55653167
2.8534198 1.1639805 -0.5565995
3.0005014 1.2239788 -0.55751985
3.1671174 1.2919455 -0.5592503
3.31178 1.3509569 -0.55431443
3.530827 1.4403117 -0.55856496
3.7301376 1.5216153 -0.55593604
3.9826038 1.6246026 -0.5571757
4.248641 1.7331257 -0.55566013
4.5438862 1.8535635 -0.55293065
4.914608 2.0047901 -0.55340993
5.317986 2.169338 -0.55061996
5.8156214 2.3723357 -0.54950482
6.4188728 2.618417 -0.54848886
7.1808219 2.9292347 -0.54877973
8.0916204 3.300772 -0.54543298
9.2849731 3.78757 -0.54224861
10.91503 4.4525108 -0.53922737
13.195751 5.3828731 -0.53324997
16.721273 6.8210211 -0.52546233
22.793873 9.2981844 -0.5115667
35.786453 14.59818 -0.4818525
1.9231879 0.81223851 -0.55938971
2.0112045 0.84941137 -0.56558585
2.0565467 0.86856121 -0.5585798
2.1377149 0.90284181 -0.56017429
2.2195415 0.93740046 -0.560467
2.3031988 0.97273219 -0.55972981
2.3937075 1.0109576 -0.55908889
2.4832013 1.0487543 -0.55659252
2.5950832 1.0960065 -0.55730051
2.7126911 1.1456771 -0.55716681
2.8363831 1.1979171 -0.55610752
2.9723876 1.2553571 -0.55512232
3.1208875 1.3180746 -0.5539071
3.3172054 1.4009875 -0.55806381
3.5012484 1.4787161 -0.55672014
3.7009654 1.5630645 -0.55441087
3.949254 1.6679267 -0.55533737
4.210608 1.7783068 -0.55350405
4.520298 1.9091011 -0.5528751
4.8801093 2.0610638 -0.55233729
5.2950335 2.2363029 -0.55104899
5.8089027 2.45333 -0.55167872
6.3946037 2.7006948 -0.54921126
7.133925 3.0129395 -0.54798567
8.0635633 3.4055626 -0.54632318
9.2526188 3.9077482 -0.54312432
10.850825 4.5827341 -0.53879869
13.143847 5.551168 -0.53387058
16.651264 7.0324893 -0.52594
22.689577 9.5827084 -0.51183188
35.627686 15.046986 -0.48216957
1.9068402 0.83310819 -0.55757231
1.9713615 0.86129791 -0.55731755
2.0607274 0.90034235 -0.56267983
2.1254272 0.92860997 -0.55990422
2.1990907 0.96079397 -0.55824399
2.2742629 0.99363714 -0.55562502
2.3683643 1.0347505 -0.55609941
2.4887993 1.0873691 -0.56080186
2.5787842 1.1266841 -0.55673343
2.6956999 1.177765 -0.55660939
2.8307984 1.2367903 -0.55795211
2.9754047 1.2999696 -0.55862892
3.1146765 1.360818 -0.55573261
3.2874985 1.4363248 -0.55599535
3.4803779 1.5205948 -0.55633265
3.6917574 1.6129477 -0.5559606
3.9305329 1.71727 -0.55563223
4.1853137 1.828585 -0.55309296
4.5016236 1.9667823 -0.55350721
4.8645887 2.1253636 -0.55349672
5.2696986 2.3023582 -0.55131704
5.771172 2.5214546 -0.55099833
6.3685856 2.7824676 -0.54987365
7.0860882 3.095948 -0.547194
8.0171118 3.502717 -0.54605287
9.1885414 4.0145206 -0.54221964
10.793816 4.7158732 -0.53880656
13.0695 5.7101312 -0.53366238
16.554058 7.2325525 -0.525639
22.578251 9.8645535 -0.51201814
35.456493 15.491123 -0.48239419
1.905109 0.86040038 -0.56011736
1.9615387 0.8858856 -0.55757803
2.032923 0.91812474 -0.55812824
2.1151597 0.95526516 -0.56025147
2.1953905 0.99149954 -0.56035721
2.2816408 1.0304526 -0.56048077
2.3644257 1.0678406 -0.5582155
2.4651392 1.1133257 -0.55851305
2.5830328 1.1665697 -0.56070518
2.6802776 1.2104882 -0.55645639
2.8081896 1.2682568 -0.55652767
2.9389513 1.3273124 -0.55480719
3.1015735 1.4007572 -0.55642593
3.2641466 1.4741796 -0.55506974
3.4410818 1.5540886 -0.55306411
3.6780121 1.6610929 -0.55692452
3.9075658 1.7647657 -0.55541116
4.1775517 1.8866988 -0.55509108
4.4907017 2.028126 -0.55518866
4.8257756 2.179455 -0.55208808
5.242383 2.3676066 -0.55146343
5.7431974 2.5937881 -0.55133086
6.3248234 2.8564668 -0.54908633
7.0556159 3.1865129 -0.54782522
7.9567995 3.5935128 -0.54491347
9.1551962 4.1347418 -0.5432111
10.739558 4.8502841 -0.53903455
12.999154 5.8707805 -0.53369731
16.471935 7.4391856 -0.52589619
22.476475 10.151003 -0.51250201
35.283112 15.934837 -0.48266464
1.8889505 0.88122398 -0.55851024
1.9584985 0.91366917 -0.55986506
2.015919 0.94045669 -0.55659276
2.1119108 0.98523831 -0.56255728
2.1790805 1.016574 -0.55934256
2.2584319 1.0535927 -0.55791986
2.3524926 1.0974734 -0.55854207
2.4578104 1.1466057 -0.56000465
2.5461833 1.1878331 -0.55583477
2.6761343 1.2484572 -0.55874109
2.7918186 1.3024256 -0.55641508
2.9409854 1.3720142 -0.55833381
3.0748713 1.434474 -0.55475801
3.2463374 1.5144655 -0.55516613
3.4326191 1.6013688 -0.5548268
3.6458061 1.7008238 -0.55517274
3.8723154 1.8064936 -0.55351627
4.1413169 1.9319869 -0.55339116
4.4445305 2.0734408 -0.55259079
4.7977009 2.2382002 -0.55198312
5.2156873 2.433197 -0.55176085
5.7139373 2.6656382 -0.55162686
6.2928624 2.9357154 -0.54940403
7.008832 3.2697263 -0.54727316
7.9276433 3.6983657 -0.54598987
9.0894747 4.2403774 -0.54236436
10.685452 4.9849248 -0.53935468
12.942849 6.0380349 -0.53439355
16.399632 7.6506767 -0.52655154
22.34288 10.423292 -0.51233959
35.120247 16.384127 -0.4831562
1.8823643 0.90649796 -0.55981636
1.9388611 0.93370539 -0.55749142
2.0008607 0.96356273 -0.55566448
2.0854819 1.0043142 -0.5587647
2.1662979 1.043233 -0.55931193
2.2586274 1.0876966 -0.56122983
2.3382313 1.1260318 -0.55840129
2.4313898 1.1708945 -0.5572232
2.5475402 1.2268295 -0.5593819
2.6634212 1.2826349 -0.55933744
2.7907441 1.3439503 -0.5594523
2.9202685 1.4063258 -0.55764163
3.0709043 1.478868 -0.55728096
3.2334063 1.5571249 -0.55618709
3.4130468 1.6436352 -0.55488813
3.6253281 1.7458643 -0.55528152
3.8605406 1.8591366 -0.55505896
4.1192737 1.9837357 -0.55366331
4.4245977 2.1307719 -0.55332834
4.7704988 2.2973487 -0.5520618
5.178689 2.4939227 -0.55104935
5.6654005 2.7283106 -0.55013835
6.2590809 3.0142114 -0.54964906
6.9703383 3.3567348 -0.54744899
7.880528 3.7950585 -0.54591763
9.0548277 4.3605709 -0.54345536
10.6395 5.1237082 -0.54017454
12.866825 6.1963305 -0.53436011
16.301495 7.8503785 -0.52646017
22.224331 10.702663 -0.51260018
34.949459 16.830755 -0.48361722
1.8744755 0.93126303 -0.56083345
1.927052 0.95738369 -0.55743873
2.0033572 0.99529302 -0.55971426
2.0687714 1.0277916 -0.55763143
2.1484666 1.0673852 -0.55805469
2.2231486 1.1044883 -0.55574667
2.3377359 1.1614165 -0.56165105
2.4302115 1.2073597 -0.56031322
2.5299399 1.2569059 -0.55886865
2.6514113 1.3172545 -0.56017458
2.767772 1.3750639 -0.55819452
2.9000461 1.4407793 -0.55712098
3.0522668 1.5164046 -0.55724055
3.2016947 1.5906422 -0.55405486
3.3872793 1.682843 -0.55402118
3.6087289 1.7928619 -0.55607373
3.8436368 1.909567 -0.55596256
4.1117697 2.042779 -0.55598891
4.3982048 2.1850834 -0.55334604
4.7510419 2.3603776 -0.55312723
5.159101 2.5631063 -0.55227697
5.6443872 2.8042026 -0.55140448
6.2214017 3.0908706 -0.5496363
6.9309878 3.4434021 -0.54764253
7.8434653 3.8967321 -0.54662818
8.9864035 4.4645581 -0.54260254
10.560912 5.2467942 -0.53941935
12.788581 6.3535275 -0.53431481
16.223156 8.0598679 -0.52709109
22.111563 10.985302 -0.51307601
34.758854 17.268635 -0.48388144
1.875651 0.96078032 -0.56467718
1.9206418 0.9838264 -0.55904162
1.9908017 1.0197649 -0.55966753
2.0557182 1.0530176 -0.55756104
2.1237438 1.087863 -0.55506563
2.2239139 1.139174 -0.5593974
2.3011327 1.1787283 -0.55629724
2.4046907 1.2317748 -0.55787915
2.510731 1.2860926 -0.55807662
2.6158397 1.3399334 -0.55609822
2.7418277 1.4044693 -0.55640304
2.8765068 1.473457 -0.55603755
3.0307562 1.5524695 -0.5567565
3.1923134 1.6352253 -0.55586904
3.3812344 1.7319978 -0.55647385
3.5971873 1.8426173 -0.55774444
3.8131731 1.9532534 -0.55498827
4.0859766 2.0929937 -0.5559392
4.3773255 2.242234 -0.55414611
4.7156067 2.4155145 -0.55241799
5.1352701 2.6304822 -0.5531466
5.6011434 2.8691204 -0.55058485
6.1776428 3.1644254 -0.5491665
6.8746171 3.5214424 -0.54656851
7.7794781 3.984947 -0.54554248
8.9414272 4.5801415 -0.54324639
10.498408 5.3776875 -0.5395636
12.717428 6.5143542 -0.53464836
16.109797 8.2520561 -0.52666509
21.983513 11.260798 -0.51327896
34.572449 17.709335 -0.48428142
1.8427496 0.97271317 -0.55833071
1.8990177 1.0024148 -0.55629325
1.9842534 1.0474073 -0.56140494
2.052094 1.0832176 -0.56014836
2.1180315 1.1180234 -0.55712372
2.2104182 1.1667906 -0.55956936
2.2850556 1.2061887 -0.55595422
2.3879228 1.2604882 -0.55754274
2.508472 1.3241211 -0.56115115
2.6131639 1.3793838 -0.55909294
2.7172346 1.4343184 -0.55494946
2.8713145 1.5156511 -0.55859429
3.0209255 1.5946248 -0.55851042
3.1818132 1.6795508 -0.55759466
3.3468285 1.7666557 -0.55434471
3.5520651 1.8749918 -0.55428112
3.7896156 2.0003853 -0.5550977
4.050396 2.1380405 -0.5546332
4.3448319 2.2934613 -0.55356085
4.6920004 2.4767177 -0.55317849
5.0949016 2.6893928 -0.55231869
5.5781627 2.9444871 -0.55184329
6.1342182 3.2380064 -0.54880428
6.8465505 3.6140177 -0.54782885
7.7446046 4.0880642 -0.54658079
8.8766184 4.6856084 -0.54276836
10.439735 5.510715 -0.53998995
12.648304 6.6765289 -0.53515333
16.014584 8.4534531 -0.52691078
21.860102 11.539065 -0.51367158
34.382473 18.14912 -0.48470974
1.8403387 1.0005647 -0.56128561
1.8856295 1.0251886 -0.55602211
1.9624335 1.0669458 -0.55890113
2.034745 1.1062605 -0.55908364
2.1077292 1.1459409 -0.55807805
2.206928 1.1998738 -0.56237835
2.2763734 1.2376302 -0.55750233
2.3790073 1.2934308 -0.55913234
2.4757566 1.3460319 -0.55749315
2.6003847 1.4137903 -0.56003594
2.7271523 1.4827121 -0.56065631
2.8411064 1.5446671 -0.55637056
2.9781618 1.6191821 -0.55424339
3.1691649 1.7230277 -0.55904877
3.3304543 1.8107184 -0.55527854
3.5474827 1.9287134 -0.55722475
3.7572141 2.0427413 -0.55398905
4.0260444 2.1889002 -0.55494237
4.3305769 2.35447 -0.55539131
4.676805 2.5427089 -0.55503124
5.0639253 2.7531805 -0.55258894
5.5181465 3.000134 -0.54951394
6.098659 3.3157499 -0.54922909
6.8057313 3.7001746 -0.54816186
7.6999464 4.1863461 -0.54702067
8.8371019 4.8046002 -0.54392344
10.373993 5.6401849 -0.54013592
12.567028 6.8325057 -0.53522879
15.919031 8.6549397 -0.52722865
21.727142 11.812723 -0.51392168
34.189068 18.588085 -0.48516873
1.8112398 1.0137936 -0.55617076
1.8798949 1.0522214 -0.55810422
1.9592017 1.0966113 -0.5617786
2.0134711 1.1269871 -0.55700386
2.1117263 1.1819829 -0.56294221
2.1847124 1.2228349 -0.56050658
2.2693431 1.2702048 -0.55956346
2.3673649 1.3250698 -0.56018317
2.452949 1.3729733 -0.55611694
2.5719767 1.4395958 -0.557688
2.6989694 1.5106767 -0.55863899
2.8263419 1.5819701 -0.55724651
2.973233 1.6641884 -0.55709231
3.1448298 1.7602352 -0.55853194
3.3206849 1.8586655 -0.55741817
3.5026228 1.9605004 -0.55392313
3.7445517 2.0959136 -0.55588007
3.998621 2.2381222 -0.55491394
4.2878137 2.3999903 -0.55364996
4.6340837 2.5938058 -0.55370456
5.0271068 2.8137898 -0.55230504
5.500814 3.0789349 -0.55151641
6.0626216 3.3933918 -0.5496999
6.7670188 3.7876596 -0.54875368
7.6413689 4.2770538 -0.54655421
8.7663994 4.9067597 -0.5432443
10.304585 5.7677188 -0.54017401
12.483571 6.9873486 -0.53529322
15.81133 8.8499727 -0.52722597
21.587505 12.083035 -0.51409429
33.996788 19.028801 -0.48572385
1.7934198 1.0329816 -0.55455726
1.8755825 1.0803061 -0.56072527
1.932525 1.1131041 -0.55801189
2.0047026 1.1546772 -0.55846375
2.0823596 1.1994064 -0.559003
2.158138 1.2430537 -0.55756807
2.254189 1.2983774 -0.55972123
2.3483796 1.3526297 -0.55958414
2.4409409 1.4059435 -0.55727184
2.5554869 1.4719203 -0.55799484
2.6803327 1.5438294 -0.55866855
2.7983785 1.611822 -0.55559886
2.9486284 1.6983637 -0.55635309
3.0952554 1.7828184 -0.55357897
3.2946508 1.8976671 -0.55692285
3.4876666 2.008841 -0.55542237
3.7230241 2.1444035 -0.55655658
3.9816144 2.2933474 -0.55642521
4.2554402 2.4510667 -0.55331969
4.6020627 2.6507156 -0.55373114
4.995482 2.8773191 -0.55267596
5.4671559 3.1489959 -0.5519824
6.0253105 3.470484 -0.55014461
6.7112026 3.8655472 -0.54804051
7.5892153 4.3712687 -0.54662716
8.7103281 5.0170121 -0.5435515
10.239086 5.8975525 -0.54050112
12.393481 7.1384506 -0.53515363
15.716599 9.0525131 -0.52773899
21.456791 12.358775 -0.51456159
33.782055 19.457932 -0.48603761
1.8097966 1.0722629 -0.56365567
1.8579314 1.1007817 -0.55945265
1.9223291 1.1389358 -0.5590694
1.9964043 1.1828237 -0.56016147
2.0732291 1.2283406 -0.56056428
2.1499197 1.2737781 -0.55944914
2.2316661 1.3222109 -0.55812359
2.3216963 1.3755517 -0.55721426
2.4321985 1.4410217 -0.55927908
2.5395875 1.5046473 -0.55852091
2.6507695 1.57052 -0.55648977
2.7912996 1.6537809 -0.55818874
2.9305234 1.7362678 -0.55692327
3.0949633 1.8336946 -0.55751729
3.2646132 1.9342083 -0.55582374
3.4686983 2.055124 -0.55638397
3.6918116 2.1873136 -0.55586934
3.9491513 2.3397815 -0.55586725
4.2368555 2.5102396 -0.55487478
4.577394 2.7120008 -0.55473357
4.95785 2.937412 -0.55246687
5.4287744 3.2164242 -0.5520587
5.9807782 3.5434735 -0.55001539
6.6762581 3.9555295 -0.54911727
7.548769 4.4724722 -0.54763371
8.6545668 5.1276321 -0.54396534
10.154229 6.0161471 -0.539886
12.309496 7.2930932 -0.53535897
15.610454 9.2488356 -0.52795374
21.32135 12.63241 -0.51499969
33.594807 19.904152 -0.48682815
1.7825396 1.0859442 -0.55928314
1.8328055 1.1165668 -0.55597907
1.9067757 1.1616303 -0.558658
1.9724352 1.2016308 -0.55753982
2.0480247 1.2476809 -0.55785549
2.1315444 1.298562 -0.55878037
2.2091961 1.3458683 -0.55660075
2.3100441 1.4073061 -0.55852866
2.4169068 1.4724082 -0.55988371
2.5180466 1.5340238 -0.55788982
2.6376896 1.6069117 -0.55784988
2.763386 1.6834874 -0.55670428
2.9045968 1.7695148 -0.55608916
3.0785213 1.8754715 -0.55866748
3.2425408 1.9753942 -0.55615932
3.4382565 2.0946264 -0.55559045
3.6667717 2.2338407 -0.55619293
3.921989 2.389322 -0.55613738
4.2003284 2.5588896 -0.55416995
4.5240126 2.7560821 -0.55232966
4.926465 3.0012608 -0.55304015
5.3845935 3.2803581 -0.55162609
5.9373717 3.6171169 -0.55007231
6.6211414 4.0336776 -0.54862207
7.4711294 4.5515003 -0.54602015
8.5863895 5.2309299 -0.54368192
10.091084 6.1476078 -0.54050702
12.213115 7.4403739 -0.53510582
15.501811 9.4438868 -0.52816689
21.158556 12.890042 -0.51485711
33.366486 20.327257 -0.48710477
1.7835805 1.1168768 -0.56387615
1.8296014 1.1456951 -0.55923843
1.8964881 1.1875794 -0.55988002
1.9543561 1.2238164 -0.55664116
2.0328097 1.2729439 -0.55793256
2.1236312 1.3298163 -0.56095022
2.2032344 1.3796637 -0.55933076
2.2996383 1.4400318 -0.56025171
2.3845356 1.4931943 -0.5565961
2.5077381 1.5703437 -0.55984175
2.6127999 1.6361333 -0.55679876
2.7477515 1.7206399 -0.55777484
2.8892457 1.8092436 -0.55736732
3.0533915 1.9120315 -0.55833155
3.2244637 2.0191567 -0.55727518
3.4207027 2.1420414 -0.55696803
3.6322596 2.2745183 -0.55515844
3.8928473 2.4376981 -0.5562135
4.1727362 2.6129642 -0.55472672
4.4895997 2.8113842 -0.55230713
4.8827844 3.057596 -0.55231553
5.339263 3.3434424 -0.55115229
5.8921218 3.6896422 -0.55004185
6.5664291 4.1118927 -0.54823673
7.4363775 4.6566544 -0.54762381
8.5213795 5.3360815 -0.54367912
10.011975 6.2694912 -0.54035813
12.144727 7.6050191 -0.53616625
15.394776 9.6401978 -0.52851897
21.02162 13.163722 -0.51542479
33.154144 20.761099 -0.48769486
1.7655643 1.136053 -0.56255418
1.81115 1.165385 -0.55793649
1.8772887 1.207942 -0.55855477
1.9546543 1.257723 -0.56108856
2.0241799 1.3024591 -0.55991733
2.1027763 1.3530321 -0.55979389
2.1819479 1.4039751 -0.55826735
2.2710404 1.4613017 -0.55762005
2.3887184 1.5370216 -0.56194162
2.4737089 1.5917087 -0.5565722
2.5964763 1.6707035 -0.55765593
2.7447271 1.7660956 -0.56152683
2.86887 1.8459754 -0.55777335
3.0212946 1.9440529 -0.55679154
3.2034416 2.0612555 -0.5579803
3.3888054 2.1805279 -0.5560981
3.5898056 2.3098617 -0.5529691
3.8591015 2.48314 -0.55571258
4.1517382 2.671437 -0.55626017
4.4657426 2.8734834 -0.55367708
4.8351879 3.1112032 -0.55121744
5.3035984 3.4126022 -0.55176079
5.8463616 3.7618432 -0.55004668
6.5171356 4.1934533 -0.5483849
7.3654394 4.7392941 -0.54665005
8.4705811 5.450398 -0.54467297
9.9427605 6.3976722 -0.54082751
12.049408 7.7531953 -0.53612649
15.285617 9.835535 -0.52888352
20.875034 13.432048 -0.51584142
32.921169 21.183136 -0.48806256
1.7476172 1.155134 -0.56131917
1.8097711 1.1962162 -0.56200057
1.8615119 1.2304157 -0.55832005
1.9323485 1.2772371 -0.55915165
2.0152137 1.332009 -0.56192541
2.0819414 1.3761145 -0.5587098
2.1638141 1.4302303 -0.55808514
2.2578151 1.4923629 -0.55883628
2.3525822 1.5550017 -0.55789667
2.4580977 1.624745 -0.55751276
2.5767109 1.7031455 -0.55786657
2.694257 1.7808408 -0.55563945
2.8509068 1.8843826 -0.55874366
2.9932954 1.9784981 -0.55607301
3.1663184 2.0928621 -0.55595469
3.3546836 2.2173672 -0.5549311
3.5743079 2.3625336 -0.55501479
3.8212578 2.5257618 -0.55469352
4.0961576 2.707464 -0.55323207
4.4097576 2.9147465 -0.55113792
4.8066287 3.1770689 -0.55237353
5.255733 3.4739163 -0.55118346
5.8036218 3.8360577 -0.55042183
6.4746718 4.2796063 -0.54919827
7.301466 4.826098 -0.54626518
8.4073887 5.5570869 -0.54496229
9.8705101 6.5241756 -0.54122037
11.961672 7.9063845 -0.5365079
15.168921 10.0263 -0.52907157
20.71419 13.691594 -0.51598805
32.688236 21.606155 -0.48851109
1.7375627 1.1794401 -0.5627054
1.796626 1.2195317 -0.56253272
1.8397931 1.2488332 -0.55636972
1.9173989 1.3015113 -0.55941451
1.9905751 1.3511825 -0.55964565
2.068795 1.4042773 -0.55977345
2.1438205 1.4552039 -0.55750149
2.2338536 1.5163175 -0.55747831
2.3434358 1.5907007 -0.56032383
2.4424157 1.6578873 -0.55853742
2.5523245 1.7324923 -0.55715704
2.6788399 1.8183696 -0.55702907
2.8160031 1.9114747 -0.55646741
2.9775548 2.0211344 -0.55772364
3.1421382 2.1328521 -0.55627191
3.3327615 2.2622452 -0.55586433
3.5497119 2.4095089 -0.55575424
3.8004484 2.5797064 -0.55623543
4.0754757 2.7663922 -0.55499119
4.399405 2.9862721 -0.5543915
4.7684612 3.2367837 -0.5525195
5.222971 3.5453005 -0.55227774
5.7614136 3.91079 -0.55093795
6.4092116 4.3505087 -0.54814202
7.2648907 4.931335 -0.548024
8.3419371 5.6624236 -0.54519176
9.7964773 6.6497507 -0.54160357
11.857759 8.0489283 -0.53624582
15.038889 10.208247 -0.5288744
20.556196 13.953341 -0.51628739
32.450188 22.026863 -0.48896435
1.7188239 1.197854 -0.56136453
1.7783723 1.2393535 -0.56154662
1.8321244 1.2768136 -0.55875629
1.9023547 1.3257573 -0.55973917
1.9794234 1.3794668 -0.56123698
2.0517838 1.4298949 -0.55988574
2.1469417 1.4962108 -0.56305504
2.2170057 1.5450387 -0.55797285
2.3208911 1.6174368 -0.55964649
2.4269154 1.6913253 -0.55970645
2.5485926 1.7761227 -0.56106752
2.6571808 1.8517982 -0.55721807
2.7941072 1.9472226 -0.55683005
2.9500382 2.0558915 -0.5572626
3.1177523 2.1727719 -0.55664259
3.2956538 2.2967522 -0.5543437
3.5263584 2.4575307 -0.55678701
3.7674797 2.6255691 -0.55609334
4.0267491 2.8062549 -0.55301303
4.3431931 3.0267859 -0.55195636
4.7332067 3.2985876 -0.55309254
5.1721091 3.6044602 -0.55154461
5.7071986 3.9773657 -0.55038881
6.36691 4.4371204 -0.54914892
7.1890459 5.0100703 -0.54690856
8.2525063 5.7511988 -0.54392773
9.7205935 6.7743139 -0.54197258
11.76675 8.2002878 -0.53664964
14.935246 10.408422 -0.52969044
20.411283 14.224692 -0.51700181
32.220554 22.454613 -0.48962772
1.6956376 1.2129401 -0.55862087
1.7633307 1.2613629 -0.56165218
1.8244287 1.3050681 -0.561261
1.8782762 1.3435869 -0.55747348
1.95604 1.3992137 -0.559443
2.0234292 1.4474192 -0.55696303
2.1149905 1.5129157 -0.5595122
2.2026324 1.5756086 -0.55918926
2.2866268 1.6356922 -0.5561921
2.393682 1.712272 -0.55685574
2.5120559 1.7969484 -0.55784625
2.6450691 1.8920968 -0.55951488
2.7658384 1.9784865 -0.5560028
2.9246714 2.0921044 -0.55728823
3.0964832 2.2150066 -0.55766588
3.2825763 2.3481247 -0.55695862
3.4939358 2.4993165 -0.55647814
3.7238038 2.6637475 -0.55443943
4.0038147 2.864048 -0.554658
4.3130975 3.0852869 -0.55291122
4.6909585 3.3555822 -0.55293542
5.133122 3.671875 -0.55216014
5.6685085 4.054853 -0.55142438
6.3117805 4.5150046 -0.54914105
7.1400762 5.1075091 -0.54791963
8.188858 5.8577337 -0.54443896
9.6262627 6.8859525 -0.54139322
11.68155 8.3561602 -0.53740942
14.823814 10.603916 -0.53032279
20.239222 14.477717 -0.51711375
31.975666 22.873146 -0.49014336
1.6840594 1.2362399 -0.55977219
1.74902 1.2839264 -0.56208014
1.8010554 1.3221247 -0.5590297
1.8720925 1.3742718 -0.56061131
1.9382709 1.4228523 -0.5593226
2.0180509 1.4814174 -0.56045443
2.099649 1.5413172 -0.56042516
2.177119 1.5981866 -0.55765903
2.2803121 1.6739389 -0.5596205
2.3775799 1.7453417 -0.55806035
2.4849131 1.8241332 -0.55675775
2.6075721 1.914175 -0.55651993
2.7553093 2.0226264 -0.55884361
2.9010885 2.1296406 -0.5577423
3.0634754 2.2488461 -0.5566594
3.243042 2.3806629 -0.55517572
3.4815474 2.5557458 -0.55946809
3.7026327 2.7180407 -0.55622143
3.9646735 2.9104004 -0.55415154
4.2676225 3.1327903 -0.55197823
4.638711 3.4052002 -0.55167079
5.0881042 3.7350922 -0.55221635
5.6178923 4.1240005 -0.55139184
6.2575293 4.5935473 -0.54929376
7.0826635 5.199265 -0.54837853
8.1249533 5.9643922 -0.54502517
9.5559673 7.0148759 -0.54224998
11.569392 8.492897 -0.53701347
14.693378 10.786163 -0.53036124
20.080038 14.74042 -0.51763856
31.726027 23.289545 -0.49066943
1.6708757 1.2584676 -0.56049132
1.7314245 1.3040715 -0.56153631
1.7899669 1.3481644 -0.56069112
1.8532579 1.3958338 -0.56006867
1.912469 1.4404304 -0.5569461
1.9901547 1.4989415 -0.55778372
