# .PCD v0.7 - Point Cloud Data file format
VERSION 0.7
FIELDS x y z
SIZE 4 4 4
TYPE F F F
COUNT 1 1 1
WIDTH 1441
HEIGHT 1
VIEWPOINT 0 0 0 1 0 0 0
POINTS 1441
DATA ascii
0.20162679 3.8547308 -0.56540596
0.2128126 4.068583 -0.56222767
0.22651272 4.3305039 -0.5617364
0.24274087 4.6407561 -0.56275195
0.26151237 4.9996324 -0.56409252
0.28196764 5.3906994 -0.56282347
0.30689615 5.8672862 -0.56326288
0.33618468 6.4272289 -0.56307751
0.37160301 7.1043615 -0.56286359
0.415126 7.9364405 -0.56236559
0.47070092 8.9989309 -0.56242663
0.54421335 10.404351 -0.56338054
0.64198279 12.273522 -0.5621928
0.78478485 15.003634 -0.562163
1.0081708 19.274361 -0.56159246
1.4090502 26.938433 -0.56056446
2.3403435 44.743034 -0.55858588
0.084364183 2.1099417 -0.56580806
0.087098219 2.1783197 -0.56476766
0.08983846 2.2468529 -0.5626356
0.093325496 2.3340633 -0.56388682
0.096340403 2.409466 -0.56093621
0.10149848 2.5384693 -0.56875449
0.10516133 2.6300769 -0.56634897
0.10876683 2.7202499 -0.56213439
0.1140685 2.8528442 -0.56483573
0.11887128 2.9729614 -0.56296325
0.125144 3.1298418 -0.56574684
0.13127777 3.2832468 -0.56531787
0.13784903 3.4475937 -0.56413203
0.14536424 3.6355484 -0.5638808
0.15335642 3.8354321 -0.56225616
0.16324069 4.0826368 -0.56384975
0.17416646 4.3558893 -0.56470883
0.18601719 4.6522751 -0.56382883
0.19965644 4.993392 -0.56306887
0.21671019 5.4199052 -0.56555176
0.23495579 5.8762259 -0.56380111
0.25795826 6.4515166 -0.56488472
0.28430557 7.1104608 -0.56302726
0.31761548 7.9435382 -0.56254923
0.36062211 9.0191307 -0.56336939
0.41554967 10.392865 -0.56243938
0.49133459 12.288239 -0.56254762
0.60025626 15.012362 -0.56217098
0.77136898 19.291878 -0.56178403
1.0793145 26.993572 -0.56139326
1.7928376 44.838726 -0.55946296
0.057746533 2.0866671 -0.55933392
0.060286455 2.178447 -0.56456578
0.062263925 2.2499025 -0.56316495
0.064613491 2.3348041 -0.56383121
0.067086749 2.424175 -0.56412584
0.069516517 2.5119743 -0.56258416
0.072462216 2.6184173 -0.56360376
0.075563803 2.7304926 -0.5640164
0.078835025 2.8486981 -0.56378025
0.08253824 2.9825134 -0.56453723
0.086204655 3.1149993 -0.56282979
0.090471983 3.2691987 -0.56266493
0.094954871 3.4311876 -0.56121403
0.10059336 3.6349339 -0.56355101
0.10666636 3.8543816 -0.56479907
0.11272551 4.0733285 -0.56233025
0.12062101 4.3586321 -0.56482941
0.12861149 4.647367 -0.56299973
0.13833657 4.9987822 -0.56344229
0.14937076 5.3975019 -0.56297988
0.16274732 5.8808632 -0.56401134
0.17805763 6.4340997 -0.56312543
0.1966683 7.106595 -0.56248719
0.220266 7.9592962 -0.56343079
0.24971025 9.023262 -0.56339306
0.28786358 10.401931 -0.56269592
0.34061423 12.308071 -0.56322122
0.41583675 15.026232 -0.56245637
0.53489983 19.328568 -0.56261837
0.74841499 27.043922 -0.56220651
1.2446404 44.974995 -0.56092983
0.032244112 2.0975394 -0.56209952
0.033382829 2.1716149 -0.56264627
0.034775641 2.2622199 -0.56609821
0.035977237 2.3403859 -0.56502962
0.037313312 2.4273002 -0.56470364
0.038493764 2.5040908 -0.56067014
0.040204868 2.6154013 -0.56280565
0.041932475 2.7277853 -0.56330806
0.043835051 2.8515513 -0.56419563
0.045888696 2.9851449 -0.5648858
0.048109636 3.129621 -0.5653221
0.050267842 3.2700162 -0.5626567
0.052997693 3.4475982 -0.56374902
0.055953868 3.6399028 -0.56417209
0.059219126 3.852314 -0.56434673
0.062732853 4.0808883 -0.56322479
0.066896729 4.3517566 -0.56378919
0.071574852 4.6560769 -0.56390566
0.076826461 4.9977036 -0.56317163
0.083047032 5.4023633 -0.5633378
0.090384193 5.8796597 -0.56374669
0.098714031 6.4215312 -0.56187671
0.10952023 7.1244941 -0.56375468
0.12232367 7.9573817 -0.56314623
0.13876121 9.0266743 -0.56345701
0.16004141 10.410991 -0.56303698
0.18949303 12.326874 -0.56393236
0.23146363 15.057138 -0.56346411
0.29747909 19.351566 -0.56313878
0.41615021 27.071344 -0.56262767
0.69303429 45.083164 -0.56213015
0.0064437133 2.0953126 -0.5614391
0.0067121531 2.1826015 -0.56542867
0.0069038724 2.2449431 -0.56171119
0.0071527404 2.3258681 -0.56146091
0.0074762809 2.4310741 -0.56551749
0.0077517536 2.5206501 -0.56431377
0.0080352295 2.6128285 -0.56218821
0.0083645396 2.7199106 -0.56161815
0.0087501919 2.8453138 -0.56289762
0.0091831097 2.9860866 -0.56499988
0.009598284 3.1210895 -0.56371707
0.010083457 3.2788537 -0.56411332
0.010601647 3.4473546 -0.56364524
0.011175413 3.6339266 -0.56318194
0.011868178 3.8591943 -0.56529057
0.0125333 4.0754733 -0.56241363
0.013404766 4.358849 -0.56464404
0.014334199 4.6610746 -0.56444687
0.015397728 5.0069041 -0.56414443
0.016623333 5.405436 -0.56359428
0.01803272 5.8637285 -0.56215549
0.01980808 6.4410253 -0.56351852
0.021909919 7.1244831 -0.56368983
0.024550743 7.9832048 -0.56490964
0.027755583 9.0253277 -0.56330901
0.032050211 10.421819 -0.56355864
0.037906736 12.326195 -0.56383735
0.046360675 15.075174 -0.56407505
0.059573732 19.371685 -0.56366032
0.083394989 27.117682 -0.56352675
0.13894486 45.180923 -0.56328517
-0.019353224 2.0988607 -0.56241113
-0.020060871 2.1756053 -0.5636375
-0.020737726 2.2490103 -0.5627501
-0.021455012 2.3268001 -0.56170714
-0.022242164 2.4121671 -0.56114048
-0.023225592 2.51882 -0.56392533
-0.024132507 2.6171751 -0.56314474
-0.025150865 2.7276161 -0.56323051
-0.026336119 2.8561571 -0.56506413
-0.027456651 2.977679 -0.56343037
-0.028709387 3.1135385 -0.56237447
-0.030125832 3.2671523 -0.56212139
-0.031897746 3.4593165 -0.56562239
-0.033594947 3.6433783 -0.56466806
-0.03547693 3.8474801 -0.56359595
-0.037648495 4.0829864 -0.56347173
-0.040129311 4.3520312 -0.56378216
-0.043062121 4.670095 -0.56556064
-0.046038695 4.9929051 -0.56258839
-0.049814075 5.4023461 -0.5632934
-0.054075431 5.864491 -0.56224978
-0.059402686 6.4422321 -0.56364542
-0.065646186 7.1193409 -0.56330431
-0.073528387 7.9741673 -0.56429148
-0.083197728 9.02281 -0.56317312
-0.096073665 10.419208 -0.56343871
-0.11369007 12.32971 -0.56401944
-0.13892511 15.066455 -0.56377012
-0.17853242 19.361876 -0.56339616
-0.25040329 27.156284 -0.56435031
-0.41738427 45.265404 -0.56435972
-0.045025345 2.0922818 -0.56075412
-0.046764538 2.1731002 -0.56309491
-0.048628464 2.2597148 -0.56553549
-0.050223503 2.3338349 -0.56351185
-0.052307621 2.4306815 -0.56555438
-0.054069981 2.5125766 -0.56263387
-0.056628659 2.6314759 -0.56632888
-0.058849689 2.7346847 -0.56479686
-0.061373483 2.851963 -0.56434101
-0.063964494 2.9723644 -0.56253105
-0.067038119 3.1151929 -0.56277961
-0.070565715 3.2791166 -0.56428653
-0.074111477 3.4438844 -0.56320554
-0.078456804 3.6458073 -0.56515133
-0.082691446 3.8425868 -0.56298554
-0.087844148 4.0820279 -0.56344593
-0.093357496 4.3382273 -0.56210017
-0.10023103 4.6576333 -0.56415808
-0.1077899 5.0088863 -0.5644958
-0.11656283 5.4165549 -0.56488168
-0.12666464 5.8859763 -0.56441635
-0.13876911 6.4484587 -0.56429678
-0.15332268 7.1247478 -0.56383866
-0.17168611 7.9780779 -0.56467485
-0.1943505 9.0312691 -0.56380767
-0.22426742 10.421477 -0.56366801
-0.26508132 12.318058 -0.56359291
-0.32467565 15.087344 -0.56465846
-0.41731724 19.392305 -0.56438828
-0.58460712 27.166096 -0.56466085
-0.97534037 45.323067 -0.56518555
-0.071068406 2.1010518 -0.56329626
-0.074085802 2.1902575 -0.56773388
-0.075821929 2.2415841 -0.56118882
-0.078767881 2.3286777 -0.56245798
-0.081759311 2.4171154 -0.56258935
-0.084962614 2.5118175 -0.56265527
-0.088405594 2.613605 -0.56267428
-0.092440613 2.7328954 -0.56461936
-0.095970303 2.8372464 -0.56162
-0.10047501 2.9704227 -0.56235486
-0.10545608 3.1176822 -0.56342101
-0.1113155 3.2909088 -0.56650853
-0.11682265 3.4537208 -0.56500638
-0.1230136 3.636749 -0.56393898
-0.13011473 3.8466852 -0.5637778
-0.13803469 4.0808291 -0.56347221
-0.14758793 4.3632593 -0.5655359
-0.15704937 4.6429753 -0.56257403
-0.16956918 5.0131087 -0.56516391
-0.18292312 5.4079022 -0.56417125
-0.19865622 5.8730321 -0.56336671
-0.21777667 6.4383054 -0.5636
-0.2410154 7.12533 -0.5640766
-0.26951572 7.9679074 -0.56414694
-0.30568126 9.0370979 -0.5643636
-0.35272431 10.42787 -0.56420571
-0.41753575 12.343942 -0.56496942
-0.51041698 15.089865 -0.56494498
-0.65678543 19.41707 -0.5653013
-0.91930175 27.178049 -0.56510162
-1.5362233 45.416592 -0.56654447
-0.097136453 2.1052175 -0.56469059
-0.10035651 2.175005 -0.56405753
-0.10362473 2.2458365 -0.56252986
-0.10714252 2.3220768 -0.56113946
-0.11205827 2.4286146 -0.56554377
-0.11625323 2.5195312 -0.56466073
-0.12125056 2.6278372 -0.5660165
-0.12538691 2.7174835 -0.56171131
-0.13169292 2.8541522 -0.56524426
-0.13795617 2.9898944 -0.56631953
-0.1438777 3.1182303 -0.56379718
-0.15099148 3.2724059 -0.5636003
-0.15934455 3.45344 -0.56523824
-0.16796803 3.6403351 -0.56477267
-0.17723173 3.8411052 -0.56323683
-0.1882036 4.078896 -0.56348217
-0.20071304 4.3500104 -0.56409591
-0.21484604 4.656312 -0.56446737
-0.2315882 5.0191612 -0.5661245
-0.24894001 5.3952231 -0.56312525
-0.2713559 5.8810377 -0.56441206
-0.29751092 6.4478903 -0.56471664
-0.32964388 7.1443005 -0.56585652
-0.36774734 7.970109 -0.56458032
-0.41751456 9.0487032 -0.56536615
-0.48198617 10.445982 -0.5654636
-0.56940156 12.340517 -0.56509036
-0.69594389 15.083042 -0.56496722
-0.89634854 19.426369 -0.56585014
-1.2553777 27.207529 -0.56599277
-2.0990882 45.493084 -0.56777775
-0.12253349 2.0956476 -0.56248528
-0.12744559 2.1796575 -0.56562775
-0.13175806 2.2534122 -0.56479055
-0.13638543 2.3325524 -0.56403357
-0.14195743 2.4278486 -0.56572908
-0.14722207 2.5178878 -0.56465542
-0.15428503 2.6386831 -0.56871825
-0.15883589 2.7165151 -0.56187236
-0.16670325 2.8510675 -0.5649966
-0.17369211 2.9705956 -0.56302613
-0.18239576 3.1194513 -0.56438082
-0.19094042 3.2655876 -0.56278789
-0.20099248 3.4375045 -0.56299198
-0.21213816 3.6281252 -0.56324053
-0.22527328 3.8527706 -0.56531084
-0.23819679 4.0737967 -0.5631398
-0.2540763 4.3453784 -0.56385779
-0.272506 4.6605754 -0.56534767
-0.29137191 4.9832325 -0.56243354
-0.31563771 5.398242 -0.56380284
-0.34358397 5.8761973 -0.56431037
-0.37621909 6.4343443 -0.56389278
-0.41616273 7.1174865 -0.56409544
-0.4668074 7.9836445 -0.56590295
-0.52797419 9.0297585 -0.56454545
-0.61047089 10.440672 -0.56553972
-0.72118706 12.334211 -0.56516498
-0.88164848 15.078526 -0.56516147
-1.1357552 19.424427 -0.56615758
-1.5917412 27.222996 -0.56667882
-2.6628838 45.542374 -0.56875861
-0.14781298 2.0872276 -0.56067079
-0.15384346 2.1723826 -0.56418812
-0.15983763 2.2570245 -0.56614578
-0.16458437 2.3240519 -0.5624249
-0.17090364 2.4132848 -0.56278265
-0.17898649 2.5274205 -0.56724393
-0.18578543 2.6234264 -0.56587952
-0.19343594 2.7314572 -0.56541222
-0.20105639 2.8390639 -0.56306517
-0.21103445 2.9799612 -0.56525034
-0.22007966 3.1076863 -0.56269932
-0.23195164 3.2753272 -0.56491524
-0.24372469 3.4415715 -0.56410623
-0.25855112 3.6509316 -0.56723166
-0.27225724 3.8444719 -0.5645417
-0.28890085 4.0794921 -0.56437546
-0.30721098 4.3380442 -0.56335372
-0.33075786 4.6705437 -0.56700736
-0.35375577 4.9952912 -0.5642429
-0.38273537 5.4045038 -0.5649057
-0.41576695 5.8709345 -0.56425327
-0.45672134 6.4492402 -0.56564766
-0.50509131 7.1322598 -0.56571573
-0.56546378 7.9847636 -0.5664323
-0.63942707 9.0291796 -0.56495816
-0.73865128 10.430298 -0.56542701
-0.87396723 12.341058 -0.56592834
-1.0678924 15.079424 -0.5656445
-1.3752514 19.419559 -0.56646574
-1.9292775 27.242815 -0.56754225
-3.2296479 45.604996 -0.56999356
-0.17434235 2.0957944 -0.56350523
-0.17998825 2.1636646 -0.56245625
-0.18658282 2.242939 -0.56314546
-0.19363761 2.3277454 -0.56385237
-0.20057811 2.4111781 -0.56282395
-0.20921205 2.5149682 -0.56498379
-0.21672149 2.6052401 -0.56248903
-0.22613068 2.7183495 -0.56323189
-0.2368391 2.8470769 -0.56518924
-0.2463914 2.9619064 -0.56235778
-0.2589325 3.1126647 -0.5641346
-0.27164817 3.2655215 -0.56375748
-0.28599781 3.4380207 -0.56405807
-0.30108169 3.6193464 -0.56285709
-0.3194055 3.8396194 -0.56436324
-0.33870053 4.0715675 -0.56381273
-0.36133924 4.3437109 -0.56462389
-0.38677543 4.6494827 -0.56498528
-0.41464406 4.9844956 -0.56355679
-0.44960248 5.404736 -0.56546509
-0.48852846 5.8726707 -0.56495476
-0.53510785 6.4326081 -0.56472331
-0.59090656 7.1033726 -0.56395817
-0.66182441 7.9558864 -0.5649184
-0.75048769 9.0217199 -0.5650261
-0.86651331 10.416481 -0.56521291
-1.0258088 12.331395 -0.56602085
-1.2535576 15.069196 -0.56579626
-1.6155452 19.4207 -0.56703568
-2.2661932 27.242233 -0.56806779
-3.7960539 45.632908 -0.57088262
-0.20007935 2.0932961 -0.56345242
-0.2067111 2.1626797 -0.56281847
-0.21460009 2.2452171 -0.56433731
-0.22354619 2.338814 -0.56715649
-0.23088375 2.4155819 -0.56447196
-0.24009669 2.5119708 -0.56493104
-0.24965605 2.611984 -0.56456518
-0.25986248 2.7187669 -0.56393784
-0.27106148 2.8359349 -0.56359643
-0.28387854 2.970031 -0.56452042
-0.29651067 3.1021926 -0.56285489
-0.3099345 3.2426372 -0.5604223
-0.32799855 3.4316289 -0.56362849
-0.34617826 3.6218312 -0.56386286
-0.36503413 3.8191078 -0.56196558
-0.39043587 4.0848689 -0.56627667
-0.41582924 4.3505425 -0.5661338
-0.44313326 4.6362066 -0.56399149
-0.4756856 4.9767799 -0.56330317
-0.51496547 5.3877392 -0.56430662
-0.56038564 5.8629398 -0.56463885
-0.61475277 6.4317465 -0.56526858
-0.67988133 7.113143 -0.56535488
-0.75918978 7.9428945 -0.56461608
-0.86278164 9.0267067 -0.56596005
-0.99507725 10.410827 -0.56552732
-1.1780356 12.324998 -0.56634933
-1.4415433 15.081902 -0.56689602
-1.8543355 19.400671 -0.5670737
-2.6040156 27.24407 -0.56873077
-4.3675194 45.694431 -0.57228088
-0.2270665 2.1023817 -0.5666067
-0.23420452 2.1684718 -0.56503254
-0.24280173 2.2480721 -0.56576264
-0.25012177 2.3158476 -0.56229049
-0.25949404 2.4026244 -0.56214714
-0.27196962 2.5181341 -0.56702638
-0.28301382 2.6203914 -0.5670917
-0.2924 2.7072966 -0.56226194
-0.30560997 2.8296063 -0.563043
-0.31916276 2.95509 -0.56238401
-0.33575237 3.1086915 -0.56474042
-0.35161334 3.2555463 -0.56335801
-0.37075347 3.4327621 -0.56452072
-0.39125836 3.6226146 -0.56469113
-0.41391471 3.8323872 -0.56462586
-0.43930626 4.0674844 -0.56457281
-0.46802709 4.3334069 -0.56461018
-0.500076 4.6301441 -0.56395936
-0.53815734 4.9827347 -0.5646835
-0.58244437 5.3927827 -0.56554228
-0.6330812 5.8616233 -0.56521904
-0.69532537 6.4379349 -0.56652105
-0.76817632 7.112453 -0.56600803
-0.85835528 7.9474092 -0.5656445
-0.9728601 9.007596 -0.56546915
-1.125176 10.417871 -0.56661862
-1.3285196 12.300605 -0.56593633
-1.6260661 15.055552 -0.56661433
-2.0967002 19.413097 -0.5681476
-2.9416437 27.236328 -0.56928122
-4.9392424 45.731857 -0.57346696
-0.2511861 2.0852091 -0.56276846
-0.26120859 2.1684105 -0.56581074
-0.26808921 2.2255294 -0.56087661
-0.2796804 2.3217533 -0.56451678
-0.2909019 2.4149082 -0.56581533
-0.30173612 2.5048475 -0.56482726
-0.31125429 2.5838623 -0.55997229
-0.32681227 2.713016 -0.56424171
-0.34044778 2.8262107 -0.5631578
-0.35660422 2.9603326 -0.56417358
-0.3729952 3.0964017 -0.5632984
-0.39354777 3.2670176 -0.56613773
-0.41230249 3.422709 -0.5636586
-0.435969 3.6191752 -0.56494796
-0.46159559 3.8319132 -0.56534952
-0.48896542 4.0591226 -0.56420416
-0.52046591 4.3206224 -0.56373566
-0.5573861 4.6271133 -0.56438237
-0.60165024 4.9945703 -0.56682038
-0.64812499 5.3803778 -0.56503445
-0.70495754 5.8521705 -0.56510073
-0.77379858 6.4236517 -0.5660587
-0.85435188 7.0923605 -0.56520236
-0.95550126 7.9320469 -0.56534463
-1.0842726 9.0010366 -0.56585163
-1.2521898 10.394993 -0.56616902
-1.4821678 12.304144 -0.56689483
-1.8123921 15.045485 -0.56703132
-2.3351879 19.385448 -0.56813586
-3.2821698 27.246773 -0.57029998
-5.5118566 45.756409 -0.57458127
-0.27788028 2.090044 -0.56495279
-0.28762487 2.1633368 -0.56536692
-0.29835525 2.2440441 -0.56642449
-0.30774939 2.3147008 -0.56367952
-0.32031024 2.4091761 -0.56535244
-0.3325516 2.5012479 -0.56489497
-0.34534588 2.5974789 -0.56380087
-0.36086255 2.7141855 -0.56536502
-0.37611711 2.8289208 -0.56457669
-0.3941758 2.9647472 -0.56589586
-0.41315189 3.1074734 -0.566194
-0.43656346 3.283561 -0.56989163
-0.45451617 3.4185903 -0.56385809
-0.48084328 3.6166065 -0.56542718
-0.5090332 3.8286335 -0.56574637
-0.54038042 4.0644078 -0.56581956
-0.57558578 4.3292012 -0.5657357
-0.61549848 4.6293998 -0.56554168
-0.66044378 4.9674506 -0.56462163
-0.71312296 5.3636708 -0.56415814
-0.77769023 5.8493061 -0.5657047
-0.85153854 6.4047475 -0.56527281
-0.94175804 7.083323 -0.56536222
-1.0538623 7.9265022 -0.56583029
-1.1966107 9.0001669 -0.56667912
-1.3798287 10.378221 -0.56613678
-1.6332328 12.284169 -0.56685698
-1.9988134 15.033841 -0.56747586
-2.5771391 19.38365 -0.56896883
-3.62082 27.233574 -0.57091248
-6.0852947 45.769833 -0.57564592
-0.30304083 2.0829182 -0.56399125
-0.31288177 2.1505587 -0.56299043
-0.32533622 2.2361631 -0.56540221
-0.33645004 2.3125527 -0.56412119
-0.34864289 2.396359 -0.56330812
-0.36270669 2.4930248 -0.56400245
-0.37737855 2.5938704 -0.56398225
-0.39451668 2.7116673 -0.56580818
-0.41126654 2.8267958 -0.56511909
-0.4294239 2.9515982 -0.56435126
-0.45095927 3.0996194 -0.56573057
-0.47434357 3.2603488 -0.56683242
-0.49553505 3.4060061 -0.56274498
-0.52268857 3.592643 -0.56264299
-0.55503279 3.8149574 -0.56469131
-0.5900442 4.0556045 -0.56556129
-0.62812853 4.3173733 -0.56515658
-0.67270809 4.6237855 -0.56582355
-0.72369134 4.9742136 -0.56635892
-0.78003097 5.3614573 -0.56489152
-0.84820306 5.8300309 -0.56480658
-0.93081784 6.3978748 -0.56563365
-1.0292946 7.0747442 -0.56564498
-1.1536021 7.9291582 -0.5669896
-1.3071078 8.9842625 -0.56664687
-1.5091881 10.373239 -0.56683457
-1.788637 12.294002 -0.5682826
-2.1858342 15.024093 -0.56807953
-2.8183706 19.371763 -0.56959414
-3.9605472 27.222389 -0.57165569
-6.6604099 45.779598 -0.57675523
-0.32887009 2.0805628 -0.5644058
-0.34149665 2.1604433 -0.5666346
-0.35081792 2.2194133 -0.56221539
-0.36572841 2.3137431 -0.56546587
-0.37761229 2.3889253 -0.56260967
-0.39320076 2.4875441 -0.56381375
-0.40977326 2.5923884 -0.56471288
-0.43050173 2.723525 -0.56934392
-0.44478646 2.8138959 -0.563591
-0.46402472 2.9356046 -0.56234175
-0.48902059 3.0937383 -0.56571192
-0.51430541 3.2537 -0.56673318
-0.54039836 3.4187746 -0.56590968
-0.57125199 3.6139667 -0.56703973
-0.60203195 3.8086932 -0.56481713
-0.63817328 4.0373378 -0.56406564
-0.68152666 4.3116083 -0.56545627
-0.72740299 4.60184 -0.56418997
-0.78272766 4.9518461 -0.56486535
-0.84674644 5.356854 -0.56546074
-0.91963214 5.8179579 -0.56468982
-1.0107542 6.394433 -0.56638539
-1.1157095 7.0584216 -0.5653941
-1.2495902 7.9054036 -0.56634694
-1.4196866 8.9815006 -0.56753081
-1.6369094 10.355739 -0.5669353
-1.9390674 12.26731 -0.56810808
-2.3715987 15.003675 -0.56836718
-3.0572779 19.341555 -0.56976819
-4.2989478 27.196852 -0.57218623
-7.2382436 45.792004 -0.57798916
-0.35483134 2.0787313 -0.56504983
-0.36588499 2.1434877 -0.56332493
-0.37871546 2.2186532 -0.56315988
-0.39303973 2.3025701 -0.56387377
-0.40896365 2.395858 -0.56538403
-0.42181954 2.4711726 -0.56123626
-0.43840271 2.5683229 -0.56060255
-0.46300727 2.7124653 -0.56817913
-0.4809669 2.8176794 -0.5654906
-0.50160998 2.9386141 -0.56405711
-0.52509159 3.0761781 -0.56363899
-0.55179358 3.2326081 -0.56419855
-0.58437496 3.4234817 -0.56783539
-0.61785036 3.6195927 -0.56907147
-0.64762092 3.7939997 -0.56377643
-0.68762898 4.0283813 -0.56395304
-0.73447305 4.3028111 -0.56544423
-0.78497827 4.5986891 -0.56494433
-0.84436953 4.9466248 -0.56541139
-0.912292 5.3445392 -0.56530225
-0.99367553 5.8213134 -0.56615865
-1.090628 6.389297 -0.56707543
-1.2044598 7.0561647 -0.56635684
-1.3469326 7.8908224 -0.56644607
-1.529833 8.9623194 -0.56746453
-1.7653185 10.34188 -0.56732208
-2.0887659 12.236752 -0.56783938
-2.556859 14.979012 -0.56858099
-3.2968833 19.314344 -0.57011777
-4.6399655 27.18261 -0.57304364
-7.8190532 45.806862 -0.57934648
-0.37966406 2.0703964 -0.56401062
-0.38929412 2.1229112 -0.55913305
-0.40843427 2.2272871 -0.5665834
-0.42406255 2.3125117 -0.56754243
-0.43949965 2.3966937 -0.56681365
-0.454364 2.4777527 -0.56395698
-0.47287565 2.5787008 -0.56409436
-0.49354556 2.6914186 -0.56499904
-0.51572573 2.8123722 -0.56565547
-0.53884792 2.938463 -0.56525725
-0.56471795 3.0795381 -0.56548423
-0.5918414 3.2274487 -0.56452554
-0.62210196 3.3924665 -0.56391728
-0.65749913 3.5854957 -0.5649392
-0.69661677 3.7988133 -0.56572187
-0.7371769 4.0199971 -0.56400561
-0.78578722 4.2850804 -0.56434125
-0.84191209 4.5911422 -0.56524628
-0.90728688 4.9476466 -0.56676054
-0.97933251 5.340528 -0.56610888
-1.0614858 5.7885289 -0.56419694
-1.16895 6.3745556 -0.56699997
-1.2912112 7.041275 -0.56639326
-1.4434285 7.8713512 -0.56627965
-1.6365713 8.9246044 -0.5663079
-1.8928882 10.322359 -0.56748515
-2.2398767 12.214568 -0.56804514
-2.7451279 14.969821 -0.56947029
-3.5361614 19.28351 -0.57044804
-4.9798093 27.156057 -0.57373142
-8.3984766 45.798847 -0.58050734
-0.4068256 2.0744114 -0.56642425
-0.41820046 2.132412 -0.56294721
-0.43536952 2.2199574 -0.56603789
-0.44943988 2.2917023 -0.56374907
-0.46683446 2.3803976 -0.56427461
-0.485122 2.4736462 -0.56433737
-0.50480103 2.5739901 -0.56437904
-0.5247286 2.6756008 -0.56299043
-0.55120891 2.8106244 -0.56662434
-0.57480288 2.9309306 -0.56512517
-0.59906161 3.0546262 -0.56221986
-0.63242728 3.2247586 -0.56537253
-0.66694635 3.4007719 -0.5666182
-0.70334619 3.5863755 -0.56639767
-0.74275953 3.7873447 -0.56533134
-0.78965968 4.0264893 -0.56623602
-0.84101415 4.2883468 -0.56609064
-0.89673251 4.5724559 -0.5642606
-0.96955222 4.9437647 -0.5676387
-1.0451803 5.3293939 -0.56624818
-1.1356705 5.7908053 -0.56573719
-1.2447432 6.3469691 -0.56586486
-1.3784231 7.0286055 -0.56669474
-1.5410621 7.8579044 -0.56663269
-1.7491671 8.919035 -0.56727648
-2.0211675 10.305971 -0.56790763
-2.3898294 12.185784 -0.56803024
-2.9297781 14.938993 -0.56962496
-3.7802644 19.275639 -0.57154703
-5.3186769 27.120033 -0.57430869
-8.978673 45.782425 -0.58165461
-0.42906913 2.0537834 -0.56218988
-0.44758382 2.142406 -0.56699562
-0.46027443 2.2031507 -0.56315309
-0.47930434 2.2942393 -0.56578022
-0.49401343 2.364646 -0.56193817
-0.51437682 2.4621174 -0.56310767
-0.5380407 2.575387 -0.56609321
-0.55705768 2.6664135 -0.56245607
-0.58535939 2.8018827 -0.56627029
-0.60875595 2.9138727 -0.56323689
-0.63878316 3.057601 -0.56417048
-0.67087817 3.2112272 -0.56440377
-0.70686859 3.3834991 -0.56514579
-0.74588907 3.5702746 -0.56526059
-0.78996533 3.78125 -0.5658288
-0.83617347 4.0024304 -0.56425595
-0.8920691 4.26998 -0.5650714
-0.95284158 4.560874 -0.56423455
-1.0271367 4.9164948 -0.56591499
-1.1100628 5.3134298 -0.56595951
-1.2090906 5.787436 -0.56681764
-1.3235172 6.3351512 -0.56621939
-1.4674371 7.0240383 -0.56773847
-1.6390107 7.8452926 -0.56713367
-1.8619356 8.9123459 -0.56826425
-2.1501365 10.291849 -0.56854337
-2.5444076 12.179068 -0.56913257
-3.1176894 14.92314 -0.57043916
-4.0160065 19.223026 -0.57140809
-5.6604509 27.094328 -0.57519484
-9.5601521 45.760647 -0.58282739
-0.45789707 2.0646207 -0.56665486
-0.47318581 2.1335564 -0.56615067
-0.48719957 2.1967432 -0.56300408
-0.506953 2.2858098 -0.56519598
-0.52428079 2.3639395 -0.56325972
-0.54341328 2.4502063 -0.5618692
-0.56787014 2.5604804 -0.56430876
-0.59144068 2.6667581 -0.56402016
-0.61641437 2.7793622 -0.5632081
-0.64605105 2.9129918 -0.56455952
-0.6754806 3.045687 -0.56346214
-0.71138012 3.2075553 -0.56525314
-0.74676883 3.36712 -0.56390119
-0.79143584 3.5685198 -0.56648076
-0.83694047 3.7736964 -0.56619567
-0.88726181 4.0005913 -0.56549203
-0.9458822 4.2649059 -0.56589633
-1.0085822 4.5476151 -0.5640859
-1.0894074 4.9120493 -0.5669024
-1.1760162 5.3025613 -0.56629938
-1.2807224 5.774673 -0.56706715
-1.4009904 6.3169518 -0.56608969
-1.5512074 6.9942679 -0.56683105
-1.7318071 7.8085775 -0.5659762
-1.9697757 8.8815584 -0.56780267
-2.2744501 10.255311 -0.56802696
-2.6963542 12.157641 -0.5696376
-3.3027232 14.89171 -0.57074702
-4.2566929 19.193083 -0.57203066
-5.9983015 27.045853 -0.575688
-10.141061 45.725216 -0.58392024
-0.48054385 2.0473132 -0.56348383
-0.49697813 2.1173301 -0.56342393
-0.5163846 2.2000096 -0.56542581
-0.53385526 2.2744417 -0.56396562
-0.5540157 2.3603334 -0.56398106
-0.57740217 2.4599695 -0.56569344
-0.60111243 2.5609848 -0.56600618
-0.62470478 2.6614981 -0.56448966
-0.65544009 2.7924428 -0.56744909
-0.6843065 2.9154255 -0.56661916
-0.71690583 3.054312 -0.56664586
-0.74739134 3.1841929 -0.56271309
-0.79003465 3.3658707 -0.56527615
-0.82931435 3.5332184 -0.56245315
-0.87814248 3.7412462 -0.56290448
-0.93579334 3.9868622 -0.56513524
-0.99785691 4.2512784 -0.56567347
-1.0672042 4.5467267 -0.5655607
-1.1512351 4.9047327 -0.56764877
-1.2395258 5.2808867 -0.56556958
-1.352975 5.7642274 -0.5676322
-1.4835477 6.3205204 -0.56800133
-1.6377087 6.9773088 -0.56704581
-1.8333693 7.8109026 -0.56773579
-2.0792112 8.8582897 -0.56790668
-2.4002252 10.225942 -0.56799203
-2.8430569 12.112585 -0.56912154
-3.488126 14.860844 -0.57116473
-4.4984288 19.165148 -0.57280332
-6.3404603 27.012955 -0.57660371
-10.726008 45.697186 -0.58520234
-0.50542164 2.0402057 -0.56319559
-0.52645445 2.1251075 -0.56717324
-0.54180098 2.1870561 -0.56376624
-0.56237173 2.2700927 -0.56455922
-0.58341062 2.3550193 -0.56438279
-0.60726601 2.4513149 -0.56537765
-0.63005072 2.5432885 -0.56376475
-0.66015291 2.6648002 -0.5668689
-0.68604243 2.7693069 -0.56441921
-0.71636605 2.8917124 -0.56367987
-0.75142992 3.033253 -0.56441045
-0.78978616 3.1880832 -0.56507415
-0.8348068 3.3698153 -0.56761968
-0.87620223 3.5369139 -0.5647139
-0.92567259 3.736608 -0.56387663
-0.98657137 3.9824345 -0.5661844
-1.0498708 4.2379518 -0.56557518
-1.1249796 4.5411391 -0.56654352
-1.2110596 4.8886127 -0.5674637
-1.3081508 5.2805352 -0.56721181
-1.4251858 5.7529635 -0.56820583
-1.5563917 6.2825947 -0.56627017
-1.7241126 6.9596238 -0.56728864
-1.9295399 7.7888598 -0.56781524
-2.1865773 8.8264275 -0.56754482
-2.529644 10.211265 -0.5688616
-2.993834 12.085033 -0.56951362
-3.6733227 14.827886 -0.57159078
-4.7396636 19.13232 -0.57352078
-6.6765518 26.950844 -0.57698673
-11.307599 45.644718 -0.5862667
-0.53272241 2.0424774 -0.56558818
-0.54944903 2.1066077 -0.56399637
-0.56991172 2.1850624 -0.56501609
-0.58962458 2.2606423 -0.56396943
-0.61267048 2.3490009 -0.56470329
-0.63806844 2.4463778 -0.56600577
-0.66466814 2.548362 -0.56665826
-0.69152886 2.6513469 -0.56577319
-0.7202934 2.7616313 -0.56461734
-0.75387436 2.8903821 -0.56518477
-0.7930249 3.0404866 -0.56752801
-0.82827526 3.1756377 -0.56463075
-0.87559462 3.3570616 -0.56724209
-0.91955948 3.5256245 -0.56467408
-0.97435665 3.735719 -0.56550771
-1.0349431 3.9680095 -0.56590009
-1.1028692 4.2284408 -0.56607294
-1.1815153 4.529973 -0.56692016
-1.2687231 4.8643308 -0.56641328
-1.3703225 5.2538667 -0.56611437
-1.4872292 5.7020912 -0.5649448
-1.6349753 6.2685552 -0.56677401
-1.8079811 6.9318662 -0.56679535
-2.0239034 7.7597198 -0.56746233
-2.2996886 8.81709 -0.56871969
-2.6574092 10.188604 -0.56937653
-3.1439998 12.054211 -0.56983984
-3.8562169 14.784877 -0.57171756
-4.9740376 19.070642 -0.57346201
-7.0177855 26.906448 -0.57784003
-11.896893 45.613121 -0.58769536
-0.55781776 2.0358539 -0.56561071
-0.57799417 2.1094913 -0.56662834
-0.59711075 2.1792605 -0.56537169
-0.61954439 2.2611361 -0.56595039
-0.64320952 2.3475063 -0.56620252
-0.66849726 2.4397984 -0.56634253
-0.69519144 2.5372233 -0.5660395
-0.72458231 2.6444907 -0.56616855
-0.75450188 2.7536871 -0.56484729
-0.79229218 2.8916094 -0.56728697
-0.82842416 3.0234795 -0.56621212
-0.86640799 3.1621082 -0.56407684
-0.91613817 3.3436072 -0.56682932
-0.96468043 3.5207708 -0.56575382
-1.0199915 3.7226384 -0.56538349
-1.0792894 3.9390564 -0.56362104
-1.1554147 4.2168889 -0.56638569
-1.2361716 4.5116253 -0.5664835
-1.3251352 4.8363137 -0.56500554
-1.4354631 5.2389746 -0.56636882
-1.558897 5.6894684 -0.56555063
-1.7133095 6.2530246 -0.56723171
-1.8953952 6.9175777 -0.56748986
-2.1213562 7.7422624 -0.56805032
-2.4095294 8.7940006 -0.56909847
-2.7817514 10.152491 -0.56922686
-3.2959635 12.029198 -0.57053024
-4.0355768 14.728547 -0.57141501
-5.2164445 19.03833 -0.57437575
-7.356328 26.848211 -0.57848829
-12.482165 45.555859 -0.58889067
-0.58438271 2.0343249 -0.56713945
-0.60255206 2.0975752 -0.56537503
-0.62340891 2.170181 -0.56496221
-0.64217812 2.2355196 -0.56147271
-0.6691106 2.3292756 -0.56374723
-0.70072663 2.4393358 -0.56819236
-0.72590053 2.5269699 -0.56570059
-0.75881666 2.641556 -0.56749499
-0.78922361 2.747407 -0.56550699
-0.82197565 2.8614221 -0.56330496
-0.86360431 3.0063376 -0.56494796
-0.90859216 3.1629472 -0.56617671
-0.9555254 3.3263288 -0.5658493
-1.008116 3.5094047 -0.56587654
-1.0663531 3.712137 -0.56573725
-1.1329423 3.943944 -0.56627089
-1.2026213 4.1865072 -0.56424856
-1.2916434 4.4964066 -0.56652403
-1.3874876 4.8300548 -0.56622469
-1.4977471 5.2138848 -0.56560469
-1.6287361 5.6698775 -0.56555128
-1.7915184 6.2365475 -0.56769246
-1.9850792 6.9103618 -0.56885731
-2.2190342 7.7247944 -0.56872767
-2.5161767 8.7591934 -0.56880516
-2.9068372 10.119141 -0.56931806
-3.4433529 11.986834 -0.57048601
-4.2195516 14.688899 -0.57184654
-5.4518409 18.978685 -0.5745554
-7.6985936 26.799973 -0.57944477
-13.067142 45.488705 -0.59005505
-0.60689044 2.0187986 -0.56484872
-0.62551498 2.0807524 -0.56287134
-0.648413 2.1569219 -0.5635435
-0.67633414 2.2498004 -0.56710541
-0.70105827 2.3320444 -0.56646091
-0.72918141 2.425595 -0.5670374
-0.75355303 2.5066662 -0.56318706
-0.78724754 2.6187499 -0.56463248
-0.82469922 2.7433314 -0.56671262
-0.86170501 2.8664298 -0.56633395
-0.90002823 2.9939108 -0.5646497
-0.94817722 3.1540763 -0.56663299
-0.99612242 3.3135645 -0.56571883
-1.0530229 3.5028415 -0.5668633
-1.1156722 3.7112424 -0.56764883
-1.1842576 3.9393892 -0.56766486
-1.2569325 4.1811395 -0.56556547
-1.3478248 4.483489 -0.5669418
-1.4457428 4.8092103 -0.56582236
-1.5593727 5.1871958 -0.56474686
-1.7031776 5.6655574 -0.56716645
-1.8688778 6.2167525 -0.56793952
-2.0672214 6.8765354 -0.56812233
-2.3125749 7.6926947 -0.56841499
-2.6196256 8.7140875 -0.56792498
-3.031723 10.084914 -0.5694468
-3.5945108 11.957007 -0.57112694
-4.4051065 14.653424 -0.57253098
-5.6940804 18.941149 -0.57549512
-8.0329666 26.721367 -0.57983708
-13.651752 45.412048 -0.5911935
-0.63040221 2.0071576 -0.5637179
-0.65269595 2.0781395 -0.56429291
-0.67808843 2.1589873 -0.56621885
-0.70156205 2.2337258 -0.56518525
-0.72951835 2.3227367 -0.56633621
-0.75060534 2.3898761 -0.56080258
-0.78360736 2.4949524 -0.56267762
-0.82014871 2.6112976 -0.56515735
-0.85712844 2.7290385 -0.56589442
-0.89518994 2.8502238 -0.56526411
-0.94104677 2.9962287 -0.56722641
-0.98740035 3.1438153 -0.56692797
-1.0371978 3.3023672 -0.56594175
-1.0908358 3.4731469 -0.56418586
-1.1610705 3.6967692 -0.56757587
-1.2297857 3.9155536 -0.56636643
-1.3093201 4.1687856 -0.56602943
-1.4010499 4.4608474 -0.56621438
-1.5029788 4.7853818 -0.56515056
-1.6239755 5.1706271 -0.56507438
-1.776379 5.6558695 -0.56834036
-1.941469 6.1815047 -0.56685752
-2.1526189 6.8537917 -0.56838721
-2.4049096 7.6570678 -0.56792468
-2.7328265 8.7011337 -0.56922776
-3.1592474 10.058828 -0.57012427
-3.7405686 11.909716 -0.57102185
-4.5915484 14.619177 -0.5733555
-5.9230847 18.858698 -0.57515949
-8.3694506 26.647758 -0.58042914
-14.234771 45.322536 -0.59226215
-0.65835327 2.0093868 -0.56657475
-0.67849773 2.0708704 -0.56454188
-0.70536035 2.152859 -0.56684351
-0.7277559 2.2212133 -0.56424093
-0.75858766 2.3153162 -0.56675845
-0.78363246 2.3917565 -0.56346232
-0.81860238 2.4984896 -0.56570268
-0.84894192 2.59109 -0.56300062
-0.89122367 2.72014 -0.56627887
-0.93157458 2.8432965 -0.56611931
-0.97842526 2.9862914 -0.56757993
-1.0202394 3.1139138 -0.56375551
-1.0777761 3.2895238 -0.56596917
-1.1412383 3.4832199 -0.56805879
-1.2018172 3.6681147 -0.56540269
-1.27369 3.887481 -0.56452858
-1.3637239 4.1622772 -0.56737965
-1.4584024 4.4512491 -0.56722951
-1.5655484 4.7782741 -0.56654179
-1.6965311 5.1780515 -0.56812263
-1.8437083 5.6272569 -0.56770039
-2.0197952 6.1646991 -0.56755108
-2.2383521 6.8317652 -0.56880009
-2.5040326 7.6426592 -0.56909668
-2.8398793 8.6677103 -0.56928271
-3.2856767 10.028348 -0.57064348
-3.8922062 11.87956 -0.57182753
-4.7729864 14.567825 -0.57359999
-6.1646824 18.815477 -0.57610965
-8.7103558 26.585232 -0.58135617
-14.826345 45.25209 -0.59367913
-0.68353331 2.0026731 -0.56700885
-0.7044276 2.0638912 -0.56495792
-0.72955829 2.137521 -0.56512439
-0.7565648 2.2166471 -0.56540149
-0.78549397 2.3014061 -0.56567502
-0.81090653 2.3758619 -0.56202441
-0.85375446 2.5014014 -0.56869596
-0.88925976 2.6054277 -0.56844896
-0.93053514 2.7263598 -0.56991273
-0.96661633 2.8320737 -0.56620854
-1.0075717 2.9520681 -0.56338757
-1.0618576 3.1111195 -0.56557077
-1.1217886 3.2867105 -0.56781548
-1.1822264 3.4637864 -0.56721741
-1.248579 3.6581914 -0.5661968
-1.3222238 3.8739624 -0.56488377
-1.4140805 4.1430917 -0.56709182
-1.5099163 4.4238796 -0.56606489
-1.6252991 4.7619376 -0.56693155
-1.7574062 5.1489964 -0.56726289
-1.9106311 5.5979271 -0.56706882
-2.092993 6.1322265 -0.56688803
-2.3202405 6.7980351 -0.56832421
-2.597074 7.6091256 -0.56893462
-2.9501402 8.643569 -0.57003659
-3.4074497 9.9834318 -0.57042873
-4.0376568 11.829866 -0.57178211
-4.9574194 14.524663 -0.57425731
-6.3970523 18.74262 -0.57624382
-9.0460167 26.503778 -0.58196342
-15.410946 45.152283 -0.59481084
-0.7066223 1.9899403 -0.56582111
-0.73051584 2.0572276 -0.56554997
-0.755934 2.1288085 -0.56523573
-0.7843008 2.208693 -0.56578976
-0.81310892 2.2898204 -0.56524217
-0.84755951 2.386838 -0.56704336
-0.88000512 2.478209 -0.56584054
-0.91439849 2.5750651 -0.56423497
-0.95650738 2.6936493 -0.56549084
-0.99896604 2.8132184 -0.564852
-1.0479431 2.9511442 -0.56562769
-1.1025397 3.1048951 -0.56686091
-1.1630982 3.2754359 -0.5682956
-1.2234932 3.4455161 -0.5666464
-1.2897172 3.6320112 -0.56455666
-1.3716325 3.8626955 -0.5656575
-1.4635032 4.1214156 -0.56654525
-1.5656985 4.4092107 -0.56660861
-1.6845983 4.7440481 -0.56722504
-1.8241428 5.1370234 -0.56837201
-1.9858036 5.5922813 -0.56892741
-2.1693158 6.1090755 -0.56717092
-2.4005799 6.7603455 -0.56759822
-2.6917136 7.5802155 -0.56920481
-3.0579445 8.6115694 -0.57036293
-3.5342546 9.9529209 -0.57112533
-4.1813254 11.775156 -0.57157964
-5.1288376 14.443474 -0.57349741
-6.6342282 18.68285 -0.57687068
-9.3817291 26.42017 -0.58261663
-16.000414 45.059246 -0.59613204
-0.72662473 1.9691464 -0.5624066
-0.75502187 2.0461023 -0.56500113
-0.78134793 2.1174457 -0.56472701
-0.80787307 2.1893284 -0.56333143
-0.83976454 2.2757542 -0.56427628
-0.87503916 2.3713481 -0.5658769
-0.91204202 2.4716256 -0.56685513
-0.94836462 2.5700595 -0.56565064
-0.98645717 2.6732898 -0.56372058
-1.038152 2.8133821 -0.56740516
-1.0851123 2.9406445 -0.56612986
-1.1362405 3.0792012 -0.56467813
-1.2016993 3.2565939 -0.56754732
-1.2673061 3.4343879 -0.56733614
-1.3393571 3.6296456 -0.56670612
-1.4210513 3.8510358 -0.56646615
-1.5125306 4.0989437 -0.56597006
-1.6224208 4.3967457 -0.56752753
-1.7408782 4.7177639 -0.56659901
-1.8877026 5.1156569 -0.56853318
-2.0529091 5.5633645 -0.56851077
-2.249418 6.0959024 -0.56847292
-2.4937625 6.7580738 -0.56993896
-2.7832751 7.5426497 -0.5689109
-3.1646981 8.5763025 -0.57056147
-3.6594746 9.9171429 -0.57161123
-4.3337049 11.744301 -0.57262534
-5.3178554 14.41134 -0.5747745
-6.8657179 18.606033 -0.57706189
-9.7187061 26.337605 -0.58338714
-16.579998 44.931644 -0.59709597
-0.75125533 1.9613003 -0.56276155
-0.78243929 2.042712 -0.56667888
-0.80362839 2.0980306 -0.56214195
-0.83699137 2.1851311 -0.56485689
-0.86664927 2.2625589 -0.56360424
-0.90317506 2.3579166 -0.56527925
-0.94399965 2.4644973 -0.56783962
-0.98368895 2.568114 -0.56784177
-1.0233647 2.6716955 -0.5659951
-1.0726534 2.8003731 -0.56739873
-1.1234339 2.9329457 -0.56726432
-1.1785929 3.0769494 -0.56688005
-1.2417091 3.2417266 -0.56757432
-1.3097188 3.4192793 -0.56745785
-1.3824017 3.6090322 -0.56609893
-1.4714983 3.8416362 -0.56770211
-1.5674071 4.0920253 -0.56763309
-1.6766557 4.3772402 -0.56762815
-1.7992636 4.6973324 -0.56675953
-1.9501994 5.0913801 -0.56845731
-2.1181026 5.5297246 -0.56769174
-2.3236339 6.0663042 -0.56833428
-2.5706735 6.7112498 -0.56861299
-2.8838615 7.5288892 -0.57050455
-3.2686112 8.5333548 -0.57033497
-3.7807314 9.8703451 -0.57155025
-4.4753704 11.683837 -0.57231718
-5.4948382 14.345359 -0.57479429
-7.1086202 18.558455 -0.57825363
-10.05298 26.245287 -0.58403629
-17.168989 44.823032 -0.59841293
-0.78304005 1.9713663 -0.56836963
-0.80715317 2.032073 -0.56643802
-0.83434916 2.1005411 -0.56552082
-0.86125267 2.168273 -0.5631941
-0.89425695 2.251364 -0.56351209
-0.92631263 2.3320665 -0.56177026
-0.96924794 2.4401596 -0.56493539
-1.0138191 2.552371 -0.56707436
-1.0546119 2.6550705 -0.56517768
-1.0992616 2.7674797 -0.56343013
-1.1564758 2.911521 -0.5658282
-1.2196612 3.0705955 -0.56842953
-1.2772856 3.2156692 -0.56571925
-1.3492666 3.3968873 -0.56645232
-1.4293211 3.5984309 -0.56715
-1.5176882 3.8209021 -0.56735307
-1.615238 4.0664916 -0.56680346
-1.7310477 4.3580518 -0.56785721
-1.8594913 4.6814189 -0.56755537
-2.0127931 5.0673685 -0.56849682
-2.1832786 5.4965792 -0.56700224
-2.3994 6.0406828 -0.56865507
-2.6504459 6.6727109 -0.56806612
-2.9729419 7.4846201 -0.56987709
-3.3721516 8.4896631 -0.5701431
-3.9062183 9.834219 -0.57219642
-4.6241813 11.641748 -0.57299745
-5.6741376 14.285098 -0.57513195
-7.3413248 18.482376 -0.57865208
-10.38718 26.150562 -0.58472645
-17.751995 44.692078 -0.59953356
-0.80357867 1.952741 -0.56580585
-0.82836264 2.0129676 -0.56390905
-0.8609674 2.0921988 -0.56608236
-0.89488083 2.1746104 -0.5676555
-0.92277217 2.242388 -0.56406283
-0.96598536 2.3473985 -0.56828189
-0.99787593 2.4248943 -0.56419933
-1.0451428 2.5397553 -0.5670839
-1.0943557 2.6593456 -0.56890923
-1.1354573 2.7592249 -0.56454945
-1.1923659 2.8975158 -0.56591302
-1.2580249 3.057071 -0.56874657
-1.3102189 3.1839054 -0.56292295
-1.390955 3.3800981 -0.56646198
-1.4702865 3.5728784 -0.56592935
-1.5684528 3.8114281 -0.56876707
-1.6646465 4.0451841 -0.56664377
-1.784951 4.3375306 -0.56800026
-1.918249 4.6614523 -0.56795144
-2.0728216 5.0370722 -0.56791449
-2.2567742 5.4840875 -0.56853324
-2.4754417 6.0154614 -0.56910324
-2.7348061 6.6457314 -0.56858915
-3.0616367 7.4399486 -0.56929916
-3.4769661 8.4492226 -0.5702554
-4.0201178 9.7691107 -0.57124126
-4.7650571 11.579355 -0.57276714
-5.8559504 14.230288 -0.57578075
-7.573638 18.404364 -0.57908165
-10.716326 26.041271 -0.58518487
-18.333204 44.550713 -0.60061586
-0.82897139 1.9461017 -0.56679273
-0.8536036 2.0039287 -0.56427467
-0.89240855 2.0950274 -0.56977361
-0.92050195 2.1609797 -0.56700921
-0.95029968 2.2309332 -0.56407821
-0.98412532 2.3103426 -0.56219816
-1.028837 2.4153082 -0.56486976
-1.0734162 2.5199628 -0.56556898
-1.1184794 2.6257534 -0.56462246
-1.1677645 2.741456 -0.56380922
-1.2268524 2.8801713 -0.56542915
-1.2906898 3.0300367 -0.56662685
-1.359875 3.1924565 -0.56734836
-1.4377543 3.3752866 -0.5685755
-1.5203123 3.5691009 -0.56824917
-1.6118464 3.7839873 -0.56758696
-1.712626 4.0205784 -0.56610417
-1.8376212 4.3140182 -0.56783736
-1.9708264 4.6267323 -0.56663102
-2.1413317 5.0270123 -0.56970596
-2.3238964 5.4556031 -0.56849974
-2.5441611 5.9726987 -0.56797439
-2.8196733 6.619494 -0.56926775
-3.159133 7.4164128 -0.5704276
-3.5827589 8.4109211 -0.57060063
-4.1440229 9.72855 -0.57180595
-4.9143004 11.536861 -0.5736109
-6.0297351 14.155468 -0.57570988
-7.8071618 18.328173 -0.57966107
-11.056165 25.955566 -0.58626968
-18.920258 44.417393 -0.60190952
-0.85641384 1.9438804 -0.56916988
-0.88416708 2.0068746 -0.56812268
-0.9058637 2.0561211 -0.56217945
-0.94320327 2.1408741 -0.56473428
-0.98281652 2.230788 -0.56705433
-1.02039 2.316072 -0.56660271
-1.0581635 2.4018099 -0.5647133
-1.1087699 2.5166757 -0.56784827
-1.1555377 2.6228292 -0.56700617
-1.2032851 2.7312055 -0.56470138
-1.268084 2.8782856 -0.56807721
-1.3332549 3.0262101 -0.56893402
-1.3945588 3.1653569 -0.56553704
-1.4751794 3.3483489 -0.56705052
-1.5588508 3.5382655 -0.56634885
-1.6588079 3.7651472 -0.56777763
-1.7672176 4.0112147 -0.56780255
-1.8911774 4.2925773 -0.56803316
-2.0369713 4.6234989 -0.56925952
-2.1950841 4.9823818 -0.56766403
-2.3885248 5.421452 -0.56795865
-2.624387 5.95681 -0.56948918
-2.8989909 6.5801029 -0.56890279
-3.2482336 7.3728113 -0.57010305
-3.6934197 8.3832903 -0.57176393
-4.2711167 9.6945419 -0.5728507
-5.0645218 11.495406 -0.57460266
-6.2069263 14.088425 -0.57604384
-8.0335865 18.234562 -0.57978088
-11.378977 25.827898 -0.58650213
-19.50877 44.28083 -0.60326415
-0.87684524 1.9257256 -0.56696826
-0.90658152 1.9910322 -0.56675088
-0.93867892 2.0615244 -0.56676984
-0.97565925 2.1427405 -0.56834829
-1.0087144 2.2153363 -0.56623667
-1.0453471 2.2957888 -0.56474257
-1.082652 2.377718 -0.56213635
-1.134198 2.4909229 -0.56514162
-1.1807379 2.5931337 -0.56368268
-1.2392076 2.721545 -0.56581175
-1.3000828 2.8552389 -0.56664091
-1.3684204 3.0053217 -0.56812751
-1.438836 3.1599684 -0.56769246
-1.5138168 3.324641 -0.56614518
-1.6033159 3.5211987 -0.5667299
-1.7049341 3.7443724 -0.56776333
-1.8115299 3.9784777 -0.56627887
-1.9429845 4.2671781 -0.56779075
-2.0912545 4.5928082 -0.56860393
-2.250721 4.9430285 -0.56629074
-2.4512677 5.3834686 -0.56709433
-2.6977208 5.9247284 -0.5695504
-2.9876642 6.5615015 -0.57042772
-3.339081 7.333282 -0.57017821
-3.7892079 8.3218498 -0.57070822
-4.3876495 9.6361456 -0.57254481
-5.2054443 11.432185 -0.57459861
-6.3843813 14.021364 -0.57646817
-8.2632971 18.147835 -0.58021021
-11.717163 25.733206 -0.58757919
-20.09164 44.125217 -0.60446423
-0.89620125 1.9057493 -0.56428874
-0.92568666 1.9684494 -0.56352007
-0.9638803 2.0496671 -0.56672561
-1.0001497 2.1267931 -0.56733751
-1.031863 2.1942306 -0.56404257
-1.0722754 2.2801664 -0.56410038
-1.1168507 2.3749549 -0.56468731
-1.1612388 2.4693451 -0.56344312
-1.2102145 2.5734906 -0.56260508
-1.2737126 2.7085178 -0.56631678
-1.3344082 2.8375852 -0.56635094
-1.402638 2.9826744 -0.56706381
-1.4756671 3.1379688 -0.56695724
-1.5598172 3.3169119 -0.56805223
-1.6402977 3.4880517 -0.56459856
-1.7526847 3.7270396 -0.56836009
-1.857895 3.9507668 -0.56554359
-1.9997519 4.2524219 -0.56905621
-2.1484003 4.5685191 -0.56882447
-2.3213212 4.9362311 -0.56873918
-2.524292 5.3678432 -0.56867504
-2.7724876 5.8956246 -0.56998682
-3.0658944 6.519547 -0.57001472
-3.4346807 7.303762 -0.5711236
-3.8929415 8.2782421 -0.5709573
-4.5075922 9.5852814 -0.57277262
-5.3427858 11.3613 -0.57429445
-6.5610819 13.951975 -0.57688868
-8.4947691 18.063911 -0.58082277
-12.04305 25.609241 -0.58808553
-20.666565 43.94693 -0.60545737
-0.92508614 1.9059597 -0.56767631
-0.95887363 1.9755722 -0.56889164
-0.98764604 2.0348523 -0.56594449
-1.0242066 2.1101782 -0.56622213
-1.0619376 2.1879153 -0.56573313
-1.0968893 2.2599266 -0.56238747
-1.1530794 2.3756952 -0.56819165
-1.2024883 2.4774928 -0.56863314
-1.2493675 2.5740783 -0.56604928
-1.3033534 2.6853056 -0.56477171
-1.3672805 2.8170149 -0.56555825
-1.4381466 2.9630208 -0.56664658
-1.5135807 3.118438 -0.56674832
-1.5972162 3.2907529 -0.56689292
-1.6870067 3.4757485 -0.56592214
-1.7982483 3.7049403 -0.56831908
-1.914887 3.9452515 -0.56808174
-2.041348 4.2057996 -0.5661335
-2.2051203 4.5432205 -0.56900764
-2.3774672 4.8983078 -0.56769514
-2.588273 5.3326321 -0.56827354
-2.8458223 5.8632627 -0.57019812
-3.1412992 6.4720349 -0.56919485
-3.5232363 7.2589421 -0.57096338
-3.9956844 8.2323294 -0.57113624
-4.6254821 9.5299053 -0.57281899
-5.4858756 11.302577 -0.57469249
-6.7371292 13.880543 -0.57731682
-8.7196016 17.96504 -0.5810473
-12.373496 25.493177 -0.58886969
-21.247873 43.777103 -0.60667133
-0.94483078 1.8872101 -0.5655095
-0.97937626 1.9562114 -0.56674147
-1.0100107 2.017401 -0.56450236
-1.0559754 2.1092112 -0.56940377
-1.0817744 2.160742 -0.56210387
-1.1318729 2.2608089 -0.56602782
-1.177923 2.3527896 -0.56613469
-1.2278533 2.4525208 -0.56632411
-1.2825912 2.5618546 -0.56678659
-1.3380075 2.6725435 -0.56550515
-1.4019977 2.8003578 -0.5656324
-1.4697511 2.935689 -0.56483316
-1.5486786 3.0933392 -0.56560504
-1.6363722 3.2684987 -0.56648272
-1.7345864 3.4646723 -0.56754863
-1.8369166 3.6690671 -0.56623834
-1.9604599 3.9158335 -0.56727409
-2.1023812 4.1993074 -0.5686965
-2.2594073 4.5129523 -0.56865335
-2.4422359 4.8781352 -0.56879467
-2.6551239 5.303359 -0.56859028
-2.9160388 5.8245115 -0.56987357
-3.2288954 6.4494133 -0.57065403
-3.6232195 7.2370381 -0.57270163
-4.1012731 8.191906 -0.5717873
-4.7461538 9.4799938 -0.57328355
-5.6289105 11.243217 -0.57515013
-6.9147577 13.811575 -0.57794112
-8.9491043 17.87499 -0.58164996
-12.698037 25.363129 -0.58942783
-21.829693 43.602745 -0.60792905
-0.96568322 1.8710319 -0.56417722
-0.99711227 1.9319264 -0.56321537
-1.0413561 2.0176499 -0.56811208
-1.0719815 2.0769873 -0.56422049
-1.1147828 2.1599157 -0.56541216
-1.1626986 2.2527535 -0.56754762
-1.2072006 2.3389771 -0.56634015
-1.2554423 2.4324462 -0.56521064
-1.3107708 2.5396466 -0.56539643
-1.3647919 2.6443136 -0.56304026
-1.4416407 2.7932098 -0.56772631
-1.5067023 2.9192681 -0.56519568
-1.5967917 3.0938182 -0.56923974
-1.6750126 3.2453728 -0.56600159
-1.7715006 3.4323204 -0.56577456
-1.8888124 3.6596146 -0.56832093
-2.0113935 3.8971181 -0.5681029
-2.1492062 4.1641326 -0.567469
-2.3132186 4.4819107 -0.56828314
-2.504813 4.8531289 -0.56942725
-2.7200012 5.2700605 -0.56856316
-2.9882612 5.7898202 -0.5700314
-3.3074419 6.4082398 -0.57056636
-3.7082558 7.1848249 -0.57213491
-4.205441 8.1481323 -0.57229811
-4.8698025 9.4353476 -0.57416141
-5.7717667 11.182922 -0.57565284
-7.0814133 13.720389 -0.57772547
-9.1768198 17.780287 -0.58219612
-13.024541 25.235327 -0.59013516
-22.404249 43.408714 -0.6090188
-0.99267405 1.8666486 -0.56649333
-1.0255407 1.9284519 -0.56583601
-1.0649874 2.0026283 -0.56752694
-1.102533 2.07323 -0.56683981
-1.1461715 2.1552889 -0.56784749
-1.1852643 2.2288001 -0.56514198
-1.2347021 2.3217642 -0.56580573
-1.2910416 2.4277062 -0.5677551
-1.3427459 2.5249321 -0.56575364
-1.3985829 2.6299295 -0.56359673
-1.4698805 2.7639992 -0.56542009
-1.5442392 2.903825 -0.56583941
-1.6271349 3.0597043 -0.56660151
-1.7233304 3.2405927 -0.56882066
-1.8227366 3.4275184 -0.56863457
-1.9324737 3.6338708 -0.56797034
-2.0574203 3.8688235 -0.56762332
-2.2055166 4.1473074 -0.56882894
-2.3711035 4.4586811 -0.56899154
-2.5641546 4.8216991 -0.56939596
-2.7895539 5.2455454 -0.56957591
-3.054004 5.7428236 -0.56905872
-3.3786478 6.353292 -0.56932998
-3.78848 7.1239505 -0.57095385
-4.3046565 8.0945816 -0.57221144
-4.9837565 9.3715782 -0.57396674
-5.9074383 11.108492 -0.57551718
-7.2551508 13.642763 -0.57816964
-9.4045382 17.684523 -0.58280301
-13.348014 25.099932 -0.5907625
-22.982046 43.216003 -0.61023378
-1.0043925 1.8339285 -0.56026918
-1.046664 1.9111125 -0.56448203
-1.082018 1.9756657 -0.56361383
-1.1299251 2.0631397 -0.56783682
-1.1662109 2.1293943 -0.56476063
-1.2156971 2.2197514 -0.5665952
-1.2730881 2.324542 -0.5702545
-1.3154894 2.401963 -0.56547487
-1.3696231 2.5008061 -0.56407881
-1.4391223 2.6277053 -0.5668695
-1.5034308 2.7451267 -0.56529856
-1.58232 2.8891711 -0.56673247
-1.6661607 3.0422566 -0.56712162
-1.7559737 3.2062469 -0.56653923
-1.86257 3.400882 -0.5679723
-1.9706221 3.5981753 -0.56613576
-2.1120441 3.8563988 -0.56956768
-2.2462053 4.1013646 -0.56627309
-2.4230549 4.4242759 -0.56836027
-2.617933 4.7801056 -0.56824267
-2.8497033 5.2032971 -0.56875038
-3.1299827 5.7150612 -0.57007837
-3.4624476 6.3221116 -0.57030809
-3.8767953 7.0786729 -0.57110244
-4.405623 8.0442629 -0.57244068
-5.0972753 9.3071575 -0.57381666
-6.0470638 11.041384 -0.57584924
-7.4317226 13.569644 -0.57889992
-9.6278486 17.579569 -0.58320165
-13.67633 24.971722 -0.59165835
-23.549791 42.99976 -0.6112231
-1.0385056 1.8420869 -0.56661999
-1.0700939 1.8981179 -0.56448776
-1.1126488 1.9736013 -0.56688517
-1.1564894 2.0513651 -0.56846714
-1.1916606 2.1137514 -0.56445551
-1.2427024 2.2042885 -0.56650591
-1.290188 2.288518 -0.56526631
-1.3437581 2.3835397 -0.56498492
-1.4001302 2.4835317 -0.56402314
-1.4731237 2.6130066 -0.56756341
-1.5400898 2.7317903 -0.56640917
-1.6123677 2.8599958 -0.56485593
-1.7071415 3.0281043 -0.56835365
-1.7934237 3.1811502 -0.56595862
-1.9031682 3.375814 -0.56765115
-2.012641 3.5699949 -0.56555301
-2.1508236 3.8151016 -0.56733155
-2.3120546 4.1010909 -0.57011747
-2.4765844 4.3929315 -0.56820285
-2.6789978 4.7519698 -0.568771
-2.9246535 5.1877103 -0.57093441
-3.2028086 5.6810985 -0.57057589
-3.5440381 6.286366 -0.57097155
-3.9698195 7.0416117 -0.57200754
-4.5110426 8.001626 -0.57331055
-5.212635 9.2461014 -0.57396072
-6.1898293 10.979435 -0.5765444
-7.6010408 13.482622 -0.57913107
-9.852396 17.476046 -0.58374226
