# .PCD v0.7 - Point Cloud Data file format
VERSION 0.7
FIELDS x y z
SIZE 4 4 4
TYPE F F F
COUNT 1 1 1
WIDTH 1459
HEIGHT 1
VIEWPOINT 0 0 0 1 0 0 0
POINTS 1459
DATA ascii
0.78749013 1.9475685 -0.56289423
0.8118099 2.0077145 -0.56102937
0.84640676 2.0932772 -0.56495607
0.87418926 2.1619871 -0.56294733
0.90769988 2.2448633 -0.56327176
0.94355589 2.33354 -0.5635125
0.98255807 2.4299977 -0.56397122
1.023411 2.5310323 -0.5637213
1.0672586 2.6394734 -0.56324428
1.113061 2.7527487 -0.56181425
1.1618979 2.8735292 -0.55982304
1.2243406 3.0279582 -0.56191987
1.2865793 3.1818826 -0.56115687
1.3567246 3.3553617 -0.56090862
1.4321218 3.5418289 -0.55960667
1.5255111 3.7727935 -0.56159216
1.6203421 4.0073228 -0.55993485
1.7375003 4.297071 -0.56129318
1.865127 4.6127086 -0.56060541
2.0129917 4.9783978 -0.55989385
2.1918497 5.4207377 -0.5605588
2.3933771 5.9191422 -0.55858874
2.6447551 6.540834 -0.55821329
2.9530249 7.3032255 -0.55743814
3.3420746 8.265398 -0.55645204
3.8558245 9.5359697 -0.55621243
4.5383701 11.223997 -0.55379951
5.5355988 13.690276 -0.55254418
7.0759764 17.499838 -0.54924268
9.8108768 24.263613 -0.54387325
15.971663 39.500057 -0.53119159
0.76300216 1.9558682 -0.56253886
0.7855975 2.0137889 -0.55998504
0.81611437 2.0920155 -0.56186461
0.84905607 2.1764576 -0.56395411
0.87678486 2.2475371 -0.56119502
0.91238773 2.3388009 -0.56203121
0.95260179 2.4418852 -0.5639689
0.99228597 2.543611 -0.56376266
1.0322008 2.6459281 -0.56187069
1.0777967 2.7628078 -0.56111997
1.1288661 2.8937182 -0.56100959
1.1839229 3.0348501 -0.56045491
1.2465014 3.1952631 -0.56077105
1.3209039 3.3859854 -0.56327009
1.3906032 3.5646513 -0.56046849
1.4739614 3.7783303 -0.55967617
1.5691952 4.0224514 -0.55931026
1.6807982 4.3085327 -0.56004834
1.806631 4.6310906 -0.56009722
1.9518791 5.0034175 -0.55996609
2.1210268 5.4370084 -0.55950201
2.3219626 5.9520841 -0.5589608
2.5685859 6.5842743 -0.55918288
2.8702796 7.3576317 -0.55885464
3.2457716 8.3201618 -0.55740982
3.7376173 9.5809517 -0.55611336
4.4108586 11.306728 -0.55516344
5.3675628 13.75913 -0.55261749
6.8670707 17.602945 -0.54978704
9.5258198 24.418343 -0.54467475
15.520538 39.785114 -0.53241825
0.73551708 1.9561157 -0.55996639
0.76621616 2.0377603 -0.56398827
0.78968149 2.1001666 -0.56140339
0.82316989 2.1892292 -0.56459796
0.84884977 2.2575252 -0.56104028
0.88852918 2.3630528 -0.56519085
0.91636366 2.4370792 -0.56021416
0.95848978 2.549114 -0.56232756
0.99638563 2.6498985 -0.56006968
1.0468132 2.7840111 -0.56276947
1.0950215 2.9122217 -0.56194389
1.1393338 3.0300708 -0.55694294
1.2056991 3.2065699 -0.56011111
1.2796863 3.4033396 -0.56349677
1.349417 3.588789 -0.56161231
1.4316146 3.8073947 -0.56133139
1.5233539 4.0513763 -0.56068516
1.6288344 4.3319025 -0.56044024
1.747835 4.648386 -0.55954736
1.8930348 5.0345464 -0.56080234
2.0523224 5.4581738 -0.55904084
2.2472084 5.9764752 -0.55861413
2.4864895 6.6128454 -0.55897045
2.7706759 7.3686423 -0.55706108
3.1447196 8.3634157 -0.55767483
3.6233644 9.6363773 -0.55670226
4.264874 11.342479 -0.55430192
5.2019682 13.834691 -0.55304134
6.6559854 17.701664 -0.55027246
9.2290668 24.544802 -0.54492301
15.052433 40.032108 -0.53320634
0.71006739 1.961303 -0.55890965
0.73886603 2.0408487 -0.56228596
0.76481396 2.1125205 -0.56214929
0.79509884 2.1961713 -0.56382424
0.820629 2.2666891 -0.56076753
0.85148335 2.351913 -0.55997986
0.88698685 2.4499786 -0.56062984
0.92762959 2.5622394 -0.56266421
0.96775693 2.6730766 -0.56241089
1.0101802 2.7902555 -0.56147832
1.0548548 2.9136527 -0.55967486
1.1099308 3.0657799 -0.56095546
1.1650708 3.2180841 -0.55957764
1.2358643 3.4136257 -0.56264114
1.3035575 3.6006036 -0.56091034
1.384779 3.8249483 -0.56136644
1.4750705 4.0743461 -0.56131142
1.5745956 4.3492475 -0.56013697
1.6966408 4.6863532 -0.56156385
1.8277663 5.0485396 -0.55981523
1.9875408 5.4898586 -0.5597406
2.1806121 6.0231476 -0.5604279
2.4035594 6.6389589 -0.55863726
2.6848354 7.4158816 -0.55809426
3.0385132 8.3927879 -0.55709982
3.5034916 9.6771212 -0.55652523
4.1282411 11.402765 -0.55472541
5.0322385 13.899729 -0.5531258
6.4430919 17.796698 -0.55072218
8.9424334 24.70022 -0.54589093
14.586472 40.289822 -0.53420955
0.69443405 1.9943994 -0.56586492
0.71316016 2.0481803 -0.56184739
0.74113852 2.1285336 -0.56394279
0.76423365 2.1948624 -0.56103319
0.79515624 2.2836714 -0.56250745
0.82761651 2.3768966 -0.56346267
0.85655874 2.4600182 -0.56047463
0.89573401 2.5725286 -0.56246245
0.93444598 2.6837084 -0.56218773
0.97645915 2.8043694 -0.56185985
1.0240504 2.9410503 -0.56247628
1.0759467 3.0900953 -0.56294119
1.1274682 3.2380641 -0.56059873
1.1913933 3.4216554 -0.56150758
1.2635906 3.6290045 -0.56287163
1.3345702 3.8328564 -0.56007624
1.4237256 4.0889091 -0.56086344
1.5204935 4.3668242 -0.55995035
1.6390624 4.7073517 -0.56162244
1.772128 5.0895128 -0.56189978
1.9211733 5.5175681 -0.5601148
2.1024768 6.0382676 -0.55938697
2.3188064 6.6595616 -0.55792946
2.5971286 7.4588971 -0.55888587
2.9369476 8.4348497 -0.5574525
3.3850853 9.7218914 -0.55666405
3.9976892 11.481277 -0.5561114
4.8692451 13.984366 -0.55406934
6.226171 17.881428 -0.5509333
8.64466 24.827274 -0.54630834
14.118064 40.546772 -0.53527421
0.66310161 1.9825824 -0.56015629
0.6870864 2.0542936 -0.56116432
0.71351761 2.1333194 -0.56284362
0.73752749 2.2051055 -0.56129092
0.76808381 2.2964647 -0.56328964
0.79795605 2.3857787 -0.56319964
0.82811224 2.4759414 -0.56174004
0.86009002 2.5715508 -0.55989397
0.90376514 2.7021332 -0.56367677
0.94226652 2.8172472 -0.56207603
0.98463112 2.9439113 -0.56066549
1.0320978 3.0858305 -0.55980986
1.0864657 3.2483828 -0.56002992
1.1564549 3.4576409 -0.56503659
1.212963 3.6265922 -0.5601418
1.2900314 3.8570163 -0.56124622
1.3694075 4.0943398 -0.55925637
1.4656329 4.3820405 -0.55954832
1.5798016 4.7233891 -0.56117576
1.7055272 5.0992913 -0.56062162
1.8571583 5.5526476 -0.56131524
2.0298073 6.0688443 -0.559865
2.2408164 6.6997323 -0.55894423
2.5022535 7.4813933 -0.55822384
2.8350797 8.4764977 -0.55785888
3.2696922 9.7759295 -0.55741394
3.8574085 11.53312 -0.556283
4.7017908 14.057706 -0.5546425
6.0109849 17.972017 -0.55140543
8.3491602 24.962839 -0.54699093
13.64803 40.805729 -0.5364368
0.64041144 1.9959991 -0.56167966
0.6642859 2.0704098 -0.5632928
0.68725824 2.1420085 -0.56286395
0.71098411 2.2159562 -0.56178498
0.73784 2.2996593 -0.56180531
0.7685464 2.3953631 -0.56318873
0.80088568 2.4961565 -0.56404942
0.83293861 2.5960574 -0.56295711
0.86629546 2.7000222 -0.56097186
0.90210742 2.8116388 -0.55870175
0.95117605 2.9645731 -0.56233048
0.9987095 3.1127229 -0.5624181
1.0504653 3.2740326 -0.56218261
1.1065066 3.4486992 -0.56130946
1.1719257 3.6525936 -0.56188953
1.2443171 3.8782189 -0.5620625
1.3244023 4.1278243 -0.56156319
1.4201088 4.4261169 -0.56290412
1.5140836 4.7190127 -0.55840164
1.6443549 5.1250353 -0.56118649
1.7801428 5.5482512 -0.5586158
1.9536484 6.0890241 -0.55946815
2.1629205 6.741272 -0.56014854
2.4139962 7.5238109 -0.55913168
2.7304685 8.5101748 -0.55782336
3.1483977 9.8127527 -0.55726397
3.7156901 11.580858 -0.55633974
4.5312529 14.12276 -0.55496889
5.7982111 18.071547 -0.55222982
8.0480947 25.083858 -0.54743284
13.164301 41.02977 -0.53721339
0.61923915 2.0148439 -0.56479716
0.63601738 2.0694361 -0.56085765
0.65955859 2.1460328 -0.56174779
0.68354392 2.2240751 -0.56166995
0.71172756 2.3157773 -0.56356227
0.73382437 2.3876746 -0.55921715
0.76632488 2.4934227 -0.56125998
0.8021189 2.6098871 -0.56377465
0.83475477 2.7160759 -0.56213218
0.86989892 2.8304257 -0.56026697
0.91307682 2.9709156 -0.56136143
0.96075022 3.1260324 -0.56264579
1.0100851 3.2865553 -0.56215763
1.060828 3.4516597 -0.55962586
1.1265689 3.6655636 -0.56171125
1.1993604 3.9024084 -0.56338829
1.2715896 4.1374235 -0.56069946
1.35991 4.4247952 -0.56056696
1.4619122 4.7566838 -0.56068975
1.5830939 5.1509776 -0.56185311
1.7171878 5.5872846 -0.56037748
1.8784295 6.1119232 -0.55940765
2.0773466 6.7591476 -0.55946904
2.3207045 7.5509715 -0.55898714
2.6309149 8.5603161 -0.55894721
3.0324097 9.8666763 -0.5581665
3.5765467 11.637156 -0.55688947
4.3550491 14.170203 -0.5546869
5.5752134 18.140301 -0.55219418
7.7508793 25.219355 -0.54826844
12.685052 41.273872 -0.5383265
0.59633064 2.02881 -0.56661379
0.61361444 2.0876122 -0.56369627
0.63729656 2.1681826 -0.56545168
0.65527576 2.2293506 -0.56092495
0.67818975 2.3073075 -0.55942935
0.70951474 2.4138799 -0.56326878
0.73587042 2.503546 -0.56145942
0.76508123 2.6029258 -0.56019634
0.80026674 2.7226324 -0.56141007
0.83419073 2.8380473 -0.55970287
0.87846941 2.9886901 -0.56263632
0.92328215 3.14115 -0.56328082
0.9716782 3.3058009 -0.56336325
1.0242748 3.4847429 -0.56290513
1.0820148 3.6811833 -0.56202352
1.1477311 3.9047606 -0.56164789
1.2176089 4.1424961 -0.55931562
1.3055832 4.4417982 -0.56064481
1.4019868 4.7697783 -0.56015879
1.516216 5.1584034 -0.56058711
1.6473053 5.6043901 -0.56001914
1.8047119 6.1399121 -0.55989587
1.994862 6.7868323 -0.55968791
2.232408 7.5950007 -0.56017214
2.5228431 8.583106 -0.55836755
2.9098637 9.8998108 -0.55797464
3.4333186 11.680687 -0.5569101
4.1821923 14.228472 -0.55491281
5.3590808 18.23243 -0.55295086
7.4501686 25.346638 -0.54900247
12.197159 41.496639 -0.53923506
0.56791651 2.0237882 -0.56321841
0.58798587 2.0953059 -0.56377882
0.60602129 2.1595759 -0.56122124
0.63083309 2.2479935 -0.56362134
0.65622914 2.3384931 -0.56499141
0.68056482 2.4252141 -0.56391817
0.70448315 2.5104477 -0.5610221
0.73601496 2.6228123 -0.56248593
0.7696752 2.7427616 -0.56356657
0.80065304 2.853152 -0.56069773
0.83947515 2.9914958 -0.56117886
0.88033932 3.1371167 -0.56057394
0.92790693 3.3066254 -0.56151682
0.97842252 3.4866393 -0.56122559
1.0375482 3.6973352 -0.56249911
1.0984694 3.9144299 -0.56105345
1.1751838 4.1878042 -0.56343937
1.2494063 4.4522982 -0.55998862
1.3437111 4.7883568 -0.56035781
1.45526 5.1858649 -0.56158435
1.579347 5.6280527 -0.56040066
1.7298341 6.1643181 -0.56013942
1.9108638 6.8094225 -0.55957085
2.1316924 7.5963521 -0.55829626
2.4202178 8.6245213 -0.55908346
2.7893913 9.9400826 -0.55826902
3.2888768 11.720016 -0.55681497
4.0124545 14.298508 -0.55567801
5.135252 18.299631 -0.5530321
7.1440263 25.457962 -0.54946947
11.708107 41.722206 -0.54025453
0.54288888 2.0302398 -0.56311351
0.56145972 2.0996892 -0.56305802
0.58362466 2.1825793 -0.56529152
0.604451 2.2604637 -0.56484169
0.62575173 2.3401217 -0.5634833
0.649198 2.427804 -0.56262159
0.67808288 2.5358245 -0.56478709
0.70057398 2.6199343 -0.5599789
0.73505694 2.7488902 -0.56292611
0.76589531 2.8642163 -0.56097889
0.8051706 3.0110941 -0.56295544
0.84507519 3.1603251 -0.56282169
0.89045417 3.3300288 -0.56358916
0.9389618 3.5114326 -0.56331539
0.99130118 3.7071662 -0.56209779
1.0540098 3.9416773 -0.56305861
1.1196529 4.1871624 -0.56145823
1.1977649 4.4792781 -0.56148708
1.2871115 4.8134069 -0.56139475
1.3858913 5.1828136 -0.55936617
1.5088617 5.6426854 -0.55996794
1.6515 6.1761098 -0.55932331
1.8260006 6.8286891 -0.55926669
2.043627 7.6425457 -0.55980206
2.3119226 8.6458893 -0.55858356
2.6703026 9.9861231 -0.55896842
3.1483285 11.773795 -0.55748862
3.8396361 14.359076 -0.55615491
4.9152184 18.381426 -0.5536356
6.8413787 25.584684 -0.55034721
11.215271 41.941715 -0.54127026
0.51700777 2.0333118 -0.56215972
0.53609771 2.1083894 -0.56358075
0.55511791 2.183193 -0.56363994
0.57935053 2.2784963 -0.56752461
0.59642601 2.3456514 -0.56300628
0.61641115 2.4242499 -0.55999917
0.64350235 2.5307956 -0.56186217
0.67128766 2.6400707 -0.56247598
0.69911391 2.7495072 -0.56124955
0.73498976 2.8906014 -0.5643338
0.76899093 3.0243225 -0.56361818
0.80636072 3.1712923 -0.56296647
0.84431487 3.3205602 -0.56018716
0.89156657 3.5063939 -0.56070596
0.9468714 3.7238991 -0.56282699
1.0011127 3.9372215 -0.56062126
1.0673782 4.1978335 -0.56108677
1.1386447 4.4781141 -0.55954379
1.2299203 4.8370867 -0.56235015
1.3238902 5.206656 -0.56014007
1.4401467 5.6638746 -0.56027097
1.5817066 6.2206082 -0.56154937
1.7453743 6.8642879 -0.56038213
1.9507564 7.6720243 -0.56016195
2.2085645 8.6859436 -0.55937451
2.5526214 10.039065 -0.56013256
3.0042126 11.815104 -0.55765331
3.6642218 14.410819 -0.55637181
4.6950579 18.464939 -0.55437011
6.5331645 25.693928 -0.55092746
10.720743 42.163029 -0.54238409
0.49048752 2.0333774 -0.56046796
0.50815976 2.1066399 -0.56140035
0.53158647 2.203758 -0.56721884
0.54527795 2.2605181 -0.56133413
0.56893677 2.3585985 -0.56439203
0.58748263 2.4354827 -0.56088281
0.61046708 2.5307677 -0.56014711
0.63944232 2.6508882 -0.56306291
0.66412008 2.7531929 -0.5602926
0.6952343 2.8821807 -0.56097841
0.72989523 3.025872 -0.56219178
0.76505619 3.1716363 -0.56131506
0.80418545 3.3338513 -0.56071877
0.849729 3.5226579 -0.56159341
0.90054131 3.7333066 -0.56253266
0.95909393 3.9760437 -0.5644272
1.0168558 4.2155032 -0.56173474
1.0878266 4.5097213 -0.56177926
1.16722 4.8388567 -0.5608449
1.2632854 5.2371078 -0.56170249
1.3715733 5.686029 -0.56075174
1.5027716 6.229928 -0.56068015
1.6614985 6.8879499 -0.56060356
1.8571582 7.6990814 -0.56042773
2.1040499 8.7226019 -0.56002676
2.4247816 10.052236 -0.55916148
2.8617263 11.863645 -0.55824125
3.4882324 14.460904 -0.55660743
4.4717698 18.538282 -0.55487931
6.2259655 25.81052 -0.55174416
10.222548 42.378849 -0.54350233
0.46557128 2.0397904 -0.56061524
0.4837634 2.1194949 -0.56319827
0.49833468 2.1833355 -0.56034273
0.51694155 2.2648571 -0.56079072
0.53768563 2.3557425 -0.56208396
0.55886036 2.4485145 -0.56225884
0.58055001 2.5435426 -0.56135219
0.60724264 2.6604898 -0.56347376
0.63255805 2.7714033 -0.5623731
0.66294396 2.9045322 -0.56369954
0.6932134 3.0371504 -0.56266099
0.73020762 3.1992319 -0.56456715
0.76528686 3.3529232 -0.56230122
0.80621201 3.5322273 -0.56149608
0.8531813 3.7380118 -0.56161839
0.90755546 3.9762392 -0.56282824
0.96280444 4.2182999 -0.56048745
1.0319989 4.5214586 -0.56161815
1.1126868 4.8749738 -0.56340265
1.1997403 5.2563777 -0.56214452
1.3018335 5.7036753 -0.56087095
1.4287801 6.2598619 -0.56175053
1.5770143 6.9093151 -0.56072176
1.7612076 7.7163143 -0.56006336
1.9943051 8.7375765 -0.55937141
2.30178 10.084704 -0.55935091
2.7173264 11.905322 -0.55858791
3.3112633 14.507517 -0.55679226
4.2476358 18.610012 -0.55542094
5.9101181 25.893784 -0.55192882
9.7189789 42.581406 -0.54452622
0.44213814 2.0531733 -0.56275666
0.45497739 2.1127951 -0.55988908
0.47159094 2.1899443 -0.56050819
0.49177882 2.2836914 -0.56391424
0.51039308 2.3701313 -0.56397706
0.52995312 2.460963 -0.56357843
0.55218208 2.5641882 -0.56436747
0.57218927 2.6570964 -0.56122243
0.5985021 2.7792864 -0.56243682
0.62540901 2.9042349 -0.56210685
0.65663445 3.0492377 -0.56336182
0.68724221 3.1913719 -0.56164634
0.72320801 3.3583875 -0.56168377
0.76450241 3.550148 -0.56280792
0.80890989 3.7563648 -0.56283879
0.85787743 3.983757 -0.56235665
0.91303855 4.2399106 -0.56182468
0.97831994 4.5430603 -0.56276459
1.0503784 4.8776808 -0.56218028
1.1347053 5.2692728 -0.56198895
1.235189 5.7358923 -0.56250292
1.3491853 6.2652612 -0.56070393
1.4890401 6.9147105 -0.55963141
1.672525 7.7667661 -0.56219006
1.890125 8.7772436 -0.56038058
2.1783834 10.115838 -0.55954975
2.570559 11.937 -0.55854887
3.1382236 14.573085 -0.55778557
4.0233455 18.683357 -0.55609137
5.5989208 25.999914 -0.55268174
9.2130194 42.782837 -0.5456121
0.41611221 2.0547624 -0.56174731
0.42945802 2.1206641 -0.56053251
0.44697246 2.2071505 -0.56346273
0.46171787 2.2799633 -0.56154931
0.48246893 2.382432 -0.5654496
0.50078207 2.4728625 -0.56485057
0.51729417 2.554399 -0.56077045
0.53933829 2.6632531 -0.56107962
0.56337261 2.7819345 -0.56152838
0.5891915 2.9094284 -0.56166732
0.61697257 3.0466111 -0.56143248
0.64863509 3.2029605 -0.56223965
0.68276328 3.3714857 -0.56242776
0.71999687 3.5553451 -0.56218576
0.76156944 3.7606304 -0.56203234
0.8087979 3.9938447 -0.56233424
0.86067396 4.2500086 -0.56171793
0.91872817 4.5366807 -0.56053251
0.99090832 4.893106 -0.56251127
1.0699742 5.2835336 -0.56206417
1.1627319 5.7415714 -0.56161529
1.2732742 6.2874289 -0.56124413
1.4062794 6.9442091 -0.56057692
1.5720052 7.7625628 -0.56044418
1.7816844 8.7979593 -0.56026208
2.053164 10.138526 -0.55936587
2.4245782 11.972569 -0.55877596
2.9603796 14.618358 -0.55808288
3.7944493 18.736994 -0.55625707
5.2861643 26.103085 -0.55345124
8.7035599 42.978188 -0.54669726
0.39116824 2.061578 -0.56225312
0.4075793 2.1480694 -0.56640875
0.42101091 2.2188582 -0.56508732
0.43548277 2.2951295 -0.56392312
0.4505313 2.37444 -0.56219542
0.4677982 2.4654417 -0.56179917
0.4880473 2.5721607 -0.56330973
0.50721836 2.6731985 -0.56181842
0.53103501 2.7987194 -0.56355572
0.55482328 2.9240911 -0.56313837
0.57974207 3.0554209 -0.56169981
0.60826945 3.2057688 -0.56137723
0.64017498 3.3739209 -0.56147838
0.67600262 3.5627437 -0.56199878
0.71484429 3.7674515 -0.56169558
0.76174265 4.0146203 -0.56389797
0.80701786 4.2532349 -0.56079036
0.86473173 4.557405 -0.56173682
0.93029845 4.9029617 -0.56228667
1.0059148 5.3014832 -0.56261528
1.0906845 5.7482467 -0.56091392
1.1954577 6.3004336 -0.56105042
1.3237412 6.9765272 -0.56182933
1.4784896 7.7920995 -0.56122172
1.6763791 8.8350382 -0.56126821
1.9316736 10.18052 -0.56032991
2.2787745 12.00985 -0.55916584
2.7806976 14.65514 -0.5581395
3.5662205 18.79509 -0.55663782
4.9708085 26.197704 -0.55411959
8.1906414 43.167225 -0.54777932
0.36350006 2.0532942 -0.55873263
0.37981698 2.1454632 -0.56444734
0.39391869 2.2251194 -0.56540549
0.40566865 2.2914908 -0.56176102
0.42158231 2.381382 -0.56256914
0.4407365 2.489578 -0.56602132
0.45540929 2.5724597 -0.56210625
0.47569469 2.6870453 -0.56345665
0.49444076 2.7929358 -0.56112444
0.51873624 2.9301734 -0.56303871
0.54127741 3.0575008 -0.56081617
0.57166147 3.2291307 -0.56419462
0.59955537 3.3866942 -0.56233466
0.63270086 3.5739224 -0.56249237
0.66859025 3.77665 -0.56179881
0.71016496 4.0114918 -0.56218952
0.75686717 4.2752976 -0.56242973
0.80870247 4.5680985 -0.56178677
0.86945134 4.9112492 -0.56196856
0.93982828 5.3087859 -0.56212133
1.0229235 5.7781634 -0.5625633
1.1189582 6.3206329 -0.56158149
1.2356375 6.9797168 -0.56082022
1.3854725 7.826086 -0.56239998
1.5666554 8.8495293 -0.56092256
1.8062159 10.202729 -0.56028754
2.1333125 12.050392 -0.55978978
2.6039202 14.708703 -0.55891776
3.3380232 18.855413 -0.55716658
4.6528883 26.28266 -0.55466443
7.6759548 43.358986 -0.54897344
0.34075826 2.0730124 -0.56291544
0.35145038 2.1380579 -0.56131971
0.36466148 2.2184281 -0.56252331
0.37843221 2.3022027 -0.56320363
0.39204592 2.3850219 -0.56224769
0.40881991 2.487067 -0.56426489
0.42367494 2.5774381 -0.56201321
0.44123545 2.6842678 -0.56169403
0.46071807 2.8027909 -0.56192374
0.48199108 2.9322059 -0.56224793
0.50623053 3.0796673 -0.56369764
0.53098863 3.2302837 -0.56321275
0.55558461 3.379914 -0.56003219
0.59031683 3.5912085 -0.56402797
0.62513161 3.8030052 -0.56453311
0.66166955 4.0252848 -0.56293964
0.70286202 4.2758803 -0.56132698
0.7518627 4.5739775 -0.56133032
0.80764121 4.9133072 -0.56102526
0.87644565 5.331881 -0.56338304
0.95175976 5.7900562 -0.56253922
1.0395072 6.3238697 -0.56069094
1.1492605 6.9915576 -0.56059372
1.2865672 7.8268666 -0.56127679
1.4570158 8.8637953 -0.5606488
1.6800108 10.220391 -0.56008065
1.9872283 12.089357 -0.56042236
2.4220076 14.734348 -0.55871838
3.1088388 18.912706 -0.55768782
4.3338947 26.365368 -0.55524325
7.1552849 43.529369 -0.54997516
0.31597364 2.0818546 -0.56421882
0.32580844 2.1466532 -0.562482
0.33873564 2.2318265 -0.56482184
0.35067374 2.310483 -0.5641318
0.36267638 2.389565 -0.56222481
0.37789249 2.4898193 -0.56379241
0.39315513 2.59038 -0.56373847
0.40890998 2.6941841 -0.56267434
0.42718536 2.814595 -0.56319463
0.44549891 2.9352574 -0.56174022
0.46647659 3.0734732 -0.56147146
0.49133492 3.237257 -0.56333256
0.51659673 3.4036994 -0.56287819
0.54486001 3.5899179 -0.56273043
0.57774544 3.8065896 -0.563968
0.61255199 4.0359197 -0.56333101
0.65177828 4.2943697 -0.5626595
0.6976909 4.5968742 -0.56304485
0.74988973 4.9407964 -0.56306863
0.81014216 5.3377814 -0.56291133
0.87860554 5.788866 -0.56133151
0.96346146 6.3479562 -0.56173366
1.0651957 7.0182514 -0.5616414
1.188334 7.8295732 -0.56038064
1.348846 8.8871374 -0.56103373
1.5566758 10.256466 -0.56096619
1.8382758 12.111843 -0.5603745
2.2436492 14.782725 -0.55946434
2.8787377 18.967133 -0.55820668
4.015316 26.455702 -0.55606377
6.6310482 43.689972 -0.55093241
0.28912199 2.0767455 -0.5618282
0.30067748 2.1597481 -0.56490171
0.31116989 2.2351143 -0.56464291
0.32242611 2.3159671 -0.5644601
0.33388317 2.3982625 -0.56326264
0.34703898 2.4927599 -0.56344944
0.35897711 2.5785108 -0.56015241
0.37668553 2.7057092 -0.5640713
0.39230901 2.8179319 -0.56285447
0.41131136 2.9544244 -0.56439769
0.42926696 3.0833983 -0.56227785
0.44861075 3.2223437 -0.55973518
0.47717988 3.4275541 -0.56580997
0.5014345 3.6017735 -0.56357968
0.53004688 3.8072944 -0.56306422
0.56292635 4.0434661 -0.56337553
0.59899104 4.3025165 -0.56271929
0.64012527 4.597981 -0.56217378
0.69078737 4.961884 -0.56446111
0.74488783 5.3504839 -0.56324238
0.80852246 5.8075676 -0.56213838
0.88657445 6.3682103 -0.56251872
0.97970104 7.0371327 -0.56214583
1.0936254 7.8554449 -0.56122744
1.2390925 8.9003258 -0.560862
1.4317842 10.284418 -0.56148964
1.689514 12.135676 -0.56047362
2.0645969 14.829874 -0.56024557
2.648087 19.021048 -0.55879295
3.6966789 26.553019 -0.55711174
6.1058912 43.858246 -0.55206585
0.26400176 2.0835872 -0.56275833
0.27288049 2.1536613 -0.56238943
0.28369004 2.2389734 -0.56469387
0.29341123 2.3156962 -0.56347215
0.30390891 2.3985474 -0.5624094
0.31545314 2.4896581 -0.56182909
0.3294732 2.6003091 -0.56396508
0.34169737 2.6967862 -0.56129271
0.35798281 2.8253162 -0.5634076
0.37160844 2.9328539 -0.55936176
0.39254197 3.0980682 -0.56403017
0.41203335 3.2519004 -0.5639466
0.43277591 3.4156077 -0.56291687
0.45779496 3.613066 -0.56442314
0.4835256 3.8161404 -0.56345057
0.51177639 4.0391049 -0.56184858
0.544146 4.2945762 -0.56076336
0.58510655 4.6178503 -0.56368083
0.62739837 4.9516306 -0.56237459
0.6777041 5.34866 -0.56213063
0.73552465 5.8049989 -0.56097192
0.80741996 6.3724198 -0.56197107
0.89250588 7.0439453 -0.56177086
0.99783432 7.8752313 -0.56172198
1.1327623 8.9401264 -0.56244987
1.3068764 10.314291 -0.56220073
1.5413773 12.165049 -0.56091243
1.883496 14.86516 -0.56066126
2.4155643 19.064415 -0.55915201
3.3715956 26.609722 -0.55738944
5.5774546 44.019077 -0.55318522
0.23676386 2.0726771 -0.55898297
0.2478606 2.1698201 -0.56577039
0.25431767 2.2263465 -0.56067806
0.26438248 2.3144557 -0.56233674
0.27542368 2.4111125 -0.56451881
0.28477558 2.492981 -0.56174618
0.29730329 2.6026509 -0.5636375
0.30843377 2.7000892 -0.56114841
0.32302266 2.8278031 -0.56306893
0.33637697 2.9447095 -0.56079161
0.35464889 3.1046653 -0.56439465
0.37094063 3.2472866 -0.5623129
0.3899633 3.4138148 -0.56178862
0.41256118 3.6116407 -0.56336546
0.4351798 3.8096488 -0.56165951
0.46241263 4.0480499 -0.5622595
0.49306792 4.3164124 -0.56278038
0.52682298 4.6119113 -0.56212264
0.56568432 4.9521108 -0.56159663
0.61302322 5.3665242 -0.56317335
0.66655254 5.8351312 -0.56304914
0.73001432 6.3906875 -0.5627479
0.80670136 7.0620208 -0.56237882
0.90313524 7.9062219 -0.56309777
1.0194594 8.9245462 -0.56063861
1.1786169 10.317842 -0.56156182
1.3919331 12.185253 -0.56101245
1.700006 14.882183 -0.56047249
2.181103 19.0938 -0.55918497
3.0478506 26.681479 -0.55806524
5.0469017 44.181561 -0.55440533
0.21356736 2.0980864 -0.5650847
0.22030462 2.1642733 -0.56357515
0.22838947 2.2436988 -0.56429809
0.23707011 2.3289776 -0.56511408
0.24648473 2.4214666 -0.56619066
0.25508237 2.5059297 -0.5639146
0.26455477 2.5989869 -0.56209701
0.27691442 2.7204082 -0.56462085
0.2881752 2.8310339 -0.56296408
0.30206427 2.9674802 -0.56437808
0.31593105 3.1037076 -0.56347167
0.33080146 3.2497945 -0.56200033
0.34810892 3.4198229 -0.56203043
0.36711293 3.6065183 -0.56181979
0.38942903 3.825752 -0.56328505
0.4124037 4.051455 -0.56198555
0.43881083 4.3108788 -0.56131297
0.47007906 4.6180582 -0.56212485
0.50616419 4.9725585 -0.5631671
0.5475561 5.3791928 -0.56375355
0.59282339 5.8238988 -0.56121951
0.65139025 6.3992596 -0.56275487
0.71970546 7.0703888 -0.56229794
0.80420285 7.9004912 -0.56194288
0.91221029 8.9615564 -0.5622164
1.051929 10.334154 -0.56170315
1.2438589 12.219674 -0.56185049
1.5185999 14.91873 -0.56110317
1.9501418 19.158199 -0.5603264
2.7219465 26.740412 -0.5585556
4.5134931 44.340569 -0.55566221
0.18691297 2.0911434 -0.56255311
0.19286279 2.1577086 -0.56120574
0.20031635 2.2410975 -0.56298184
0.20730585 2.3192945 -0.56210345
0.21578771 2.4141877 -0.56382561
0.22399826 2.5060456 -0.56327826
0.23315318 2.608469 -0.56348509
0.24254893 2.7135866 -0.56254351
0.25381717 2.8396535 -0.56401479
0.26564494 2.9719801 -0.56456995
0.27836898 3.1143339 -0.56473672
0.2900399 3.2449055 -0.56049573
0.30669782 3.4312711 -0.56324953
0.32383355 3.622982 -0.56372154
0.34352013 3.8432312 -0.56519395
0.36437315 4.0765305 -0.56479967
0.3863965 4.3229232 -0.56222004
0.41346145 4.62572 -0.56239611
0.44472009 4.9754353 -0.56283104
0.48049152 5.3756385 -0.56271935
0.52146119 5.8339987 -0.56153244
0.5726788 6.4070106 -0.56277466
0.63215417 7.0724082 -0.56179792
0.70688319 7.9084616 -0.56184906
0.80258799 8.9791861 -0.56266075
0.92585802 10.358306 -0.56235462
1.0932958 12.231565 -0.56173664
1.3353941 14.94011 -0.56124735
1.7157123 19.19503 -0.56074417
2.3967426 26.814255 -0.5594402
3.9763651 44.48674 -0.55683917
0.16129243 2.0946512 -0.56292069
0.16641697 2.161202 -0.56153959
0.17154799 2.2278368 -0.55907845
0.17942524 2.3301358 -0.56415361
0.18625842 2.4188762 -0.56434304
0.19255766 2.5006824 -0.56149811
0.20116343 2.6124425 -0.56376654
0.20971866 2.7235465 -0.564031
0.21785223 2.8291745 -0.56135899
0.22906369 2.9747741 -0.56452298
0.23892909 3.1028926 -0.56208682
0.25132358 3.2638559 -0.56319267
0.26506743 3.4423428 -0.56448925
0.27971062 3.6325088 -0.56462604
0.29513201 3.8327811 -0.56308091
0.31197575 4.0515251 -0.56076127
0.33310694 4.3259492 -0.56203836
0.35559672 4.6180167 -0.56088549
0.38434607 4.9913745 -0.56405687
0.41555023 5.3966126 -0.56433737
0.45079967 5.8543854 -0.56291854
0.49324751 6.4056416 -0.56207919
0.54613125 7.0924249 -0.56281191
0.61142325 7.9403505 -0.56353784
0.6924693 8.9928684 -0.56294197
0.79831934 10.367508 -0.56227875
0.94316304 12.248545 -0.56194133
1.1527741 14.970694 -0.56182128
1.4809469 19.232565 -0.56126624
2.0693994 26.874601 -0.56012601
3.4352448 44.612381 -0.55784088
0.13552266 2.0964341 -0.56290948
0.14006609 2.1667175 -0.56248271
0.14496113 2.2424402 -0.56225336
0.1515293 2.3440449 -0.56702715
0.15672068 2.4243517 -0.56512815
0.16273534 2.5173938 -0.56475848
0.16878213 2.6109333 -0.56295037
0.17543657 2.7138724 -0.5615384
0.18460114 2.8556416 -0.56611729
0.19229645 2.9746821 -0.5640142
0.20133197 3.114455 -0.56369025
0.21153094 3.2722254 -0.56414539
0.22163139 3.4284718 -0.56172526
0.23502259 3.6356235 -0.56461829
0.24866377 3.8466425 -0.56462538
0.26299897 4.068397 -0.56260633
0.28091159 4.3454924 -0.56408608
0.30019519 4.643795 -0.56352544
0.32281852 4.9937606 -0.56383526
0.3480348 5.3838377 -0.56251138
0.37899196 5.8627224 -0.5632295
0.41481653 6.4169016 -0.56257707
0.45817059 7.0875564 -0.56193602
0.51302874 7.9361706 -0.56275094
0.58124536 8.9914303 -0.56236207
0.67160916 10.389291 -0.56296968
0.79290754 12.265687 -0.56223798
0.96929699 14.994299 -0.5622173
1.2457438 19.270723 -0.5618903
1.74069 26.927172 -0.56073314
2.8915498 44.73011 -0.55882615
0.10957096 2.0947938 -0.56206477
0.11406646 2.1807396 -0.56571597
0.11756739 2.2476709 -0.56315982
0.12281156 2.3479297 -0.56755871
0.12686998 2.425519 -0.56499392
0.13161689 2.5162714 -0.56410092
0.13707076 2.6205392 -0.56461543
0.14219385 2.7184834 -0.56208813
0.14918429 2.8521276 -0.5650143
0.15557048 2.9742196 -0.56352115
0.16308942 3.1179678 -0.56392044
0.17118487 3.2727377 -0.56382817
0.18031536 3.4472959 -0.56440347
0.18985109 3.6296015 -0.5632779
0.20084733 3.839829 -0.5632202
0.2129921 4.0720148 -0.56270188
0.22712231 4.3421578 -0.56324816
0.24315397 4.648654 -0.56370968
0.26092932 4.9884853 -0.56283486
0.28213635 5.3939247 -0.56316024
0.30690154 5.8673892 -0.56327271
0.33667359 6.4365754 -0.56389636
0.37175226 7.1072149 -0.56308967
0.41523245 7.9384761 -0.56250978
0.47083139 9.0014248 -0.56258249
0.54348677 10.390462 -0.56262845
0.64205712 12.274944 -0.56225789
0.78593123 15.02555 -0.56298417
1.0091398 19.292885 -0.56213218
1.4118445 26.991854 -0.56167608
2.346761 44.865726 -0.5601176
0.083595008 2.0907047 -0.56064939
0.087140284 2.1793716 -0.56504041
0.089957379 2.2498271 -0.56338036
0.093544044 2.3395293 -0.5652073
0.09682826 2.4216673 -0.56377673
0.10062933 2.5167317 -0.56388408
0.10474446 2.6196506 -0.56410384
0.10940041 2.7360957 -0.56540889
0.11413576 2.8545265 -0.5651688
0.119301 2.9837086 -0.56499839
0.12480431 3.121346 -0.56421119
0.13115372 3.2801442 -0.56478363
0.13785717 3.4477971 -0.56416535
0.14507574 3.6283329 -0.56276166
0.15374237 3.8450849 -0.56367117
0.16314334 4.0802021 -0.56351346
0.17410254 4.354291 -0.56450164
0.18548684 4.6390114 -0.56222129
0.19951157 4.989769 -0.56266034
0.21614465 5.4057612 -0.56407589
0.23468889 5.8695507 -0.5631606
0.25726643 6.4342136 -0.56336975
0.28448659 7.1149874 -0.56338567
0.31799197 7.9529543 -0.56321609
0.36032113 9.0116034 -0.56289923
0.41628763 10.411321 -0.56343818
0.49142125 12.290407 -0.56264687
0.60101819 15.031418 -0.56288457
0.7727282 19.325872 -0.56277394
1.0807059 27.02837 -0.56211692
1.798619 44.983322 -0.56126708
0.058148932 2.1012077 -0.56323159
0.060394712 2.1823587 -0.56557959
0.062334508 2.2524531 -0.56380332
0.064510286 2.3310747 -0.56293058
0.06693162 2.4185696 -0.56282139
0.069329545 2.5052183 -0.56107104
0.072452307 2.6180592 -0.56352669
0.075588122 2.7313716 -0.5641979
0.078992188 2.8543773 -0.56490421
0.08231207 2.9743409 -0.56299025
0.086739793 3.1343362 -0.5663237
0.090731941 3.2785923 -0.56428164
0.095135503 3.4377148 -0.56228161
0.10093974 3.6474502 -0.56549156
0.10640486 3.8449321 -0.56341439
0.11268864 4.0719962 -0.56214631
0.12017927 4.3426695 -0.56276083
0.12849668 4.6432185 -0.5624972
0.13868734 5.0114579 -0.56487101
0.14983828 5.4143963 -0.56474197
0.16231932 5.865397 -0.56252807
0.17840536 6.4466653 -0.5642252
0.19680834 7.1116552 -0.56288767
0.22031815 7.9611807 -0.56356418
0.24977358 9.0255508 -0.56353593
0.288019 10.407547 -0.56299967
0.34101021 12.322381 -0.56387597
0.41633341 15.044178 -0.56312811
0.53569406 19.357267 -0.56345379
0.74960262 27.08684 -0.56309867
1.2479602 45.094952 -0.56242597
0.032428753 2.1095505 -0.56531823
0.033508323 2.1797786 -0.56476146
0.034588534 2.2500484 -0.56305242
0.036020748 2.3432164 -0.56571299
0.037170071 2.4179821 -0.56253576
0.03857353 2.5092797 -0.56183189
0.040221795 2.6165025 -0.56304258
0.042003542 2.7324085 -0.56426275
0.043771718 2.8474314 -0.56338048
0.045641523 2.9690657 -0.5618431
0.047950435 3.1192648 -0.56345141
0.050373558 3.2768934 -0.56384003
0.052885979 3.4403312 -0.56256068
0.055890385 3.6357732 -0.56353199
0.059115425 3.8455679 -0.56335849
0.062636487 4.0746198 -0.56235963
0.066917315 4.3530955 -0.56396264
0.071655802 4.6613431 -0.56454343
0.077008493 5.0095453 -0.56450605
0.083104916 5.4061289 -0.56373048
0.09040267 5.8808613 -0.56386197
0.099051893 6.4435096 -0.5637998
0.10947609 7.1216226 -0.56352746
0.12241998 7.9636464 -0.56358957
0.13876419 9.0268679 -0.56346905
0.16021369 10.422198 -0.5636431
0.18941252 12.321636 -0.56369275
0.23166366 15.070151 -0.56395108
0.29762715 19.361198 -0.56341904
0.41693863 27.122633 -0.56369358
0.69482023 45.199345 -0.56357878
0.0065062889 2.1156604 -0.56689131
0.0067511769 2.195291 -0.56871605
0.006865093 2.2323332 -0.55855602
0.0071897418 2.3378999 -0.56436539
0.0074547543 2.4240744 -0.56388921
0.0076980167 2.5031765 -0.56040186
0.0081353066 2.6453707 -0.56919014
0.0084102349 2.7347698 -0.56468636
0.0087354425 2.8405178 -0.56194878
0.0091451751 2.9737511 -0.56266588
0.0095879911 3.1177423 -0.5631125
0.010066589 3.2733691 -0.56316972
0.010592358 3.4443343 -0.56315142
0.011187595 3.6378884 -0.56379586
0.011815542 3.8420787 -0.56278348
0.012572783 4.0883121 -0.56418538
0.013367626 4.3467722 -0.5630796
0.014312363 4.6539741 -0.56358701
0.015380256 5.0012221 -0.56350428
0.016651627 5.4146357 -0.5645535
0.018083528 5.8802495 -0.56373936
0.019859053 6.4576001 -0.56496865
0.021932004 7.1316648 -0.5642581
0.024518728 7.9727945 -0.56417298
0.027791237 9.0369215 -0.56403261
0.032107938 10.440589 -0.56457365
0.037946463 12.339112 -0.56442821
0.046386655 15.083623 -0.5643912
0.059613656 19.384668 -0.5640381
0.083527125 27.16065 -0.56441969
0.13932215 45.303604 -0.56481469
-0.019514564 2.1163583 -0.56709975
-0.020118739 2.181881 -0.56526339
-0.020696295 2.2445171 -0.56162578
-0.021614037 2.3440464 -0.56587052
-0.022250829 2.4131067 -0.56135911
-0.023194714 2.515471 -0.56317556
-0.024140717 2.6180654 -0.56333631
-0.025146702 2.7271647 -0.56313729
-0.026183378 2.8395922 -0.56178695
-0.027472017 2.9793456 -0.56374568
-0.028841399 3.1278551 -0.56496036
-0.030257277 3.2814074 -0.564574
-0.03165213 3.4326794 -0.56126702
-0.033515472 3.6347594 -0.56333226
-0.035544109 3.8547652 -0.56466311
-0.037694681 4.0879951 -0.56416297
-0.040088236 4.3475771 -0.56320512
-0.042943481 4.6572289 -0.56400245
-0.046262261 5.0171509 -0.56532037
-0.049778502 5.398488 -0.56289113
-0.054310784 5.8900146 -0.56469685
-0.059547964 6.4579883 -0.56502396
-0.065852292 7.1416941 -0.56507295
-0.073438399 7.9644084 -0.56360084
-0.083400436 9.0447931 -0.56454527
-0.096327715 10.446758 -0.56492859
-0.11385031 12.347087 -0.56481439
-0.13898051 15.072463 -0.56399488
-0.17897999 19.410414 -0.56480855
-0.25068051 27.186348 -0.56497508
-0.41860041 45.397297 -0.56600416
-0.044963032 2.089386 -0.55997807
-0.046836503 2.1764443 -0.56396145
-0.048356231 2.2470646 -0.56236947
-0.050337289 2.3391223 -0.56478852
-0.052089926 2.4205654 -0.56320065
-0.05425214 2.5210414 -0.56452936
-0.056448586 2.6231079 -0.56452799
-0.058765154 2.7307565 -0.56398559
-0.061231233 2.8453526 -0.56303298
-0.064333245 2.9895 -0.56577402
-0.067105614 3.1183293 -0.56334627
-0.070223592 3.2632184 -0.56155068
-0.074370399 3.4559162 -0.56517321
-0.078445427 3.6452785 -0.56506932
-0.083097555 3.8614583 -0.56575048
-0.087861069 4.0828137 -0.56355441
-0.093747877 4.3563676 -0.56445056
-0.10013979 4.6533933 -0.56364453
-0.10787111 5.01266 -0.56492108
-0.1161842 5.3989611 -0.56304681
-0.12662707 5.8842306 -0.56424892
-0.13870966 6.4456964 -0.56405509
-0.15322261 7.1200976 -0.56347066
-0.17166132 7.9769258 -0.56459332
-0.19463709 9.0445862 -0.56463909
-0.22450468 10.432503 -0.5642643
-0.2654376 12.334614 -0.56435043
-0.32479197 15.092751 -0.56486076
-0.41799107 19.423616 -0.56529951
-0.5855853 27.21155 -0.5656057
-0.97854638 45.472046 -0.5670433
-0.07126645 2.1069069 -0.56486595
-0.073869586 2.1838653 -0.56607699
-0.076318905 2.2562766 -0.56486714
-0.078905039 2.3327324 -0.5634374
-0.081792101 2.4180851 -0.56281501
-0.085008577 2.5131762 -0.56295967
-0.088739142 2.6234658 -0.56479716
-0.092257537 2.727483 -0.56350118
-0.096481189 2.85235 -0.56460971
-0.10041379 2.9686129 -0.56201226
-0.10610509 3.1368692 -0.56688845
-0.11154414 3.2976682 -0.56767207
-0.11658694 3.4467525 -0.56386644
-0.12306497 3.6382675 -0.56417447
-0.13000689 3.8434975 -0.56331062
-0.13796423 4.0787463 -0.56318462
-0.14754483 4.3619857 -0.5653708
-0.15720612 4.6476097 -0.5631355
-0.16890398 4.9934425 -0.5629468
-0.18303399 5.4111795 -0.56451315
-0.19843079 5.8663678 -0.56272745
-0.218243 6.4520917 -0.56480688
-0.2410467 7.126255 -0.56414986
-0.27016303 7.9870443 -0.56550187
-0.30533293 9.0268002 -0.56372046
-0.35308081 10.438409 -0.56477588
-0.41737089 12.339068 -0.56474632
-0.5110997 15.110046 -0.56570059
-0.65719438 19.429159 -0.56565326
-0.92142236 27.240744 -0.56640518
-1.5411508 45.562267 -0.56836176
-0.097341165 2.1096539 -0.56588066
-0.10062709 2.1808691 -0.56557834
-0.10368579 2.2471597 -0.56286132
-0.10721555 2.3236594 -0.56152189
-0.11170286 2.420912 -0.56375003
-0.11674627 2.5302167 -0.56705552
-0.12160694 2.635561 -0.56768012
-0.12577406 2.7258739 -0.56344563
-0.13056792 2.8297703 -0.56041557
-0.13734283 2.9766014 -0.56380171
-0.14400777 3.1210494 -0.56430691
-0.15166953 3.287101 -0.56613123
-0.15888868 3.4435604 -0.56362122
-0.16756915 3.63169 -0.56343144
-0.17756481 3.8483241 -0.56429535
-0.18841174 4.0834074 -0.56410539
-0.20045952 4.3445158 -0.5633834
-0.21563147 4.6733346 -0.56653094
-0.23025429 4.9902515 -0.56286371
-0.24913926 5.3995414 -0.56357604
-0.27152508 5.8847046 -0.56476396
-0.29735866 6.4445906 -0.56442761
-0.32906997 7.1318626 -0.56487143
-0.36848649 7.9861283 -0.56571507
-0.41737401 9.0456572 -0.56517583
-0.48194164 10.445017 -0.56541133
-0.57039505 12.362048 -0.56607634
-0.69629884 15.090735 -0.5652554
-0.89626521 19.424562 -0.56579751
-1.2583501 27.271952 -0.56733292
-2.1052289 45.626171 -0.56943876
-0.12343386 2.1110463 -0.56661838
-0.12641992 2.1621161 -0.56107569
-0.13156393 2.250092 -0.56395841
-0.1361962 2.3293161 -0.56325102
-0.14124909 2.4157341 -0.56290621
-0.14701632 2.5143688 -0.56386632
-0.15354507 2.6260278 -0.56599063
-0.15950048 2.7278814 -0.56422335
-0.16641141 2.8460767 -0.56400752
-0.17299774 2.9587204 -0.5607754
-0.18274938 3.125499 -0.56547499
-0.19122651 3.2704804 -0.56363112
-0.20107791 3.4389656 -0.56323129
-0.21166715 3.6200695 -0.5619899
-0.22500302 3.8481483 -0.56463259
-0.23843813 4.0779243 -0.56371039
-0.25404721 4.3448811 -0.56379324
-0.27211413 4.653873 -0.56453472
-0.29243055 5.001338 -0.56447703
-0.31537923 5.3938212 -0.5633412
-0.34335825 5.8723369 -0.56393963
-0.37648049 6.4388151 -0.56428462
-0.41697106 7.1313109 -0.56519109
-0.466129 7.9720421 -0.56508058
-0.52867943 9.0418205 -0.56529957
-0.61087066 10.447508 -0.56591004
-0.72180617 12.3448 -0.56565017
-0.88278496 15.097964 -0.56588995
-1.1369485 19.444834 -0.56675237
-1.5952183 27.282463 -0.56791669
-2.6724052 45.705219 -0.57079226
-0.14826797 2.0936525 -0.56239659
-0.15334202 2.165302 -0.56234926
-0.15977503 2.2561407 -0.56592405
-0.16398703 2.3156171 -0.56038368
-0.17104355 2.4152603 -0.56324333
-0.17687978 2.4976723 -0.56056732
-0.18552218 2.6197093 -0.56507778
-0.19234923 2.7161121 -0.56223577
-0.20146888 2.8448884 -0.56422037
-0.21148129 2.9862709 -0.5664472
-0.22077905 3.1175621 -0.56448746
-0.23168604 3.2715769 -0.56426841
-0.24412636 3.4472435 -0.56503594
-0.25597876 3.614608 -0.56158823
-0.27164593 3.8358397 -0.56327409
-0.28960854 4.0894852 -0.56575799
-0.30786738 4.3473129 -0.56455737
-0.32986742 4.65797 -0.56548095
-0.35277078 4.9813824 -0.56267178
-0.38254961 5.4018812 -0.56463158
-0.4161061 5.8757234 -0.56471354
-0.45535016 6.4298782 -0.56394947
-0.50412828 7.1186614 -0.56463712
-0.56373268 7.9603186 -0.56469822
-0.63911396 9.0247574 -0.56468147
-0.73970914 10.445235 -0.56623679
-0.8743391 12.34631 -0.5661692
-1.0690705 15.096059 -0.5662685
-1.3766326 19.439062 -0.56703466
-1.9327316 27.291588 -0.56855839
-3.2404747 45.757881 -0.57190436
-0.17517079 2.1057532 -0.56618285
-0.18213455 2.1894655 -0.56916338
-0.18828994 2.2634604 -0.56829792
-0.19351754 2.3263021 -0.56350267
-0.20152985 2.4226193 -0.5654946
-0.20979229 2.5219431 -0.56655073
-0.2179697 2.620245 -0.56572866
-0.22683729 2.7268438 -0.56499189
-0.2373817 2.8535995 -0.56648409
-0.24713452 2.9708395 -0.56405389
-0.26048139 3.1312842 -0.56750917
-0.27174184 3.2666476 -0.56395191
-0.28681228 3.4478114 -0.56566435
-0.30237672 3.6349139 -0.56527805
-0.3192462 3.8377044 -0.56408173
-0.33825484 4.0662098 -0.56307083
-0.3612248 4.3423352 -0.56444508
-0.38622624 4.6428809 -0.564183
-0.41477999 4.9861298 -0.56374156
-0.44990951 5.4084268 -0.56585121
-0.48882368 5.8762197 -0.56529617
-0.53472656 6.4280248 -0.56432092
-0.59216279 7.118474 -0.56515712
-0.66217071 7.9600492 -0.56521398
-0.75074208 9.0247784 -0.56521761
-0.86808592 10.435386 -0.5662387
-1.0266935 12.34203 -0.56650901
-1.2570832 15.111578 -0.56738752
-1.6175755 19.445107 -0.56774831
-2.2716637 27.307995 -0.56943905
-3.8103132 45.804321 -0.57302707
-0.20155302 2.1087143 -0.56760252
-0.20652699 2.1607537 -0.56231719
-0.21508323 2.2502716 -0.56560779
-0.22326043 2.3358243 -0.56643146
-0.23162544 2.4233418 -0.56628525
-0.23995937 2.510534 -0.56460792
-0.25061622 2.6220295 -0.56673652
-0.25994891 2.7196712 -0.56412542
-0.27005771 2.825433 -0.56150937
-0.28414932 2.9728639 -0.56505889
-0.29684514 3.1056919 -0.56348979
-0.3094646 3.237721 -0.55957264
-0.32975578 3.4500136 -0.56664813
-0.34611306 3.6211491 -0.56375664
-0.36686957 3.8383105 -0.5647912
-0.390044 4.0807691 -0.56570828
-0.41476664 4.3394256 -0.56468713
-0.44308078 4.6356573 -0.56392467
-0.47630981 4.9833102 -0.56404233
-0.51574266 5.3958702 -0.56515831
-0.56075633 5.8668175 -0.56501228
-0.61380887 6.4218712 -0.56440067
-0.68051565 7.1197796 -0.56588233
-0.76052719 7.9568863 -0.56561071
-0.86227089 9.0213623 -0.56562501
-0.99652016 10.425923 -0.5663473
-1.1785806 12.3307 -0.56661135
-1.4423118 15.089942 -0.56719822
-1.858147 19.440548 -0.56823933
-2.6096349 27.302862 -0.56995803
-4.3828955 45.855297 -0.57429558
-0.22560601 2.0888591 -0.56296229
-0.23427129 2.16909 -0.56519359
-0.24215375 2.2420728 -0.56425279
-0.25095588 2.3235705 -0.56416559
-0.26040435 2.4110529 -0.56411922
-0.27082327 2.5075204 -0.56463641
-0.28200904 2.611088 -0.56507838
-0.29404598 2.7225368 -0.56542706
-0.30693227 2.8418496 -0.56547916
-0.32025531 2.9652057 -0.56430912
-0.33550364 3.1063883 -0.56432199
-0.35164905 3.2558768 -0.56341523
-0.37021717 3.4277968 -0.56370419
-0.39043307 3.6149735 -0.56350005
-0.41392016 3.8324375 -0.56463325
-0.44013041 4.0751152 -0.56563199
-0.46964166 4.3483562 -0.56655794
-0.50261623 4.6536641 -0.5668242
-0.53896183 4.9901838 -0.56552768
-0.5820474 5.3891077 -0.56515688
-0.6329996 5.8608675 -0.56514621
-0.69405103 6.426136 -0.5654828
-0.7669695 7.1012797 -0.56511879
-0.85873753 7.9509487 -0.56589645
-0.97268736 9.0059967 -0.56536877
-1.12462 10.412723 -0.56633866
-1.3305334 12.319251 -0.56679422
-1.6287522 15.080422 -0.5675503
-2.100893 19.451918 -0.56928372
-2.9489987 27.304428 -0.57070464
-4.9562507 45.889332 -0.57544166
-0.25270328 2.0978041 -0.56616759
-0.26070878 2.1642613 -0.56472808
-0.26940408 2.236445 -0.56362754
-0.27937269 2.3191988 -0.56389564
-0.28929165 2.4015405 -0.56268334
-0.30152071 2.5030594 -0.56442404
-0.31332397 2.6010437 -0.56369579
-0.32608438 2.7069736 -0.562985
-0.34242496 2.8426242 -0.56642836
-0.35668978 2.9610429 -0.56430894
-0.37490231 3.1122332 -0.5661785
-0.39306179 3.2629833 -0.56543863
-0.41393682 3.4362764 -0.56589293
-0.43581828 3.6179242 -0.5647527
-0.46067765 3.8242931 -0.56422526
-0.48887765 4.058394 -0.56410283
-0.52264857 4.3387413 -0.56609976
-0.55707926 4.6245666 -0.56407177
-0.59933978 4.97539 -0.56464368
-0.64903104 5.3878994 -0.56582433
-0.70670968 5.8667159 -0.56650525
-0.77111942 6.4014101 -0.56409878
-0.85498285 7.0975986 -0.56561977
-0.95961446 7.9661927 -0.56777835
-1.0859158 9.014677 -0.5667091
-1.2548264 10.416881 -0.56736112
-1.4835188 12.315359 -0.56741154
-1.8154434 15.070814 -0.56798589
-2.3422115 19.443756 -0.56984466
-3.2889473 27.303036 -0.57147765
-5.5326653 45.929153 -0.57675046
-0.27786627 2.0899386 -0.5649243
-0.28905019 2.174057 -0.56816858
-0.29668242 2.231462 -0.56324857
-0.30856892 2.3208652 -0.5651806
-0.31987551 2.4059062 -0.56458509
-0.33220124 2.4986129 -0.56429988
-0.34421653 2.5889843 -0.56195712
-0.35995069 2.7073269 -0.56393641
-0.37738663 2.8384695 -0.56648231
-0.3926504 2.953274 -0.56370592
-0.41261685 3.1034493 -0.5654608
-0.43306175 3.2572231 -0.56532049
-0.45616537 3.4309945 -0.56590402
-0.48009288 3.6109624 -0.5645448
-0.505889 3.8049848 -0.56225187
-0.53858548 4.0509076 -0.56394017
-0.57441467 4.3203926 -0.56458461
-0.61432815 4.6205974 -0.5644663
-0.65996855 4.9638762 -0.5642153
-0.71419942 5.371767 -0.56500971
-0.77788097 5.8507404 -0.56584346
-0.85065532 6.3981047 -0.56468654
-0.94184858 7.0840039 -0.56541657
-1.0552616 7.9370265 -0.56658155
-1.1976134 9.0077085 -0.56715393
-1.3817171 10.392423 -0.56691158
-1.6349989 12.297453 -0.56746995
-2.0011785 15.051629 -0.5681473
-2.5819893 19.42013 -0.57003963
-3.6278906 27.286755 -0.57202733
-6.1100678 45.956161 -0.5779894
-0.30308402 2.083215 -0.5640716
-0.3137781 2.1567194 -0.56460327
-0.3257598 2.2390742 -0.56613833
-0.3384749 2.3264704 -0.56751627
-0.34924069 2.4004679 -0.56427401
-0.36540326 2.5115595 -0.56819558
-0.37817779 2.5993636 -0.56517667
-0.39250526 2.6978419 -0.56292343
-0.41133845 2.8272898 -0.56521791
-0.42933103 2.9509602 -0.56422925
-0.44941625 3.0890136 -0.56379485
-0.47197932 3.2440982 -0.56400722
-0.49764454 3.4205053 -0.56514055
-0.52444178 3.6046932 -0.56453019
-0.55615938 3.8227005 -0.56583744
-0.58837235 4.0441132 -0.56395882
-0.62833649 4.3188024 -0.56534368
-0.67217588 4.6201277 -0.56537592
-0.72176051 4.9609423 -0.56484789
-0.78193384 5.374537 -0.56626958
-0.84977019 5.8408027 -0.56585014
-0.93016708 6.3934021 -0.56523824
-1.0290565 7.0731082 -0.56551415
-1.1515614 7.9151316 -0.56598663
-1.3085732 8.9943352 -0.56728214
-1.508727 10.37007 -0.56666136
-1.7858882 12.275107 -0.56740928
-2.1890337 15.046085 -0.56891108
-2.8218431 19.395632 -0.57029593
-3.9678676 27.272705 -0.5727123
-6.6886821 45.973927 -0.57920349
-0.3310124 2.094116 -0.56808239
-0.34130597 2.1592371 -0.56631821
-0.3520152 2.2269881 -0.56413412
-0.36384717 2.3018417 -0.56255722
-0.38017967 2.4051676 -0.56643486
-0.39205059 2.4802678 -0.56216455
-0.41113517 2.6010044 -0.56658977
-0.42705616 2.7017269 -0.56478709
-0.44426847 2.8106186 -0.56293464
-0.46485955 2.940886 -0.56335342
-0.48746109 3.0838723 -0.56390786
-0.51493424 3.2576785 -0.56742615
-0.53862017 3.4075251 -0.56404757
-0.57103312 3.6125822 -0.56682247
-0.60223508 3.8099782 -0.56500775
-0.639898 4.0482488 -0.56559008
-0.68284386 4.3199415 -0.56654912
-0.72846097 4.6085334 -0.56501055
-0.78481048 4.965023 -0.56636846
-0.84668398 5.3564591 -0.56541908
-0.92171425 5.8311305 -0.56596833
-1.0080633 6.377409 -0.56487751
-1.1197224 7.0838079 -0.56742758
-1.2489167 7.9011431 -0.56604171
-1.4193263 8.9792223 -0.56738681
-1.636464 10.352921 -0.56678104
-1.9386809 12.264865 -0.56799483
-2.3743632 15.021164 -0.56902969
-3.0626285 19.375404 -0.57076532
-4.3111401 27.273983 -0.57380903
-7.2662692 45.969303 -0.58022702
-0.35197175 2.0619788 -0.56049609
-0.36500201 2.1383147 -0.56196547
-0.37862363 2.2181153 -0.56302333
-0.3915168 2.2936482 -0.5616889
-0.40930447 2.3978548 -0.56585521
-0.42446288 2.4866583 -0.56475329
-0.44233304 2.5913484 -0.56562841
-0.46111825 2.7013988 -0.56586105
-0.48182636 2.8227146 -0.56650114
-0.49908727 2.9238353 -0.56122035
-0.52510619 3.0762634 -0.5636546
-0.55334443 3.2416933 -0.56578422
-0.5813868 3.4059758 -0.56493181
-0.61285478 3.5903268 -0.56447029
-0.64944702 3.8046973 -0.56536609
-0.68891776 4.0359316 -0.56501001
-0.73686737 4.3168378 -0.5672875
-0.78808588 4.6168942 -0.56718081
-0.84406835 4.9448605 -0.56520975
-0.91182852 5.3418241 -0.56501502
-0.99406356 5.8235869 -0.56637973
-1.0895962 6.3832517 -0.56653893
-1.2059261 7.0647545 -0.56704628
-1.3463918 7.8876538 -0.56621861
-1.5277004 8.9498262 -0.56667346
-1.7661113 10.346523 -0.56757677
-2.091243 12.251264 -0.56851286
-2.5626032 15.012665 -0.56985831
-3.3030002 19.35018 -0.57117558
-4.6523604 27.255224 -0.57457447
-7.8524361 46.002434 -0.58181995
-0.38010684 2.0728109 -0.56466836
-0.39331502 2.1448383 -0.56490815
-0.4045665 2.2061951 -0.56121796
-0.41955999 2.2879581 -0.5615164
-0.43604195 2.3778381 -0.56235433
-0.45581493 2.4856646 -0.56575781
-0.47369754 2.5831828 -0.5650748
-0.49627003 2.7062759 -0.56811792
-0.51641321 2.8161213 -0.56640953
-0.54043382 2.9471114 -0.56692088
-0.56352884 3.0730536 -0.5642935
-0.59244114 3.2307193 -0.56509763
-0.62406147 3.4031522 -0.5656935
-0.6564129 3.579572 -0.56400579
-0.69444758 3.786984 -0.56396025
-0.74058676 4.0385919 -0.56661451
-0.78671366 4.2901325 -0.56500661
-0.84341729 4.5993509 -0.56625688
-0.90622061 4.9418316 -0.56609446
-0.9806022 5.3474517 -0.56684285
-1.0644556 5.8047237 -0.56577539
-1.167046 6.3641729 -0.56607646
-1.2946885 7.0602374 -0.5679186
-1.4450408 7.8801432 -0.56691217
-1.6423708 8.9562302 -0.56831467
-1.8958293 10.338398 -0.56836689
-2.244885 12.241879 -0.56931525
-2.7443976 14.965839 -0.56931883
-3.5429385 19.320467 -0.57154131
-4.9883432 27.202595 -0.57471466
-8.4304047 45.972958 -0.5827142
-0.40670025 2.0737722 -0.56624979
-0.41714063 2.127008 -0.56152052
