# .PCD v0.7 - Point Cloud Data file format
VERSION 0.7
FIELDS x y z
SIZE 4 4 4
TYPE F F F
COUNT 1 1 1
WIDTH 1424
HEIGHT 1
VIEWPOINT 0 0 0 1 0 0 0
POINTS 1424
DATA ascii
-3.4646959 -0.29895756 0.93181062
-2.1105449 -0.20828544 -0.56826514
-2.1851985 -0.21565285 -0.56884885
-2.2602854 -0.22306301 -0.56829464
-2.3475401 -0.23167402 -0.56944275
-2.4291995 -0.2397328 -0.56782377
-2.5278783 -0.24947123 -0.5686785
-2.6302378 -0.25957286 -0.56868064
-2.7418685 -0.2705895 -0.56889975
-2.8601031 -0.28225783 -0.56856948
-3.003263 -0.29638597 -0.57100761
-3.1378965 -0.30967268 -0.56950319
-3.2884984 -0.32453531 -0.56851846
-3.4864035 -0.34406614 -0.57279617
-3.6668861 -0.36187762 -0.5710479
-3.8888838 -0.38378611 -0.57240397
-4.112442 -0.40584862 -0.57026953
-4.4030447 -0.43452764 -0.57313722
-4.7189994 -0.46570852 -0.57423478
-5.0552058 -0.49888808 -0.57235098
-5.4842958 -0.54123414 -0.5745917
-5.9785795 -0.59001398 -0.57594788
-6.5578861 -0.64718461 -0.576527
-7.2723308 -0.71769172 -0.57818002
-8.1592312 -0.8052181 -0.58016765
-9.288125 -0.91662639 -0.58252472
-10.779332 -1.0637906 -0.58572
-12.829057 -1.2660738 -0.58968776
-15.85179 -1.5643812 -0.59601259
-20.718933 -2.0447099 -0.6057871
-29.906141 -2.9513769 -0.62448925
-53.723763 -5.3018904 -0.67304212
-17.366762 -1.7138908 0.94366324
-16.46826 -1.6252193 1.0328423
-15.970377 -1.5760844 1.1355846
-15.579345 -1.5374942 1.2386216
-15.24127 -1.5041302 1.339914
-14.981093 -1.478454 1.4432071
-11.127964 -1.0981964 1.1658808
-9.2179079 -0.90969682 1.0436527
-8.0950232 -0.79888159 0.98504877
-7.2940903 -0.7198391 0.94945985
-6.6724048 -0.65848619 0.9252578
-6.1685305 -0.60875982 0.90794462
-5.7836242 -0.57077426 0.90068966
-5.4596252 -0.53879941 0.89698523
-5.1847801 -0.51167554 0.89634925
-4.9525928 -0.48876143 0.89885604
-4.7257795 -0.46637768 0.89850807
-4.5433521 -0.4483743 0.90318817
-4.3745828 -0.43171877 0.90766525
-4.2335129 -0.41779688 0.9153229
-4.0734472 -0.40200031 0.91637397
-3.9486198 -0.38968137 0.92298734
-3.8367236 -0.37863854 0.93067396
-3.7036362 -0.36550441 0.93119067
-3.5971608 -0.35499656 0.93640947
-3.4794831 -0.34338319 0.93685234
-2.1098192 -0.23444164 -0.56880289
-2.1853707 -0.24283686 -0.56962788
-2.2518289 -0.25022167 -0.56689924
-2.3504465 -0.26117998 -0.57088363
-2.4405997 -0.27119777 -0.57122493
-2.5245509 -0.28052634 -0.568663
-2.6286023 -0.29208845 -0.56906056
-2.7386792 -0.30432013 -0.5689714
-2.8694446 -0.3188507 -0.5711627
-2.9822428 -0.33138475 -0.56774288
-3.1338422 -0.34823036 -0.56950146
-3.2999558 -0.36668879 -0.57123554
-3.4748638 -0.38612446 -0.57163709
-3.661025 -0.40681055 -0.57087106
-3.8744597 -0.43052727 -0.57101691
-4.1159978 -0.45736682 -0.57149929
-4.4010501 -0.48904166 -0.57361698
-4.697608 -0.52199489 -0.57236958
-5.054143 -0.56161284 -0.57296926
-5.4674602 -0.60754037 -0.57356709
-5.9766531 -0.66412157 -0.57650542
-6.5566988 -0.72857583 -0.57716656
-7.2701001 -0.80784845 -0.57874864
-8.1569252 -0.90639186 -0.58075231
-9.28267 -1.0314839 -0.58293402
-10.75714 -1.1953259 -0.58526856
-12.822972 -1.4248798 -0.59016883
-15.830302 -1.7590522 -0.5959729
-20.700436 -2.3002181 -0.60602742
-29.86269 -3.3183212 -0.62438673
-53.645164 -5.9610133 -0.67292488
-19.03875 -2.1155725 1.3555105
-16.957542 -1.8843102 1.3499339
-16.024712 -1.7806548 1.4106075
-15.642734 -1.7382096 1.5088913
-15.304916 -1.7006717 1.6055713
-15.050024 -1.6723483 1.7061648
-8.9894695 -0.99890363 1.095302
-7.8207483 -0.86903608 1.019328
-7.0199904 -0.78005642 0.97471368
-6.4124241 -0.71254408 0.9450615
-5.970602 -0.66344917 0.93100804
-5.6056185 -0.62289244 0.92215973
-5.2996197 -0.58889008 0.91738534
-5.047811 -0.56090927 0.91731989
-4.8101826 -0.53450418 0.91573602
-4.6182079 -0.51317203 0.91925389
-4.4283938 -0.49208006 0.92001629
-4.2626572 -0.47366351 0.92281365
-4.109859 -0.45668468 0.9257586
-3.9736388 -0.44154799 0.93003434
-3.8561978 -0.428498 0.9366051
-3.7428894 -0.41590726 0.94227451
-3.6251862 -0.40282819 0.9449231
-3.5149183 -0.39057529 0.94761479
-2.1064651 -0.26032674 -0.56871867
-2.1849954 -0.27003187 -0.57035249
-2.2448952 -0.27743456 -0.56596971
-2.3360145 -0.28869551 -0.56819761
-2.4270945 -0.29995158 -0.56888425
-2.5192041 -0.31133494 -0.56827801
-2.6320477 -0.32528067 -0.57062918
-2.7332046 -0.33778211 -0.56865394
-2.8605502 -0.35352007 -0.57021445
-2.9676321 -0.36675373 -0.56577712
-3.1302819 -0.38685474 -0.56967586
-3.2919333 -0.4068324 -0.57066965
-3.4583499 -0.42739892 -0.56974196
-3.6534812 -0.45151415 -0.5705173
-3.8734758 -0.4787021 -0.57169622
-4.0998993 -0.5066846 -0.570086
-4.3874941 -0.54222685 -0.57267582
-4.7020721 -0.58110386 -0.57374078
-5.0530267 -0.62447649 -0.57366985
-5.4735136 -0.67644221 -0.57503128
-5.9515314 -0.73551786 -0.57491112
-6.5468392 -0.80908877 -0.57713085
-7.2690554 -0.89834356 -0.57950103
-8.1316032 -1.0049412 -0.57978541
-9.26896 -1.1455011 -0.58291352
-10.759682 -1.3297313 -0.58625209
-12.798247 -1.5816668 -0.58988142
-15.798811 -1.9524903 -0.59564614
-20.66395 -2.5537469 -0.60583282
-29.831604 -3.686728 -0.62463742
-53.555248 -6.6186061 -0.67276698
-19.78998 -2.4457374 1.4110307
-18.495543 -2.2857649 1.4744952
-17.945641 -2.2178054 1.581982
-17.562563 -2.1704631 1.6965234
-16.878628 -2.0859392 1.7732191
-16.487497 -2.0376012 1.8718246
-16.492895 -2.0382686 2.0124419
-8.9287777 -1.1034598 1.1654251
-7.6022782 -0.93952483 1.0570875
-6.7894392 -0.83907044 1.0020708
-6.2226939 -0.76902938 0.97171831
-5.7819271 -0.71455735 0.95253706
-5.4377704 -0.67202491 0.94265896
-5.1526608 -0.63678974 0.9377259
-4.903563 -0.60600507 0.93486118
-4.6949482 -0.58022344 0.93587846
-4.5079217 -0.55710989 0.93789083
-4.3185019 -0.53370047 0.93625331
-4.1570001 -0.51374131 0.9377293
-4.0146489 -0.49614891 0.94098955
-3.8940909 -0.48124984 0.94717443
-3.7867758 -0.4679873 0.95469952
-3.6482179 -0.45086369 0.95229948
-3.5572608 -0.43962279 0.96041501
-2.088927 -0.28427774 -0.56488472
-2.1691604 -0.29519653 -0.56712365
-2.2549055 -0.30686539 -0.56940168
-2.3337142 -0.3175903 -0.56854498
-2.4200971 -0.32934597 -0.5681504
-2.530504 -0.34437102 -0.57173902
-2.6201165 -0.35656619 -0.56895006
-2.7224653 -0.37049463 -0.56732452
-2.8573463 -0.3888503 -0.57048577
-2.98578 -0.40632859 -0.5701465
-3.1179309 -0.42431271 -0.5683347
-3.2858396 -0.44716305 -0.57052326
-3.4480627 -0.46923968 -0.56895477
-3.6509137 -0.49684525 -0.57102722
-3.8644142 -0.52590007 -0.57127005
-4.1088476 -0.55916452 -0.57224309
-4.3879294 -0.59714413 -0.57364768
-4.699666 -0.63956773 -0.57436335
-5.0500131 -0.68724579 -0.57424372
-5.4611754 -0.74319994 -0.57465166
-5.9592543 -0.81098253 -0.57657689
-6.5307074 -0.88875037 -0.57662851
-7.2509942 -0.98677272 -0.57898474
-8.1226234 -1.1053909 -0.58007044
-9.2602062 -1.2602022 -0.58329344
-10.722601 -1.4592165 -0.58516514
-12.788617 -1.7403762 -0.5903793
-15.772278 -2.1464164 -0.5955959
-20.631596 -2.8077109 -0.60585064
-29.773754 -4.0518484 -0.62442219
-53.45776 -7.2749548 -0.67261523
-18.802118 -2.5587411 1.5013306
-18.162008 -2.4716299 1.6036139
-17.741026 -2.4143393 1.7165009
-17.429386 -2.3719287 1.8340056
-17.257982 -2.3486028 1.9624281
-17.484102 -2.379375 2.136796
-9.3902798 -1.2779036 1.3077931
-7.4547849 -1.0145061 1.1020287
-6.6000619 -0.89818865 1.0322937
-6.042717 -0.82234079 0.99709111
-5.630837 -0.76628888 0.97768736
-5.3020678 -0.72154737 0.9664579
-5.018363 -0.68293858 0.95827633
-4.7827091 -0.65086895 0.95489573
-4.5685606 -0.62172586 0.95202553
-4.4014964 -0.5989905 0.95577115
-4.2425466 -0.57735932 0.95855582
-4.0823946 -0.55556458 0.95839721
-3.935184 -0.53553098 0.95869887
-3.8030047 -0.51754302 0.96032292
-3.6916044 -0.50238276 0.96516424
-3.5806863 -0.48728815 0.96828413
-2.0971067 -0.31169948 -0.56809014
-2.178591 -0.32381079 -0.57058716
-2.2424567 -0.3333033 -0.56725019
-2.3274405 -0.34593472 -0.56800997
-2.4194293 -0.35960731 -0.56898874
-2.5016959 -0.37183481 -0.56622034
-2.6018074 -0.3867147 -0.5659641
-2.7240901 -0.40489 -0.56865764
-2.8507853 -0.42372108 -0.57017303
-2.9870112 -0.44396877 -0.57138091
-3.1202347 -0.46377018 -0.56975102
-3.2776697 -0.48717025 -0.5701018
-3.4520702 -0.51309192 -0.57061398
-3.6517055 -0.54276437 -0.57215172
-3.8655064 -0.57454222 -0.57243264
-4.1036434 -0.60993725 -0.57251954
-4.3664389 -0.64899737 -0.57183826
-4.6829376 -0.69603962 -0.57332164
-5.0472727 -0.75019187 -0.57493758
-5.4438491 -0.80913621 -0.57383209
-5.9339342 -0.88197911 -0.57513291
-6.5245285 -0.96976095 -0.57709223
-7.2313604 -1.0748196 -0.57842857
-8.1193972 -1.2068113 -0.58085591
-9.2288694 -1.3717155 -0.58233804
-10.70745 -1.5914816 -0.58536202
-12.752209 -1.8954004 -0.58972985
-15.764124 -2.3430707 -0.59633088
-20.60149 -3.0620637 -0.60602647
-29.716347 -4.4168329 -0.62431002
-53.343376 -7.9285922 -0.6723519
-19.161415 -2.8480208 1.5327007
-18.402187 -2.7351742 1.6276668
-17.919643 -2.6634521 1.7368201
-17.572184 -2.6118083 1.852271
-17.403036 -2.5866673 1.9823893
-17.623335 -2.619411 2.1575854
-7.3905458 -1.0984799 1.1579558
-6.4543033 -0.95932317 1.0668716
-5.9090743 -0.8782841 1.0277954
-5.5053396 -0.81827575 1.0052682
-5.1922574 -0.77174133 0.99321908
-4.8978581 -0.72798389 0.979599
-4.6865869 -0.69658196 0.97833163
-4.4763412 -0.6653325 0.97372639
-4.2952857 -0.63842165 0.97217184
-4.1414785 -0.61556083 0.97397131
-3.9882343 -0.59278369 0.97332531
-3.858886 -0.57355821 0.97614104
-3.7418594 -0.55616421 0.9800173
-3.6121287 -0.53688192 0.97849804
-2.102685 -0.3390038 -0.57068735
-2.1515729 -0.34688574 -0.56458545
-2.2355156 -0.36041933 -0.56657267
-2.324791 -0.37481266 -0.56844515
-2.4161451 -0.38954118 -0.56929982
-2.5093911 -0.40457466 -0.56904501
-2.6161666 -0.4217895 -0.57017273
-2.7199514 -0.43852213 -0.56887633
-2.8279088 -0.45592746 -0.56667602
-2.9604542 -0.47729701 -0.56738067
-3.1333313 -0.50516897 -0.57323343
-3.2700055 -0.52720416 -0.56985325
-3.4546549 -0.55697417 -0.57213002
-3.6380234 -0.58653754 -0.57109481
-3.851867 -0.62101436 -0.57150042
-4.0951948 -0.6602447 -0.57243025
-4.3782296 -0.70587677 -0.57447571
-4.667923 -0.75258237 -0.57257307
-5.0214305 -0.80957639 -0.57308453
-5.440906 -0.87720597 -0.57461542
-5.925714 -0.95536876 -0.57543129
-6.5183377 -1.050914 -0.57764399
-7.2189279 -1.1638663 -0.5785352
-8.0902147 -1.3043387 -0.57987177
-9.219965 -1.4864819 -0.58288544
-10.690301 -1.7235357 -0.58553886
-12.728164 -2.0520887 -0.58974028
-15.710462 -2.5329072 -0.59543407
-20.542761 -3.3119912 -0.60545111
-29.646421 -4.7797217 -0.62402856
-53.214874 -8.5795279 -0.67201114
-19.606514 -3.1610453 1.571294
-18.63677 -3.0046992 1.6515589
-18.107735 -2.9194059 1.758397
-17.708139 -2.8549814 1.8701611
-17.535009 -2.8270688 2.0012312
-17.792913 -2.868649 2.1825001
-7.538867 -1.2154481 1.2485219
-6.3533659 -1.0243167 1.1071804
-5.7867446 -0.93296349 1.0586672
-5.4000421 -0.87061769 1.0349356
-5.0727353 -0.81784791 1.01651
-4.8195791 -0.77703303 1.0080123
-4.5866437 -0.73947817 0.99962258
-4.3933401 -0.70831293 0.99626088
-4.2215085 -0.68060952 0.99468529
-4.0575876 -0.65418154 0.99213916
-3.922626 -0.63242239 0.9941566
-3.7778215 -0.60907644 0.99132264
-3.6821942 -0.59365898 0.99938017
-2.0777583 -0.36125031 -0.56508493
-2.1641159 -0.3762649 -0.56904787
-2.2339454 -0.38840583 -0.56734228
-2.3185203 -0.40311044 -0.56808096
-2.4042735 -0.41801995 -0.56767082
-2.5096283 -0.43633756 -0.57027239
-2.6053312 -0.45297694 -0.56898212
-2.7259557 -0.47394937 -0.57130784
-2.8324471 -0.49246454 -0.56875592
-2.9735265 -0.5169934 -0.57106119
-3.1164191 -0.54183745 -0.57131505
-3.2642205 -0.56753498 -0.57001811
-3.4427621 -0.5985772 -0.57133621
-3.6408107 -0.63301098 -0.57271099
-3.8344834 -0.66668397 -0.57009441
-4.0670638 -0.70712173 -0.56967044
-4.3479075 -0.75595069 -0.57167351
-4.665278 -0.8111304 -0.57342869
-5.0253348 -0.87373185 -0.57471281
-5.4378505 -0.94545412 -0.57547706
-5.9234238 -1.0298785 -0.57639509
-6.4993248 -1.1300077 -0.57714683
-7.1940694 -1.2507998 -0.57773191
-8.0773039 -1.4043636 -0.58014023
-9.1964083 -1.5989372 -0.58259511
-10.667696 -1.8547432 -0.58550566
-12.688334 -2.2060623 -0.5891071
-15.684008 -2.7269063 -0.59565729
-20.496105 -3.5635638 -0.60532176
-29.576916 -5.1424026 -0.62384939
-53.087379 -9.2300587 -0.67178357
-18.894552 -3.2851088 1.6778558
-18.295813 -3.1810086 1.7803243
-17.84314 -3.1023047 1.8883045
-17.663923 -3.0711453 2.0201011
-17.940763 -3.119278 2.2051737
-6.291214 -1.0938244 1.1533319
-5.7014565 -0.99128598 1.0949559
-5.2905431 -0.91984236 1.062342
-4.9773464 -0.86538827 1.0431559
-4.7161813 -0.81998074 1.0299739
-4.5132437 -0.78469694 1.0255616
-4.3096976 -0.74930733 1.0175588
-4.1369925 -0.71927983 1.0136408
-3.9781802 -0.69166785 1.0103155
-3.8304994 -0.66599131 1.0072184
-3.7263515 -0.64788359 1.0134504
-2.0813067 -0.38829011 -0.56730568
-2.1569636 -0.4024047 -0.5684253
-2.2315741 -0.41632408 -0.56799722
-2.3138115 -0.43166634 -0.56818479
-2.408848 -0.44939643 -0.57001257
-2.510879 -0.46843141 -0.57182229
-2.6188691 -0.48857811 -0.57320744
-2.7196386 -0.50737774 -0.57124823
-2.8381081 -0.5294795 -0.57115686
-2.9624527 -0.55267733 -0.57019651
-3.0985637 -0.57807028 -0.56930178
-3.2474897 -0.60585403 -0.56835449
-3.4242444 -0.63882953 -0.56952369
-3.6143639 -0.67429835 -0.569812
-3.838299 -0.71607584 -0.57192761
-4.0794568 -0.76106638 -0.5726738
-4.3376713 -0.80923909 -0.57159275
-4.6390553 -0.86546552 -0.57147044
-5.0171809 -0.93600893 -0.57505316
-5.4115543 -1.0095835 -0.57396454
-5.9036617 -1.1013914 -0.57574642
-6.4909968 -1.2109652 -0.57768589
-7.1989412 -1.3430398 -0.57940561
-8.0578289 -1.5032744 -0.58002532
-9.1763906 -1.7119541 -0.58261657
-10.646204 -1.9861636 -0.58562231
-12.670383 -2.363796 -0.58957863
-15.651166 -2.9198928 -0.59572858
-20.460009 -3.817034 -0.60559607
-29.511086 -5.5056095 -0.62384164
-52.945465 -9.8775444 -0.67147398
-19.194193 -3.5808825 1.7082453
-18.504673 -3.4522452 1.8046424
-17.997644 -3.3576536 1.9088804
-17.803419 -3.321419 2.0405707
-18.15547 -3.3870978 2.2365146
-6.3263898 -1.1802559 1.2176685
-5.6208649 -1.0486326 1.1311744
-5.2230754 -0.97442073 1.0970843
-4.8957443 -0.91335362 1.0715606
-4.6375747 -0.86518931 1.0561514
-4.429172 -0.82630956 1.0480876
-4.2314816 -0.78942823 1.0390922
-4.0726891 -0.75980377 1.0366118
-3.9268656 -0.7325989 1.0348481
-3.7862744 -0.70637012 1.0320319
-2.08886 -0.41633996 -0.5707168
-2.1451881 -0.42756695 -0.56666476
-2.2149506 -0.44147161 -0.56510502
-2.2958534 -0.45759669 -0.56511396
-2.3909826 -0.47655734 -0.56712878
-2.4952731 -0.49734393 -0.56961787
-2.6089454 -0.52000052 -0.57239169
-2.7075834 -0.53966045 -0.57006687
-2.8074861 -0.55957246 -0.56633615
-2.9489233 -0.58776301 -0.56894058
-3.08639 -0.61516207 -0.56841195
-3.2453485 -0.6468448 -0.56932878
-3.4245675 -0.68256569 -0.57093024
-3.60465 -0.71845877 -0.56963032
-3.8263779 -0.76265234 -0.57150543
-4.0608168 -0.8093794 -0.57141107
-4.3340669 -0.86384207 -0.57247424
-4.6411295 -0.92504406 -0.57308382
-4.9986734 -0.99630779 -0.57429266
-5.4071245 -1.077718 -0.57485682
-5.8945141 -1.1748618 -0.57621962
-6.460052 -1.2875816 -0.57629734
-7.1639237 -1.4278734 -0.57795662
-8.0460873 -1.6037014 -0.58055574
-9.1675911 -1.8272332 -0.5834403
-10.606711 -2.1140707 -0.58483565
-12.63257 -2.5178537 -0.58921528
-15.598927 -3.1090913 -0.59515041
-20.392313 -4.0644822 -0.60502589
-29.427557 -5.8653369 -0.6235534
-52.793404 -10.522488 -0.67113572
-23.423306 -4.6686029 1.6900803
-23.272669 -4.6385789 1.8775456
-19.503153 -3.88726 1.7398646
-18.715399 -3.7302492 1.8295283
-18.154316 -3.618417 1.9300706
-17.925631 -3.5728369 2.059458
-5.6111212 -1.1183774 1.1813909
-5.1508975 -1.0266482 1.1300852
-4.8221564 -0.96112537 1.100796
-4.5766492 -0.91219229 1.0855578
-4.3677592 -0.87055743 1.0751042
-4.1779709 -0.83272988 1.0659345
-4.0215816 -0.80155927 1.0623258
-3.8739111 -0.77212644 1.0584271
-2.0812335 -0.44149372 -0.57007319
-2.1455729 -0.45514211 -0.56820184
-2.2222509 -0.47140789 -0.56840354
-2.2904675 -0.48587874 -0.56521618
-2.3979807 -0.50868559 -0.57022929
-2.4842143 -0.52697843 -0.56852967
-2.5860643 -0.54858392 -0.56880862
-2.6821322 -0.56896287 -0.56613851
-2.8113346 -0.5963707 -0.56854886
-2.9331586 -0.6222133 -0.56733227
-3.0924373 -0.65600121 -0.57096809
-3.2380803 -0.68689662 -0.5694924
-3.4119995 -0.72379023 -0.57027566
-3.6058533 -0.76491255 -0.57126361
-3.8075097 -0.80769014 -0.57012761
-4.0642266 -0.86214769 -0.57333928
-4.3311529 -0.91877097 -0.5735383
-4.6334252 -0.98289222 -0.57358158
-4.9917846 -1.0589112 -0.57495368
-5.3918381 -1.1437749 -0.57468343
-5.8588147 -1.242835 -0.57418036
-6.4314623 -1.3643112 -0.57520002
-7.1550779 -1.5178124 -0.57870495
-8.025382 -1.7024308 -0.58052832
-9.1198425 -1.9345995 -0.58187145
-10.592324 -2.2469583 -0.58552152
-12.592278 -2.6712098 -0.58882338
-15.571192 -3.3031297 -0.59559685
-20.347048 -4.316236 -0.60521191
-29.345924 -6.2251749 -0.62339854
-52.639511 -11.166462 -0.67087418
-22.14628 -4.6979084 1.6019852
-21.937239 -4.6535645 1.7742909
-19.858948 -4.2126946 1.7760918
-18.93609 -4.0169282 1.8557903
-18.322821 -3.8868346 1.9529188
-18.056389 -3.8303163 2.0797346
-5.6234007 -1.1928965 1.2368752
-5.1205239 -1.0862209 1.1718674
-4.7896104 -1.0160239 1.1389482
-4.5124536 -0.95723045 1.1135333
-4.3177376 -0.91592509 1.1043835
-4.1188607 -0.87373728 1.0907784
-3.9637096 -0.84082496 1.0857046
-2.0602415 -0.46358362 -0.56584185
-2.1471479 -0.48313883 -0.57014918
-2.2063608 -0.49646258 -0.56585789
-2.3033531 -0.51828718 -0.56992555
-2.384383 -0.53652012 -0.56852162
-2.4772604 -0.55741882 -0.56846386
-2.5871489 -0.58214533 -0.57057852
-2.6862907 -0.60445356 -0.56854212
-2.816714 -0.63380075 -0.57116967
-2.9572396 -0.66542095 -0.5735293
-3.079896 -0.69302034 -0.5701828
-3.2498817 -0.7312696 -0.57310605
-3.4038541 -0.76591557 -0.57044524
-3.6042397 -0.81100518 -0.57254463
-3.819392 -0.8594175 -0.57344592
-4.0285382 -0.90647835 -0.56983405
-4.3143854 -0.97079802 -0.57285535
-4.6260915 -1.0409364 -0.57421476
-4.9755721 -1.1195745 -0.57462853
-5.3748031 -1.2094072 -0.57440943
-5.8515434 -1.3166806 -0.57501101
-6.4352441 -1.4480214 -0.57708704
-7.118722 -1.6018137 -0.5773139
-7.9984083 -1.7997557 -0.58013415
-9.0988855 -2.0473785 -0.58209658
-10.563911 -2.3770301 -0.58552235
-12.584128 -2.8316078 -0.5900259
-15.518131 -3.4918003 -0.5951646
-20.3002 -4.5678334 -0.6054433
-29.265797 -6.5852203 -0.6233694
-52.45866 -11.803945 -0.67036843
-21.851162 -4.916822 1.584891
-21.050442 -4.7366486 1.7071481
-20.301132 -4.5680432 1.8205247
-19.163082 -4.3119659 1.88309
-18.503651 -4.1635847 1.9774997
-18.200754 -4.0954285 2.1020041
-5.8074441 -1.3067576 1.3326504
-5.1113257 -1.150121 1.2187217
-4.7449417 -1.0676794 1.1740551
-4.476768 -1.0073365 1.1481416
-4.260469 -0.95866615 1.1313161
-4.0643101 -0.9145276 1.116256
-2.0722351 -0.49312797 -0.57075816
-2.1249878 -0.50568146 -0.56587315
-2.2000217 -0.52353728 -0.56584042
-2.3038766 -0.54825151 -0.57167995
-2.3791039 -0.56615329 -0.56887984
-2.4655752 -0.58673078 -0.56739515
-2.561482 -0.60955358 -0.56652802
-2.6797626 -0.63770074 -0.56877708
-2.8015578 -0.66668427 -0.56971562
-2.9313526 -0.6975714 -0.57012922
-3.0691557 -0.73036426 -0.56981403
-3.2367487 -0.77024627 -0.57241708
-3.3974581 -0.80849016 -0.57099628
-3.5827177 -0.8525762 -0.57074803
-3.7912402 -0.90219814 -0.57084167
-4.0382128 -0.96096992 -0.57283068
-4.3073153 -1.0250081 -0.57354677
-4.5988021 -1.0943729 -0.57245457
-4.950253 -1.1780074 -0.57333404
-5.3557186 -1.2744957 -0.57400131
-5.8319144 -1.3878156 -0.57471561
-6.4079261 -1.5248885 -0.57627523
-7.1042075 -1.690582 -0.57777905
-7.9560304 -1.8932896 -0.57870525
-9.0859966 -2.1621866 -0.5829289
-10.524092 -2.5044088 -0.58497792
-12.524501 -2.9804447 -0.58890402
-15.463673 -3.6798766 -0.5947665
-20.233116 -4.814857 -0.60516262
-29.167274 -6.9409103 -0.62304169
-52.284786 -12.442164 -0.67005098
-20.374117 -4.8484106 1.8322774
-19.422792 -4.622025 1.9140511
-18.677126 -4.4445791 2.0017285
-18.339863 -4.3643212 2.1241069
-5.162632 -1.228547 1.2810465
-4.7270565 -1.1248935 1.2157878
-4.430109 -1.0542291 1.1797149
-4.2184739 -1.0038666 1.1618992
-2.0551267 -0.51583695 -0.5677501
-2.1285601 -0.53426874 -0.56853092
-2.2031882 -0.55300039 -0.56836075
-2.2865963 -0.57393581 -0.5691002
-2.3623607 -0.59295267 -0.5665769
-2.4675491 -0.61935496 -0.56955892
-2.5649395 -0.64379996 -0.56900066
-2.6791945 -0.67247796 -0.57036853
-2.7911789 -0.70058608 -0.56931382
-2.922574 -0.73356628 -0.57013315
-3.0563662 -0.76714814 -0.56914788
-3.2037265 -0.80413556 -0.56828284
-3.3991187 -0.85317898 -0.57299519
-3.5724182 -0.8966772 -0.57082057
-3.7924814 -0.95191306 -0.57274765
-4.0132189 -1.0073181 -0.57099909
-4.2937055 -1.0777203 -0.57345575
-4.5934706 -1.1529614 -0.57351232
-4.9319816 -1.2379277 -0.57293755
-5.3509307 -1.343084 -0.57521468
-5.8188624 -1.4605349 -0.57515574
-6.3764334 -1.6004852 -0.57516944
-7.0842528 -1.7781479 -0.57789069
-7.9471359 -1.9947315 -0.57979858
-9.0458736 -2.2705147 -0.58210188
-10.492546 -2.6336298 -0.58498037
-12.51018 -3.1400559 -0.59000152
-15.426188 -3.8719742 -0.59511101
-20.166227 -5.0617247 -0.60497791
-29.067419 -7.2959242 -0.622778
-52.104362 -13.078198 -0.66974902
-19.929321 -5.0022607 0.42699155
-19.187792 -4.8161368 0.57562524
-19.094358 -4.7926855 0.73662156
-19.479681 -4.8894014 0.91869521
-22.380941 -5.6176176 2.0188141
-19.665449 -4.936029 1.9437985
-18.895231 -4.7427044 2.0312009
-18.487255 -4.6403022 2.147624
-5.3461089 -1.3418736 1.3791461
-4.7430377 -1.1905028 1.2668488
-4.4285526 -1.111567 1.2234337
-2.0546753 -0.54266381 -0.56942582
-2.1110592 -0.55755538 -0.56564492
-2.2066016 -0.5827893 -0.57104683
-2.2620547 -0.59743512 -0.56477791
-2.3717515 -0.62640733 -0.57063335
-2.4529915 -0.64786375 -0.56799465
-2.5616405 -0.67655921 -0.57007122
-2.6766765 -0.7069416 -0.5716399
-2.7830939 -0.7350477 -0.56946528
-2.9090197 -0.76830614 -0.56928891
-3.0431015 -0.80371869 -0.56847519
-3.2011836 -0.84547001 -0.56963283
-3.3730848 -0.89087111 -0.57041013
-3.5604262 -0.94035023 -0.57070893
-3.7739129 -0.99673456 -0.57175118
-4.0023241 -1.0570606 -0.57125521
-4.2749944 -1.129076 -0.57276773
-4.5751176 -1.2083421 -0.57303268
-4.9244976 -1.3006175 -0.57388264
-5.3286395 -1.407356 -0.57463533
-5.7949305 -1.5305089 -0.57460701
-6.3807154 -1.6852216 -0.57738125
-7.0655231 -1.8660872 -0.57819092
-7.9208169 -2.0919805 -0.57971132
-9.0175438 -2.3816388 -0.58211946
-10.4631 -2.7634273 -0.58518893
-12.439953 -3.285537 -0.58855039
-15.379253 -4.0618405 -0.59518218
-20.084618 -5.3045826 -0.60444075
-28.96339 -7.64957 -0.62251741
-51.917046 -13.711899 -0.66945797
-18.650675 -4.9258614 0.080161653
-18.117735 -4.7851057 0.23362388
-17.900486 -4.7277279 0.38473964
-17.783838 -4.6969194 0.53519946
-17.743488 -4.6862626 0.68667883
-17.74103 -4.6856136 0.8393513
-17.806347 -4.7028646 0.99588811
-18.068115 -4.7720008 1.166371
-21.473047 -5.6712828 1.5715765
-21.246395 -5.6114216 1.7386503
-21.055031 -5.5608797 1.9052378
-19.943808 -5.2673926 1.9775649
-19.090778 -5.042098 2.0587311
-18.631676 -4.9208436 2.1712661
-4.812304 -1.2709857 1.3336657
-2.0358629 -0.56456262 -0.56609333
-2.1163027 -0.5868693 -0.56894052
-2.1841254 -0.60567713 -0.56711477
-2.2674322 -0.62877882 -0.56800801
-2.3376663 -0.64825535 -0.56430775
-2.4548762 -0.68075866 -0.57032621
-2.5563402 -0.70889556 -0.57078844
-2.6533437 -0.73579544 -0.56854612
-2.7822144 -0.77153248 -0.57118332
-2.9074433 -0.80625951 -0.57087743
-3.0612271 -0.84890509 -0.57376778
-3.1816208 -0.88229138 -0.56803936
-3.366643 -0.93359959 -0.57121891
-3.5486023 -0.98405856 -0.57071006
-3.7500656 -1.0399261 -0.57003248
-4.0096064 -1.111899 -0.57420266
-4.2642689 -1.1825192 -0.57323563
-4.5557356 -1.2633455 -0.57250756
-4.9080505 -1.3610455 -0.57387292
-5.3308587 -1.4782939 -0.57679129
-5.7775059 -1.6021529 -0.57478923
-6.3500581 -1.7609267 -0.57652289
-7.0331001 -1.9503403 -0.57745653
-7.8958492 -2.1895883 -0.57981074
-8.9804649 -2.4903617 -0.58165872
-10.421914 -2.8900881 -0.58482879
-12.414996 -3.4427872 -0.58932799
-15.318692 -4.2480078 -0.59481496
-20.019789 -5.5516629 -0.60449845
-28.861586 -8.0035706 -0.62239754
-51.717693 -14.341769 -0.66911083
-17.941694 -4.975389 -0.077371515
-17.444645 -4.837553 0.07522805
-17.205839 -4.7713304 0.22260493
-17.031534 -4.7229934 0.36728349
-16.911285 -4.6896477 0.51063704
-16.859087 -4.6751723 0.6546275
-16.845106 -4.6712956 0.79962105
-16.881741 -4.6814547 0.94732392
-16.977079 -4.7078934 1.0995941
-17.226086 -4.7769442 1.2649518
-17.76622 -4.9267287 1.4587053
-19.902617 -5.5191703 1.8069621
-19.885698 -5.5144787 1.9783772
-19.288658 -5.3489141 2.0870054
-18.791328 -5.211 2.1971726
-2.0285451 -0.58948737 -0.56603128
-2.0931146 -0.60825104 -0.56467474
-2.1819322 -0.6340611 -0.56852674
-2.2692981 -0.65944928 -0.57046366
-2.3381381 -0.67945391 -0.5663957
-2.4470592 -0.71110594 -0.57049847
-2.5331147 -0.73611337 -0.56758076
-2.6503947 -0.77019447 -0.56990045
-2.773725 -0.80603379 -0.57143205
-2.8968558 -0.84181511 -0.57078791
-3.0257642 -0.87927544 -0.56910443
-3.1689055 -0.92087168 -0.56774789
-3.3648765 -0.9778201 -0.57291597
-3.5271637 -1.0249802 -0.56924611
-3.7432499 -1.087774 -0.57098651
-3.9902451 -1.1595498 -0.57342851
-4.2399755 -1.2321205 -0.57196331
-4.547852 -1.3215883 -0.57351565
-4.8942051 -1.4222372 -0.57425547
-5.2947874 -1.5386448 -0.5748921
-5.7682114 -1.6762201 -0.57587165
-6.323801 -1.8376721 -0.57614702
-7.0227838 -2.0407939 -0.57862616
-7.8683019 -2.2864981 -0.57980859
-8.9530439 -2.6017201 -0.58191079
-10.389877 -3.0192583 -0.58507013
-12.365553 -3.5933819 -0.58903384
-15.276087 -4.4391718 -0.59523523
-19.940157 -5.7945328 -0.60419977
-28.751204 -8.3549891 -0.62218559
-51.498665 -14.965314 -0.66860735
-17.10582 -4.9708853 -0.074024901
-16.6964 -4.8519096 0.072253145
-16.436718 -4.7764473 0.21339798
-16.261803 -4.7256174 0.35191083
-16.164864 -4.6974473 0.48980594
-16.130949 -4.687592 0.62854511
-16.112415 -4.6822057 0.7675159
-16.10434 -4.6798592 0.90686047
-16.152 -4.6937094 1.0498132
-16.266735 -4.7270503 1.1986821
-16.54977 -4.8092995 1.3635805
-17.220539 -5.0042224 1.5689238
-18.917274 -5.4972873 1.8886136
-18.726471 -5.4418402 2.0332639
-18.69556 -5.432858 2.1936202
-2.0297697 -0.61700702 -0.56844705
-2.0968223 -0.63738954 -0.5677464
-2.1695094 -0.65948492 -0.56735992
-2.2581911 -0.68644226 -0.56975031
-2.3398616 -0.71126837 -0.56888884
-2.4232359 -0.73661238 -0.5670132
-2.527693 -0.76836514 -0.56843996
-2.6318038 -0.80001265 -0.56797528
-2.7454116 -0.83454704 -0.56767029
-2.8864856 -0.8774305 -0.57082731
-3.0380721 -0.9235096 -0.5735119
-3.1537499 -0.95867324 -0.56710178
-3.3380988 -1.0147114 -0.57043803
-3.5186939 -1.0696084 -0.56995881
-3.7342131 -1.1351217 -0.57169396
-3.9670496 -1.2058991 -0.57218289
-4.2206759 -1.2829962 -0.57144487
-4.5328417 -1.3778878 -0.57371604
-4.8588285 -1.4769809 -0.57219231
-5.278286 -1.6044872 -0.57519913
-5.7351933 -1.7433773 -0.57467204
-6.3086376 -1.9176922 -0.57687026
-6.9792185 -2.1215346 -0.57714248
-7.8417149 -2.3837152 -0.57996553
-8.921957 -2.712086 -0.58201379
-10.353663 -3.1472943 -0.58516598
-12.31632 -3.7439005 -0.58883715
-15.213717 -4.6246481 -0.59497583
-19.884438 -6.0444479 -0.60471779
-28.637669 -8.705245 -0.62199807
-17.196693 -5.2274308 -0.22408234
-16.446255 -4.9993129 -0.071431272
-16.14225 -4.9069023 0.070110887
-15.954183 -4.8497338 0.20789173
-15.813177 -4.8068709 0.34345555
-15.745142 -4.7861896 0.47883517
-15.698664 -4.7720613 0.61394101
-15.646167 -4.7561035 0.74803543
-15.664783 -4.7617621 0.8853386
-15.671391 -4.7637711 1.0223055
-15.764715 -4.7921395 1.1659428
-15.885123 -4.8287411 1.3136113
-16.133896 -4.9043627 1.4753051
-17.07304 -5.1898427 1.7107356
-18.073723 -5.494029 1.9695767
-18.293797 -5.5609269 2.1543403
-2.0103664 -0.63821483 -0.56516814
-2.0974011 -0.66584504 -0.570077
-2.1688607 -0.68853068 -0.56936133
-2.2317376 -0.70849174 -0.56523132
-2.3222144 -0.73721462 -0.56675947
-2.4257886 -0.77009553 -0.56978321
-2.512289 -0.7975561 -0.56713843
-2.6372325 -0.83722091 -0.57132542
-2.7392724 -0.86961472 -0.56856889
-2.8602436 -0.90801841 -0.56780291
-3.010973 -0.95586926 -0.57057196
-3.1535532 -1.0011331 -0.56923699
-3.3314691 -1.0576146 -0.57148427
-3.501657 -1.1116428 -0.56937027
-3.701746 -1.1751634 -0.56889266
-3.9526637 -1.2548202 -0.57229018
-4.2191381 -1.3394158 -0.57342321
-4.5218797 -1.4355247 -0.57451934
-4.841001 -1.5368335 -0.57227504
-5.2558532 -1.6685333 -0.57494688
-5.7228055 -1.8167728 -0.57562572
-6.2741156 -1.9917928 -0.57590961
-6.972393 -2.2134693 -0.57878512
-7.8112741 -2.4797821 -0.57992554
-8.891984 -2.8228662 -0.58227885
-10.296158 -3.2686381 -0.58414334
-12.270516 -3.895422 -0.58889288
-15.120372 -4.8001423 -0.59358871
-19.771719 -6.2767682 -0.6035915
-28.528843 -9.0568218 -0.6220063
-16.591824 -5.2672725 -0.21702811
-16.056772 -5.097414 -0.070006579
-15.807629 -5.0183201 0.068920329
-15.693429 -4.9820662 0.20527673
-15.661932 -4.9720669 0.34147266
-20.214828 -6.4174385 0.61711872
-20.195391 -6.4112678 0.79282153
-20.112846 -6.3850632 0.96526587
-19.932108 -6.3276854 1.1308304
-19.679411 -6.2474637 1.2886782
-19.406942 -6.1609654 1.4408125
-15.589088 -4.9489422 1.2940654
-15.671371 -4.9750633 1.4384965
-15.96149 -5.0671654 1.605479
-17.263922 -5.4806376 1.8885301
-17.399004 -5.5235214 2.0568094
-2.0135357 -0.66658241 -0.56832045
-2.0789089 -0.68822426 -0.56730807
-2.1523325 -0.71253121 -0.56727964
-2.2285423 -0.73776048 -0.56667686
-2.3122008 -0.76545572 -0.56656992
-2.4155326 -0.79966378 -0.56964082
-2.5123715 -0.83172238 -0.56942278
-2.6148098 -0.86563462 -0.56873077
-2.7351689 -0.90547961 -0.56998509
-2.8565578 -0.94566548 -0.56933659
-3.0029514 -0.99412918 -0.57132518
-3.1404662 -1.0396535 -0.56913924
-3.3219113 -1.0997211 -0.5721212
-3.4837012 -1.1532817 -0.56871349
-3.6955297 -1.2234077 -0.57020611
-3.9309425 -1.3013413 -0.57141888
-4.193924 -1.3884014 -0.57227337
-4.5072212 -1.4921187 -0.57494462
-4.8272839 -1.5980757 -0.5729332
-5.2355657 -1.7332377 -0.57501554
-5.7051277 -1.8886865 -0.57614005
-6.2702384 -2.0757668 -0.57785296
-6.921392 -2.2913318 -0.57684672
-7.7800655 -2.5755961 -0.579916
-8.8406048 -2.9266884 -0.58122706
-10.269323 -3.3996668 -0.58494836
-12.223556 -4.0466166 -0.58898258
-15.087163 -4.994616 -0.5946511
-19.682777 -6.5159974 -0.60327667
-28.385365 -9.3969946 -0.62135041
-16.251646 -5.3801188 -0.21342766
-15.823779 -5.2384729 -0.069266349
-15.659597 -5.1841207 0.068547666
-19.461016 -6.4425831 0.25557527
-19.568491 -6.4781628 0.42835066
-19.649555 -6.5049992 0.60225844
-19.660488 -6.5086188 0.77490592
-19.598127 -6.4879737 0.94432062
-19.481909 -6.4495001 1.1097043
-19.29744 -6.3884306 1.2687134
-19.054186 -6.3079019 1.4202743
-18.715071 -6.1956372 1.5597624
-15.623925 -5.1723113 1.4398706
-15.62501 -5.1726704 1.5779127
-16.137487 -5.3423262 1.7723597
-16.721117 -5.5355377 1.98457
-1.996719 -0.68836999 -0.56592023
-2.0655193 -0.712089 -0.56600088
-2.1456292 -0.73970687 -0.56786728
-2.2231174 -0.76642102 -0.56765091
-2.3222523 -0.80059779 -0.57140189
-2.4059618 -0.82945669 -0.56974596
-2.5014505 -0.86237651 -0.56930792
-2.6091564 -0.89950812 -0.5698638
-2.7150974 -0.9360314 -0.56815797
-2.8420022 -0.97978187 -0.56879371
-2.9770815 -1.0263506 -0.56876141
-3.1397879 -1.0824436 -0.57138532
-3.2883534 -1.1336617 -0.56869948
-3.4954891 -1.2050718 -0.5730136
-3.6964438 -1.2743511 -0.57272172
-3.9140577 -1.3493737 -0.57133323
-4.1853347 -1.4428966 -0.57347906
-4.4737387 -1.5423241 -0.57304949
-4.8094506 -1.6580608 -0.57319307
-5.2009082 -1.7930161 -0.57358724
-5.6794786 -1.9580035 -0.57593769
-6.2215018 -2.1448665 -0.57574856
-6.9085956 -2.3817422 -0.57817733
-7.7369232 -2.6673088 -0.5791012
-8.805069 -3.0355527 -0.58130085
-10.230375 -3.5269279 -0.58515596
-12.159661 -4.19205 -0.5883432
-15.018058 -5.177484 -0.59439176
-19.617687 -6.7632093 -0.60378498
-28.280296 -9.7496481 -0.62162775
-16.114672 -5.5555425 -0.2125099
-15.712404 -5.4168606 -0.069065168
-15.720002 -5.4194798 0.069098569
-18.936302 -6.5283012 0.24971974
-19.079514 -6.5776734 0.41938582
-19.172306 -6.609663 0.59007722
-19.164307 -6.6069055 0.7584939
-19.124521 -6.5931897 0.92533678
-19.012114 -6.5544367 1.0874529
-18.83972 -6.4950042 1.2437773
-18.629578 -6.4225578 1.3944058
-18.344831 -6.3243909 1.5352709
-17.952507 -6.189137 1.6613561
-15.579303 -5.3709736 1.5798471
-15.782906 -5.4411659 1.7406332
-16.495119 -5.6867018 1.9658978
-1.9941914 -0.71505141 -0.567653
-2.0659282 -0.74077386 -0.56856596
-2.136029 -0.76590973 -0.56777614
-2.2277558 -0.79879993 -0.57130015
-2.3012958 -0.82516891 -0.56869912
-2.3877745 -0.85617739 -0.56788927
-2.4911993 -0.89326209 -0.56943166
-2.5843415 -0.92665982 -0.56688988
-2.7259772 -0.97744566 -0.57290643
-2.8317385 -1.0153682 -0.56919533
-2.9713752 -1.0654373 -0.57013106
-3.1249268 -1.1204959 -0.57114506
-3.2756009 -1.1745228 -0.56894875
-3.4738026 -1.2455913 -0.57192612
-3.6697075 -1.3158363 -0.57104301
-3.8868253 -1.3936876 -0.56981659
-4.1515985 -1.4886266 -0.57132143
-4.4633245 -1.6004014 -0.57419288
-4.7809749 -1.7143003 -0.57226843
-5.1859984 -1.8595283 -0.57442129
-5.6495185 -2.0257313 -0.57538199
-6.1883206 -2.2189281 -0.57515943
-6.8719177 -2.4640436 -0.57759988
-7.7301579 -2.7717803 -0.58110195
-8.7725639 -3.1455526 -0.58166444
-10.16425 -3.6445656 -0.58389294
-12.1057 -4.3407059 -0.58827037
-14.944192 -5.3584952 -0.59403121
-19.542633 -7.0073452 -0.60408133
-28.123875 -10.084296 -0.62086821
-16.113718 -5.7778487 -0.21341811
-15.677603 -5.6214724 -0.069210805
-15.816431 -5.6712518 0.069823682
-18.376606 -6.5892463 0.24338894
-18.503298 -6.6346736 0.40848243
-18.589281 -6.665504 0.57461226
-18.595398 -6.6676974 0.7391665
-18.55361 -6.6527143 0.90160334
-18.467407 -6.6218047 1.060874
-18.322954 -6.5700088 1.2149028
-18.135824 -6.5029101 1.363331
-17.867208 -6.4065933 1.5017784
-17.511414 -6.2790165 1.6275587
-15.608168 -5.5965753 1.5896326
-15.678795 -5.6219001 1.736644
-19.779318 -7.0922122 2.3675251
-1.9724571 -0.73475206 -0.56399542
-2.0714958 -0.77164459 -0.57266635
-2.1409092 -0.7975015 -0.5716368
-2.2083018 -0.82260561 -0.5688622
-2.2834494 -0.85059857 -0.56683075
-2.378711 -0.88608402 -0.56828207
-2.475158 -0.92201114 -0.56831348
-2.5801041 -0.96110421 -0.56850976
-2.6873739 -1.0010629 -0.56733757
-2.8075781 -1.0458395 -0.56688112
-2.9493656 -1.0986563 -0.56845719
-3.1028504 -1.1558304 -0.56966478
-3.2692709 -1.217823 -0.57040715
-3.461271 -1.2893441 -0.5724299
-3.6392641 -1.3556477 -0.56885666
-3.8893571 -1.4488088 -0.57275617
-4.1372671 -1.5411566 -0.57191384
-4.439209 -1.6536319 -0.573663
-4.7589631 -1.7727422 -0.57219958
-5.1736584 -1.9272187 -0.57563579
-5.6245737 -2.0951872 -0.57542187
-6.1829925 -2.3032017 -0.57725281
-6.84513 -2.5498519 -0.57793999
-7.6788664 -2.8604236 -0.57984644
-8.7308817 -3.2523057 -0.58150846
-10.119762 -3.7696719 -0.58395594
-12.046826 -4.487515 -0.58804649
-14.872269 -5.540009 -0.59383523
-19.422056 -7.2348323 -0.60305852
-27.981649 -10.423331 -0.620511
-50.024387 -18.634384 -0.66553241
-15.677426 -5.8399353 -0.069521792
-15.751492 -5.8675246 0.069850229
-17.746622 -6.6107225 0.23610388
-17.858294 -6.6523213 0.39601913
-17.927492 -6.6780977 0.55665201
-17.96542 -6.6922259 0.71734172
-17.949995 -6.68648 0.87620008
-17.8995 -6.6676702 1.0328819
-17.755423 -6.6140008 1.1825756
-17.574108 -6.5464606 1.3270558
-17.339867 -6.4592037 1.4640193
-16.389399 -6.1051493 1.5301373
-15.586882 -5.8062067 1.5946156
-20.791592 -7.7449923 2.3133311
-19.945503 -7.4298191 2.3981714
-1.9660277 -0.76001352 -0.56478655
-2.0351334 -0.78672791 -0.56524551
-2.109261 -0.81538367 -0.56582081
-2.2021632 -0.8512972 -0.56993437
-2.2740853 -0.87910032 -0.56714678
-2.3718405 -0.91688985 -0.56929111
-2.4682198 -0.95414746 -0.56937128
-2.5770197 -0.99620664 -0.57048619
-2.6889298 -1.0394681 -0.57032132
-2.8113539 -1.086794 -0.57029867
-2.9391334 -1.1361901 -0.56913477
-3.0918858 -1.19524 -0.57030696
-3.2547934 -1.2582158 -0.57053751
-3.4334593 -1.3272831 -0.57048643
-3.6408136 -1.4074408 -0.57176083
-3.8686714 -1.4955245 -0.57237482
-4.1137257 -1.5902559 -0.57131958
-4.4246626 -1.7104558 -0.57445771
-4.7532573 -1.8374816 -0.5741868
-5.138649 -1.9864637 -0.57441485
-5.5868344 -2.1597202 -0.57423449
-6.1405911 -2.3737876 -0.57597578
-6.8048768 -2.6305826 -0.57722878
-7.6303582 -2.9496918 -0.57887864
-8.6932259 -3.3605676 -0.58170867
-10.085145 -3.8986461 -0.5846805
-11.994664 -4.6368155 -0.58823895
-14.810231 -5.7252374 -0.5941242
-19.331018 -7.4728522 -0.60303932
-27.839811 -10.762124 -0.62025338
-49.751808 -19.232714 -0.66500205
-15.878261 -6.1381092 -0.07074175
-15.64117 -6.0464563 0.069685444
-15.791044 -6.1043935 0.21106924
-16.246782 -6.28057 0.36196807
-17.264263 -6.6739006 0.53856605
-17.289867 -6.6837983 0.69359678
-17.282188 -6.6808305 0.84754825
-17.253571 -6.6697669 1.0002658
-17.161999 -6.6343675 1.148398
-17.000805 -6.5720549 1.2897694
-16.171099 -6.2513123 1.3717256
-15.670197 -6.0576773 1.4698348
-15.560459 -6.0152559 1.5993587
-21.002413 -8.118969 2.347718
-20.135183 -7.783721 2.4323018
-1.9823009 -0.79445601 -0.5722245
-2.0328968 -0.81473362 -0.56736398
-2.103425 -0.84299952 -0.56699312
-2.1900277 -0.87770772 -0.56954384
-2.2707524 -0.91006017 -0.56906343
-2.3628273 -0.9469614 -0.56987959
-2.468756 -0.98941499 -0.57225823
-2.5544949 -1.0237769 -0.56824362
-2.6723261 -1.0710007 -0.56954986
-2.793941 -1.119741 -0.56951642
-2.9359624 -1.1766595 -0.57127935
-3.0681691 -1.2296445 -0.56867832
-3.2373652 -1.2974541 -0.57023597
-3.4235845 -1.3720859 -0.5716058
-3.6278667 -1.4539572 -0.57249206
-3.8271427 -1.5338219 -0.56897801
-4.0998926 -1.6431332 -0.5721612
-4.386055 -1.7578199 -0.57220829
-4.7099223 -1.8876176 -0.57171261
-5.1227269 -2.0530593 -0.57541358
-5.5795546 -2.2361443 -0.57626885
-6.110621 -2.4489822 -0.57594573
-6.7750058 -2.715251 -0.57748348
-7.6009007 -3.0462487 -0.57944179
-8.6554222 -3.4688742 -0.58198935
-10.030042 -4.0197868 -0.58430737
-11.934685 -4.7831197 -0.58813739
-14.716648 -5.8980598 -0.5932346
-19.230371 -7.7070465 -0.60281044
-27.70779 -11.104581 -0.62030733
-49.462605 -19.82336 -0.66434437
-15.631669 -6.2647777 0.20995279
-15.681805 -6.2848706 0.35107595
-15.811179 -6.3367205 0.49562973
-15.952947 -6.393537 0.64307034
-16.053413 -6.4338017 0.79110694
-16.034575 -6.4262519 0.93410587
-15.917306 -6.3792534 1.0702773
-15.747194 -6.3110771 1.2004607
-15.616149 -6.2585573 1.331079
-15.569167 -6.239728 1.4674442
-21.203562 -8.4978514 2.3817036
-20.32156 -8.1443672 2.4667273
-1.9560637 -0.81199515 -0.56749004
-2.0271456 -0.84150243 -0.56860375
-2.0889597 -0.86716253 -0.56592542
-2.1687825 -0.90029824 -0.56685483
-2.2526708 -0.93512172 -0.56737077
-2.346956 -0.97426116 -0.56889808
-2.4408476 -1.0132371 -0.56863415
-2.546454 -1.0570761 -0.56930339
-2.6626914 -1.1053282 -0.57035005
-2.7830746 -1.1553013 -0.57015407
-2.9225125 -1.2131844 -0.57152176
-3.0560236 -1.268607 -0.56927544
-3.2239702 -1.3383245 -0.57073212
-3.3909283 -1.4076316 -0.56900036
-3.5993454 -1.4941492 -0.57084739
-3.8191357 -1.5853878 -0.57064277
-4.0860157 -1.6961741 -0.57309198
-4.36696 -1.812799 -0.57258195
-4.7070169 -1.9539622 -0.57423306
-5.0766544 -2.1074052 -0.57310593
-5.537478 -2.2987008 -0.574799
-6.0853648 -2.5261378 -0.57644945
-6.7576928 -2.8052328 -0.57890421
-7.5630541 -3.1395516 -0.57945585
-8.587429 -3.5647871 -0.58032101
-9.974021 -4.1403847 -0.5839656
-11.867657 -4.926465 -0.58777511
-14.656195 -6.0840344 -0.59376854
-19.126112 -7.9395723 -0.602557
-27.542282 -11.433267 -0.61970264
-49.179028 -20.415047 -0.6638571
-15.624873 -6.4861493 0.49225256
-15.605009 -6.4779034 0.63220805
-15.593687 -6.4732032 0.77231598
-15.588132 -6.4708972 0.91266441
-15.581686 -6.4682217 1.0529788
-21.417704 -8.890851 2.4178545
-20.518856 -8.517725 2.5032003
-1.9528321 -0.83894897 -0.56950235
-2.0107396 -0.86382639 -0.56693852
-2.0786622 -0.89300632 -0.5660677
-2.170054 -0.93226886 -0.57014036
-2.243649 -0.96388578 -0.56804079
-2.3417771 -1.0060421 -0.57059819
-2.428134 -1.0431416 -0.56861752
-2.5241334 -1.0843836 -0.56725144
-2.6423168 -1.1351559 -0.56893271
-2.7680998 -1.1891931 -0.57003886
-2.9054866 -1.2482153 -0.57115054
-3.0506625 -1.3105838 -0.5712356
-3.1985772 -1.3741289 -0.56918502
-3.3835733 -1.4536045 -0.5707224
-3.5816305 -1.538691 -0.57099545
-3.8084428 -1.6361309 -0.57200783
-4.0537319 -1.7415087 -0.57152426
-4.3480797 -1.8679624 -0.57307476
-4.6658664 -2.0044856 -0.57217664
-5.0532384 -2.170903 -0.57343262
-5.5091701 -2.3667741 -0.57483804
-6.0466146 -2.5976636 -0.57576096
-6.7011013 -2.8788352 -0.57704514
-7.5148687 -3.228435 -0.57876182
-8.5612469 -3.6779654 -0.58156395
-9.926281 -4.2643929 -0.58419645
-11.822197 -5.0788903 -0.5885722
-14.557644 -6.2540555 -0.59284669
-19.019344 -8.1708298 -0.60231316
-27.390781 -11.767252 -0.61950266
-48.880165 -20.999226 -0.66325825
-24.395655 -10.480527 2.5454926
-21.651049 -9.3014269 2.456923
-20.715067 -8.8993235 2.5402949
-1.9301184 -0.8574543 -0.5659104
-1.9942081 -0.88592613 -0.56530625
-2.0771122 -0.9227562 -0.56869256
-2.1374726 -0.94957137 -0.5646053
-2.2284899 -0.99000567 -0.56724203
-2.3228734 -1.0319355 -0.56904089
-2.4187121 -1.0745119 -0.56946224
-2.5075104 -1.1139604 -0.56655121
-2.6153059 -1.1618485 -0.56615019
-2.7518137 -1.2224921 -0.56973761
-2.8844845 -1.2814311 -0.57007641
-3.0194402 -1.341385 -0.56843477
-3.1921999 -1.4181334 -0.57111013
-3.3637469 -1.4943432 -0.57043445
-3.5674405 -1.584834 -0.57179683
-3.782886 -1.6805456 -0.57122993
-4.0287523 -1.7897717 -0.57106215
-4.3198905 -1.9191095 -0.57242638
-4.6460152 -2.0639901 -0.57281125
-5.0252199 -2.2324519 -0.57332492
-5.4842348 -2.4363689 -0.57531875
-6.0220146 -2.6752775 -0.57650745
-6.6738496 -2.964855 -0.57779419
-7.4708781 -3.3189344 -0.57847321
-8.5076075 -3.779501 -0.58103335
-9.8712044 -4.3852787 -0.58408445
-11.742778 -5.2167239 -0.58776748
-14.487186 -6.4359264 -0.59315538
-18.917881 -8.4042606 -0.60232711
-27.23649 -12.099799 -0.6193313
-48.563183 -21.574173 -0.6625067
-21.874033 -9.7175303 2.4955978
-20.922888 -9.2949848 2.5796013
-1.931573 -0.8866958 -0.56949067
-2.0016499 -0.91886479 -0.57057554
-2.0722153 -0.95125818 -0.57051128
-2.1500554 -0.98699093 -0.57109159
-2.2091784 -1.0141317 -0.56545794
-2.3116744 -1.0611827 -0.56945103
-2.4049046 -1.1039804 -0.56936449
-2.5072522 -1.1509634 -0.56964749
-2.6177876 -1.2017051 -0.56984311
-2.7360368 -1.2559879 -0.56962568
-2.8719287 -1.3183695 -0.57075572
-3.0316918 -1.3917094 -0.57391959
-3.1683965 -1.4544642 -0.5700081
-3.342474 -1.5343752 -0.56998342
-3.5550134 -1.6319422 -0.57297802
-3.7681854 -1.7297995 -0.57217872
-4.0289135 -1.8494878 -0.57426524
-4.2922354 -1.9703667 -0.57192916
-4.6412454 -2.1305809 -0.57540977
-5.0056882 -2.2978797 -0.5742768
-5.4600348 -2.5064495 -0.57596976
-5.984859 -2.7473719 -0.576141
-6.6245303 -3.0410154 -0.57671815
-7.4312015 -3.4113207 -0.57860529
-8.4572744 -3.8823433 -0.58081228
-9.8002548 -4.4988437 -0.58311558
-11.675036 -5.3594689 -0.58763105
-14.410949 -6.6153998 -0.59331971
-18.804672 -8.6323547 -0.6020568
-27.06284 -12.423297 -0.61880952
-48.24234 -22.145826 -0.66179466
-22.098604 -10.144446 2.5352592
-21.112265 -9.6916637 2.6174445
-1.911026 -0.90587592 -0.56667405
-1.9895632 -0.94310457 -0.57039279
-2.0471978 -0.97042489 -0.56686604
-2.1171746 -1.0035957 -0.565593
-2.2086735 -1.0469685 -0.56858087
-2.2917428 -1.0863456 -0.56778884
-2.3894355 -1.1326544 -0.56895649
-2.4877276 -1.1792474 -0.56846303
-2.6046979 -1.2346944 -0.57025552
-2.7211366 -1.2898893 -0.56978261
-2.831192 -1.3420585 -0.56589675
-2.9959395 -1.4201531 -0.57041413
-3.1387544 -1.487851 -0.56792384
-3.3309355 -1.5789498 -0.57128346
-3.5180132 -1.6676296 -0.5702765
-3.7316544 -1.768901 -0.56989145
-3.9861262 -1.8895273 -0.57143503
-4.2655883 -2.0219996 -0.57164824
-4.5992603 -2.1801686 -0.57348484
-4.983665 -2.3623867 -0.57503945
-5.4162807 -2.5674577 -0.57464105
-5.9384894 -2.8149981 -0.57496589
-6.5976295 -3.1274476 -0.57768053
-7.3902421 -3.5031664 -0.57872641
-8.4107571 -3.9869168 -0.58094054
-9.7627935 -4.6278176 -0.58422834
-11.598743 -5.498105 -0.58714944
-14.31817 -6.7871838 -0.59289116
-18.701248 -8.8648767 -0.60219002
-26.900635 -12.751599 -0.61863917
-47.930122 -22.720121 -0.66129416
-24.720226 -11.718029 2.3934181
-24.645935 -11.682813 2.614814
-22.334312 -10.587044 2.5770411
-21.354658 -10.122662 2.6627264
-1.9069495 -0.93282962 -0.56882358
-1.972007 -0.96465409 -0.5687173
-2.0461147 -1.0009055 -0.56993097
-2.1149623 -1.034584 -0.56835759
-2.1931424 -1.0728277 -0.56793582
-2.2777646 -1.1142225 -0.56767726
-2.3631711 -1.1560012 -0.56604451
-2.4849167 -1.215556 -0.5711931
-2.5713654 -1.2578444 -0.56630141
-2.702754 -1.3221164 -0.56929463
-2.824981 -1.3819065 -0.56800878
-2.9786317 -1.4570684 -0.57048696
-3.1343403 -1.533237 -0.5704934
-3.3088355 -1.6185955 -0.57086354
-3.496021 -1.7101617 -0.57007724
-3.7164652 -1.8179972 -0.57094264
-3.9702864 -1.9421598 -0.57254457
-4.2422833 -2.0752137 -0.57190156
-4.5741386 -2.2375486 -0.57373977
-4.9381232 -2.4156003 -0.57316858
-5.4013467 -2.6421969 -0.57646006
-5.9101582 -2.8910942 -0.57562131
-6.5571094 -3.2075658 -0.57754242
-7.3390026 -3.5900474 -0.57812709
-8.3516941 -4.0854292 -0.58028704
-9.699441 -4.7447119 -0.58388448
-11.547791 -5.6488757 -0.5880419
-14.240121 -6.9658933 -0.59316128
-18.572638 -9.085247 -0.60160053
-26.715162 -13.068357 -0.61802268
-47.58704 -23.27833 -0.66046
-24.040756 -11.760107 2.3414555
-23.911068 -11.696667 2.5519147
-22.575151 -11.043171 2.6203005
-21.550068 -10.541728 2.7030513
-1.8934047 -0.95523185 -0.56824404
-1.9602472 -0.98895419 -0.56878984
-2.0352156 -1.0267762 -0.57036883
-2.1013308 -1.0601315 -0.56815457
-2.175617 -1.0976094 -0.56684971
-2.2770875 -1.1488017 -0.57098591
-2.3561366 -1.1886823 -0.56781775
-2.4624491 -1.2423176 -0.56949699
-2.5661869 -1.2946538 -0.56862396
-2.6887481 -1.3564866 -0.5698148
-2.8068414 -1.4160652 -0.56781971
-2.9601984 -1.4934345 -0.57043058
-3.1170509 -1.5725673 -0.57082289
-3.3007021 -1.6652203 -0.57294971
-3.4834559 -1.7574205 -0.57150894
-3.6947482 -1.8640184 -0.57108438
-3.9369423 -1.9862067 -0.57121497
-4.2145758 -2.1262739 -0.57164776
-4.5299158 -2.2853646 -0.57167447
-4.9206095 -2.4824715 -0.57463545
-5.3564143 -2.702337 -0.57516754
-5.8778062 -2.9653819 -0.57597828
-6.5145025 -3.2865982 -0.57730556
-7.298604 -3.6821811 -0.57846773
-8.3109913 -4.1929355 -0.58099741
-9.6266289 -4.8566809 -0.58305222
-11.463308 -5.7832947 -0.58731675
-14.138075 -7.1327276 -0.59251928
-18.439852 -9.3029947 -0.60095936
-26.543579 -13.391365 -0.61781597
-47.249645 -23.837677 -0.65979564
-23.287422 -11.748618 2.5005851
-22.827398 -11.516534 2.6658144
-21.811237 -11.003875 2.7525737
-1.8813298 -0.97834301 -0.56818765
-1.9566506 -1.0175118 -0.57133353
-2.0187912 -1.0498267 -0.56934065
-2.103225 -1.0937346 -0.57225978
-2.1721025 -1.1295528 -0.5695098
-2.2509139 -1.1705369 -0.56798911
-2.3483813 -1.2212225 -0.56952465
-2.4467614 -1.2723829 -0.56944424
-2.5427732 -1.3223116 -0.56699592
-2.6640401 -1.3853738 -0.56814575
-2.7946243 -1.4532812 -0.56892031
-2.9315457 -1.524484 -0.56847852
-3.079751 -1.601555 -0.56755579
-3.2761552 -1.7036904 -0.57228196
-3.4572747 -1.7978776 -0.57079744
-3.6812301 -1.9143405 -0.57259011
-3.9174578 -2.0371854 -0.57197928
-4.1911826 -2.1795299 -0.57206672
-4.5245361 -2.3528826 -0.57460332
-4.8914542 -2.5436902 -0.57483989
-5.3167048 -2.764832 -0.57451075
-5.8413577 -3.0376658 -0.57602328
-6.4741964 -3.3667595 -0.57735878
-7.2553825 -3.7729976 -0.57867551
-8.245822 -4.2880535 -0.58008385
-9.5624523 -4.9727373 -0.58282471
-11.39579 -5.9261231 -0.58754659
-14.041986 -7.3022175 -0.59221059
-18.330793 -9.5325146 -0.60117978
-26.350164 -13.702807 -0.61718929
-46.906414 -24.39262 -0.65914136
-22.784584 -11.848608 2.6776266
-22.04674 -11.464909 2.7998738
-1.8816363 -1.0080861 -0.57198071
-1.9254394 -1.0315536 -0.56588101
-2.0024834 -1.07283 -0.56841898
-2.0918672 -1.1207173 -0.5728758
-2.1523204 -1.153105 -0.56799781
-2.242085 -1.2011964 -0.56944537
-2.3229289 -1.2445085 -0.56702036
-2.4337749 -1.3038943 -0.57011026
-2.5337658 -1.3574643 -0.56866646
-2.6533072 -1.4215086 -0.56954151
-2.7679448 -1.4829255 -0.56715828
-2.9181697 -1.5634086 -0.56956953
-3.0775676 -1.648806 -0.57084656
-3.2472124 -1.739693 -0.57091987
-3.4285111 -1.8368238 -0.56973451
-3.6365495 -1.9482803 -0.5693236
-3.8826208 -2.0801129 -0.57058424
-4.1636257 -2.2306612 -0.57200605
