# .PCD v0.7 - Point Cloud Data file format
VERSION 0.7
FIELDS x y z
SIZE 4 4 4
TYPE F F F
COUNT 1 1 1
WIDTH 1508
HEIGHT 1
VIEWPOINT 0 0 0 1 0 0 0
POINTS 1508
DATA ascii
2.6891789 0.83554024 -0.55709416
2.8119702 0.87369204 -0.55714256
2.9468296 0.91559345 -0.55733925
3.085479 0.95867252 -0.55587429
3.2648199 1.0143945 -0.55897033
3.4314878 1.066179 -0.55688393
3.6394057 1.1307801 -0.55823261
3.8402848 1.1931942 -0.55494624
4.0935235 1.2718766 -0.55527723
4.3804879 1.3610377 -0.55548096
4.6999865 1.4603074 -0.55453289
5.0720282 1.5759023 -0.55376714
5.4988389 1.7085145 -0.55203068
6.0205131 1.8706011 -0.55156457
6.6490102 2.0658779 -0.5508756
7.4030519 2.3001623 -0.54855752
8.361763 2.5980382 -0.54650134
9.6033831 2.9838154 -0.5437879
11.289477 3.5076926 -0.54076469
13.684128 4.2517214 -0.53616858
17.348755 5.3903375 -0.52860099
23.686499 7.3595037 -0.51543337
37.370567 11.611207 -0.48787954
1.9876047 0.64446068 -0.55987203
2.050745 0.66493326 -0.55849588
2.1229408 0.68834198 -0.55840659
2.212647 0.71742827 -0.56150222
2.292196 0.74322128 -0.56053728
2.37058 0.76863647 -0.55791444
2.470602 0.80106759 -0.55882853
2.5813007 0.83696055 -0.56031215
2.6821256 0.86965191 -0.55780607
2.7991271 0.90758854 -0.55676699
2.9362009 0.95203328 -0.55750096
3.0814493 0.99912858 -0.55731952
3.2398345 1.0504835 -0.55686206
3.4245358 1.1103709 -0.55792928
3.6123712 1.1712747 -0.55625302
3.838172 1.2444882 -0.55681014
4.0829167 1.3238442 -0.55600452
4.3567948 1.4126465 -0.55463731
4.6857224 1.519298 -0.55501217
5.0580797 1.640031 -0.55440414
5.4935737 1.7812355 -0.55365914
6.0039539 1.9467211 -0.55219883
6.6229157 2.147413 -0.55085969
7.3852634 2.3945966 -0.54937971
8.3266716 2.6998386 -0.54633635
9.5742178 3.1043429 -0.54425675
11.239768 3.6443806 -0.54048926
13.635187 4.4210711 -0.53634048
17.282827 5.6037812 -0.52865183
23.621099 7.6589017 -0.5160206
37.229877 12.07141 -0.48794377
1.9641066 0.66363913 -0.55550969
2.0416045 0.6898244 -0.55827445
2.1214144 0.7167908 -0.5602811
2.2003322 0.74345583 -0.5606547
2.2787602 0.7699554 -0.55952466
2.3626268 0.79829252 -0.55831069
2.4459922 0.8264603 -0.55551869
2.5690463 0.86803818 -0.55992669
2.6725545 0.90301198 -0.5580827
2.7891977 0.94242376 -0.55705494
2.927629 0.98919743 -0.55814081
3.0560577 1.0325913 -0.55498165
3.2471323 1.0971522 -0.56039286
3.4108734 1.1524776 -0.55797005
3.6113966 1.2202311 -0.55837119
3.8223608 1.2915125 -0.55677819
4.0557585 1.3703737 -0.55455899
4.3387356 1.4659871 -0.55459124
4.6528878 1.5721339 -0.55337095
5.0212994 1.696614 -0.55261761
5.4576755 1.8440583 -0.55228478
5.9703069 2.0172679 -0.55134392
6.5891595 2.226368 -0.55028749
7.3451486 2.4818041 -0.54862434
8.2739344 2.7956257 -0.54509044
9.5501328 3.2268319 -0.545102
11.198068 3.7836418 -0.54068041
13.566602 4.5839305 -0.53581935
17.22344 5.8195152 -0.52898419
23.51211 7.9443531 -0.51573473
37.11377 12.540128 -0.48840606
1.9700797 0.69276065 -0.55956602
2.0313752 0.71431464 -0.55783695
2.1247594 0.74715233 -0.56354839
2.1722252 0.7638433 -0.55584419
2.2674177 0.79731685 -0.55910468
2.3541198 0.8278048 -0.55866355
2.4479263 0.86079109 -0.55831969
2.5559924 0.89879149 -0.55944812
2.653542 0.93309397 -0.5564664
2.7777712 0.97677797 -0.5571295
2.9104826 1.0234448 -0.55722898
3.0587597 1.075585 -0.557832
3.2117662 1.1293885 -0.55664402
3.3741069 1.1864741 -0.55430031
3.5932956 1.2635497 -0.55793262
3.8000276 1.3362452 -0.55587649
4.0451632 1.4224448 -0.55545986
4.3349757 1.5243548 -0.55646443
4.6299753 1.6280887 -0.55298507
5.009583 1.7615743 -0.55367023
5.4359069 1.9114872 -0.55241865
5.9342694 2.0867319 -0.55034393
6.5439658 2.3011262 -0.54883474
7.3128729 2.5715053 -0.54853392
8.2534304 2.9022439 -0.54604942
9.4978905 3.3398468 -0.54442304
11.162988 3.9253631 -0.54127628
13.518369 4.7536116 -0.5361824
17.151203 6.031065 -0.52900332
23.41604 8.2340384 -0.51580936
36.984131 13.005134 -0.48876759
1.9740179 0.72153878 -0.56316209
2.0164642 0.73705369 -0.556189
2.0973876 0.76663256 -0.55874658
2.1743054 0.79474747 -0.55883491
2.2632091 0.82724333 -0.56053275
2.3407066 0.85557008 -0.55793494
2.4371893 0.89083624 -0.55832702
2.5182471 0.92046428 -0.55362201
2.6542375 0.97017121 -0.55907172
2.7870069 1.0187007 -0.56145179
2.90183 1.0606707 -0.55802727
3.0463302 1.1134881 -0.55802006
3.1930268 1.1671083 -0.55584145
3.3796313 1.2353157 -0.55766112
3.5666993 1.3036922 -0.55625004
3.7875693 1.3844242 -0.55650222
4.0360222 1.4752382 -0.5566535
4.2973123 1.5707443 -0.55406719
4.613956 1.6864834 -0.55350685
4.9899244 1.8239065 -0.5539344
5.4097486 1.9773598 -0.55218953
5.9105549 2.1604135 -0.55056673
6.5328021 2.3878558 -0.55031943
7.2765083 2.6596937 -0.54821795
8.2390022 3.0115025 -0.54750341
9.4478455 3.4533563 -0.5439474
11.10827 4.0602708 -0.54100305
13.450306 4.916327 -0.53584009
17.076414 6.2417345 -0.52902383
23.342628 8.5321474 -0.51646423
36.827374 13.461063 -0.48884651
1.969805 0.74758059 -0.56454003
2.0147119 0.7646237 -0.5582568
2.0918312 0.79389197 -0.55982465
2.1575711 0.81884164 -0.55707961
2.2540274 0.85544872 -0.56082159
2.3366673 0.88681227 -0.55952913
2.4308527 0.92255753 -0.55943185
2.5171435 0.95530659 -0.55591983
2.6357694 1.0003275 -0.55773044
2.7644618 1.0491688 -0.55946672
2.8755314 1.0913221 -0.55550861
3.0227189 1.1471827 -0.55623692
3.1731665 1.2042805 -0.55492008
3.348654 1.2708815 -0.55508631
3.5493083 1.347034 -0.55607903
3.7615199 1.4275725 -0.55521202
4.010747 1.5221591 -0.55570698
4.2867379 1.6269032 -0.55524117
4.5960593 1.744297 -0.55389106
4.9664378 1.8848631 -0.55385816
5.3806167 2.0420523 -0.55173731
5.9040308 2.2406986 -0.55248374
6.5023408 2.4677691 -0.55026805
7.2504435 2.7516892 -0.5487619
8.2139683 3.1173663 -0.54834574
9.4210567 3.5754807 -0.54489511
11.059217 4.1971955 -0.54108679
13.402456 5.0865016 -0.536385
17.007732 6.4547763 -0.52931494
23.223013 8.8136005 -0.51617652
36.674175 13.918588 -0.4890478
1.9441388 0.76531738 -0.55983895
2.0160227 0.79361475 -0.56128162
2.0894151 0.82250595 -0.56184232
2.1667902 0.852965 -0.56212562
2.2247944 0.87579852 -0.5561856
2.3188534 0.91282517 -0.55790901
2.407681 0.94779247 -0.55673921
2.5181608 0.99128324 -0.55879432
2.6261368 1.0337884 -0.55833983
2.7495406 1.0823667 -0.55909824
2.8713913 1.1303338 -0.55735177
3.0091248 1.184553 -0.55637366
3.1700118 1.2478868 -0.5570097
3.3407819 1.3151112 -0.55641997
3.54057 1.3937584 -0.55735296
3.7709708 1.4844565 -0.559259
3.9732502 1.5640845 -0.55313462
4.2601047 1.6770058 -0.55442053
4.5872974 1.8058064 -0.55546916
4.9413834 1.9451938 -0.55368972
5.3636651 2.1114266 -0.55261958
5.8804469 2.3148596 -0.55289871
6.478271 2.5501952 -0.55084324
7.2137394 2.839715 -0.54858536
8.1494932 3.2080779 -0.5466336
9.3626595 3.6856453 -0.54409766
11.014471 4.335887 -0.5414651
13.345021 5.2533164 -0.53663111
16.92552 6.6627932 -0.52926612
23.143251 9.1104259 -0.51685458
36.512192 14.373158 -0.48920754
1.9373229 0.79028189 -0.56063217
1.9979123 0.81499779 -0.55898738
2.0655456 0.84258711 -0.55816764
2.1437025 0.87446928 -0.55888337
2.2356253 0.91196686 -0.56165427
2.3115063 0.94292051 -0.55888867
2.399142 0.97866935 -0.55750525
2.4982302 1.0190898 -0.55711025
2.6111472 1.0651515 -0.55789536
2.7407033 1.1180007 -0.56005436
2.8720601 1.1715842 -0.56023556
3.0082538 1.2271411 -0.55896032
3.169812 1.2930447 -0.55972612
3.3191998 1.3539836 -0.55555636
3.515377 1.4340093 -0.55612087
3.7317915 1.52229 -0.5561825
3.9756896 1.6217821 -0.55620843
4.2402921 1.7297201 -0.55456829
4.5690899 1.8638448 -0.55599761
4.9122543 2.00383 -0.55314487
5.3447814 2.1802685 -0.55339432
5.8445716 2.3841453 -0.55224025
6.4438181 2.6285927 -0.55062044
7.1861548 2.9314103 -0.5491873
8.1279116 3.3155763 -0.54787928
9.3194427 3.8016312 -0.54426163
10.943973 4.4643168 -0.54065716
13.281672 5.4179225 -0.53672212
16.851025 6.8739495 -0.5295397
23.025227 9.39256 -0.51675904
36.370396 14.836385 -0.48971507
1.9166735 0.80948728 -0.55749494
1.985401 0.83851361 -0.55832952
2.0642476 0.87181365 -0.56067145
2.1327984 0.90076536 -0.55888593
2.2155662 0.93572146 -0.55946314
2.3071012 0.97438037 -0.56067818
2.3958874 1.0118784 -0.55959803
2.4922817 1.0525894 -0.55862784
2.6124201 1.1033287 -0.56102371
2.7126329 1.1456525 -0.55715483
2.8476074 1.2026576 -0.55830818
2.9736631 1.2558959 -0.55536056
3.1337397 1.3235025 -0.55618817
3.3153601 1.4002081 -0.55775332
3.4948554 1.476016 -0.55570364
3.7071512 1.565677 -0.55533755
3.9517188 1.6689676 -0.55568397
4.2098145 1.7779716 -0.55339968
4.5253754 1.9112455 -0.55349612
4.8887086 2.0646956 -0.55331057
5.3183746 2.2461605 -0.55347812
5.8055806 2.4519269 -0.55136317
6.4230366 2.7127032 -0.55165327
7.1393943 3.0152495 -0.54840577
8.0789051 3.4120421 -0.54736269
9.2799282 3.9192817 -0.54472733
10.913231 4.6090903 -0.54189742
13.202912 5.5761132 -0.53626966
16.763725 7.0799861 -0.52949214
22.930185 9.6843262 -0.51725948
36.210186 15.292997 -0.49005285
1.9074124 0.83335823 -0.55773962
1.9738052 0.86236554 -0.55800837
2.0219069 0.88338143 -0.55207986
2.1129787 0.92317116 -0.55662489
2.1995313 0.9609865 -0.55835587
2.2919531 1.001366 -0.55994695
2.3856323 1.042295 -0.56015396
2.4799044 1.083483 -0.5587976
2.5969331 1.1346134 -0.5606516
2.7032344 1.181057 -0.55816513
2.8321354 1.2373744 -0.55821568
2.9605727 1.2934893 -0.55584425
3.1275616 1.3664477 -0.55803162
3.286561 1.4359154 -0.5558368
3.4827569 1.5216343 -0.55671293
3.6895347 1.6119766 -0.55562586
3.9338543 1.718721 -0.55610174
4.2019081 1.8358352 -0.55528593
4.5060987 1.9687376 -0.55405742
4.8724275 2.1287885 -0.55438858
5.2846031 2.3088701 -0.55287635
5.7897148 2.529556 -0.55276865
6.3777747 2.7864823 -0.55066705
7.1075311 3.1053166 -0.54884982
8.0299711 3.5083356 -0.54692882
9.2350903 4.0348577 -0.54496646
10.855528 4.7428355 -0.5418871
13.140966 5.7413554 -0.53658056
16.672102 7.2841268 -0.52938724
22.812241 9.9667845 -0.51732445
36.043488 15.747584 -0.49038044
1.8977892 0.85709459 -0.55796534
1.9713217 0.89030391 -0.56035888
2.0297232 0.91667968 -0.55724978
2.1099143 0.95289624 -0.55886215
2.1990898 0.99317032 -0.56130147
2.2772915 1.0284884 -0.55941242
2.3699574 1.070339 -0.5595215
2.4532375 1.1079506 -0.55581659
2.5720046 1.161589 -0.55831122
2.6867411 1.2134073 -0.55779827
2.7969463 1.2631791 -0.55429947
2.9505715 1.3325604 -0.55700082
3.1092181 1.4042096 -0.55779731
3.2749569 1.479062 -0.55690807
3.4490514 1.5576879 -0.55434495
3.6724999 1.6586034 -0.55608982
3.9130993 1.7672648 -0.55619764
4.1813321 1.8884063 -0.55559343
4.4909244 2.0282269 -0.55521625
4.845705 2.1884556 -0.55436808
5.2540312 2.3728671 -0.55268872
5.7511282 2.5973699 -0.55209219
6.3444963 2.8653514 -0.55079424
7.0679979 3.1921051 -0.54878664
7.9853954 3.6064274 -0.54687184
9.1896915 4.1503215 -0.54525787
10.790059 4.8730917 -0.54156923
13.083705 5.9089665 -0.53716868
16.598415 7.4963074 -0.52993435
22.689384 10.24716 -0.51735675
35.867149 16.198605 -0.49065414
1.8902646 0.88183701 -0.55889881
1.9637978 0.91614139 -0.56137997
2.0260451 0.94518077 -0.55938858
2.0988512 0.97914588 -0.55907863
2.1826303 1.0182301 -0.56025374
2.2625773 1.0555265 -0.55894393
2.3564322 1.0993112 -0.55947739
2.4530563 1.144388 -0.55892146
2.5719202 1.1998396 -0.5614531
2.6846278 1.2524195 -0.56051445
2.8135552 1.312566 -0.56074721
2.9314229 1.3675531 -0.55651844
3.0932536 1.4430497 -0.55807447
3.254194 1.5181308 -0.55650973
3.4376676 1.603724 -0.55564284
3.6572561 1.7061653 -0.5569163
3.8972716 1.8181362 -0.55708355
4.1744604 1.9474491 -0.55782008
4.4653416 2.0831494 -0.55517828
4.8070431 2.2425582 -0.55305791
5.2253103 2.4376864 -0.5527789
5.7134156 2.6653948 -0.5515765
6.3069997 2.9423108 -0.55063832
7.028111 3.2787201 -0.54877847
7.9479456 3.7078369 -0.54738814
9.1363544 4.2622476 -0.54516166
10.735438 5.0082445 -0.54187781
13.005904 6.067451 -0.53699696
16.520304 7.7069716 -0.53042603
22.59943 10.542976 -0.51822245
35.697182 16.653276 -0.49109322
1.8790922 0.90492225 -0.55884326
1.948913 0.93854612 -0.56038165
2.0160339 0.97086984 -0.55987829
2.0913253 1.0071281 -0.56033033
2.164113 1.0421809 -0.55874783
2.2554209 1.0861524 -0.56043309
2.3509347 1.1321495 -0.56143504
2.4316204 1.1710055 -0.55727601
2.5416017 1.2239697 -0.55807787
2.6515231 1.2769051 -0.55683875
2.8004055 1.3486029 -0.56138903
2.920619 1.4064946 -0.55770856
3.0778503 1.4822131 -0.55854154
3.2357173 1.5582378 -0.5565846
3.4216282 1.6477677 -0.55628324
3.6315801 1.7488751 -0.55623907
3.8547716 1.8563584 -0.5542295
4.1300383 1.9889196 -0.55511016
4.4223313 2.1296804 -0.55304492
4.783874 2.3037901 -0.55360973
5.1858406 2.4973669 -0.55181032
5.6793694 2.7350373 -0.55149472
6.2800269 3.0242984 -0.55148846
6.9954014 3.3688045 -0.54941744
7.9136271 3.8109982 -0.54821056
9.083787 4.374517 -0.54519343
10.673336 5.1400027 -0.54189241
12.944959 6.2339573 -0.53760499
16.417723 7.9063506 -0.53021383
22.465256 10.818686 -0.51815706
35.525791 17.108303 -0.49159232
1.8682936 0.92819178 -0.55898386
1.9268403 0.95727849 -0.55737746
1.9923712 0.98983508 -0.55664492
2.0779407 1.0323471 -0.560103
2.1540933 1.0701807 -0.55951619
2.2350841 1.110418 -0.55873036
2.3350108 1.1600627 -0.56099635
2.4128809 1.1987495 -0.55631745
2.520582 1.2522568 -0.55680144
2.6505985 1.3168508 -0.56000286
2.7660036 1.3741853 -0.5578379
2.9065313 1.4440013 -0.55836684
3.0463533 1.5134666 -0.55616087
3.2219641 1.6007123 -0.55756253
3.4072256 1.6927525 -0.55728358
3.5979109 1.7874874 -0.55440676
3.8380735 1.9068033 -0.5551579
4.1065235 2.0401723 -0.55527949
4.4171367 2.1944892 -0.5557279
4.7601728 2.3649137 -0.55419028
5.1686654 2.567858 -0.5533008
5.6447473 2.8043814 -0.55143964
6.2309084 3.0955937 -0.55047619
6.9534674 3.4545701 -0.54941869
7.8444333 3.8972132 -0.54669565
9.0326338 4.4875259 -0.54539394
10.606326 5.2693563 -0.54173899
12.866032 6.3920064 -0.53755075
16.339025 8.1174326 -0.53085572
22.33588 11.096745 -0.5182811
35.34491 17.559795 -0.49204004
1.8537124 0.94954258 -0.55807245
1.9274302 0.98730361 -0.56101751
1.9980861 1.0234963 -0.56171536
2.0633967 1.0569508 -0.55964363
2.155025 1.1038865 -0.56324142
2.2227018 1.1385531 -0.55909252
2.3206711 1.1887367 -0.56102067
2.4005358 1.2296464 -0.55691522
2.5059974 1.2836679 -0.55702448
2.6274021 1.3458561 -0.55855626
2.7641273 1.415892 -0.56092834
2.8928652 1.4818364 -0.55919969
3.030416 1.5522952 -0.55669397
3.1814425 1.6296568 -0.55397612
3.3928883 1.7379675 -0.55839181
3.5824797 1.8350835 -0.55546403
3.8192291 1.9563556 -0.5558697
4.0871744 2.0936074 -0.55610216
4.3784471 2.2428083 -0.55428803
4.7294164 2.4225883 -0.55403578
5.1421762 2.6340196 -0.55389047
5.6202745 2.8789201 -0.55246544
6.2063165 3.1791131 -0.55171543
6.9063258 3.5376849 -0.54908955
7.8057518 3.9984055 -0.54738498
8.9759464 4.5978241 -0.54534364
10.548965 5.403584 -0.54216194
12.792136 6.5526223 -0.53778911
16.239307 8.3183956 -0.53089905
22.204897 11.374199 -0.51844794
35.135448 17.997723 -0.49216771
1.8410655 0.97182423 -0.5578205
1.9155097 1.0111202 -0.56112432
1.9808915 1.0456327 -0.56045377
2.0535741 1.0839989 -0.56055242
2.1249275 1.1216635 -0.55893761
2.2122681 1.1677672 -0.56003767
2.3066027 1.2175626 -0.56119663
2.4071157 1.2706193 -0.562024
2.4955523 1.3173013 -0.55826098
2.6127331 1.3791564 -0.55900073
2.7400303 1.4463514 -0.55960512
2.8669949 1.5133709 -0.55775392
3.020597 1.5944513 -0.55844969
3.1888268 1.683253 -0.55882376
3.3715398 1.7796999 -0.55843776
3.5565693 1.8773694 -0.55498397
3.8017433 2.0067868 -0.55687416
4.0488071 2.1372018 -0.55441564
4.3601518 2.3015482 -0.55551273
4.7080579 2.4851937 -0.55507165
5.1099739 2.6973491 -0.55395263
5.5841179 2.9476306 -0.55243242
6.1741714 3.2590959 -0.55237865
6.8688536 3.6257906 -0.54961348
7.7640796 4.0983443 -0.54795521
8.9292307 4.7133808 -0.5459854
10.500515 5.542798 -0.54313374
12.715225 6.7118545 -0.53798479
16.130945 8.5148745 -0.53073931
22.083548 11.657014 -0.51892215
34.93885 18.44281 -0.49255329
1.8379689 0.99927628 -0.56056285
1.8982953 1.0320748 -0.55975693
1.9719832 1.0721378 -0.56162083
2.0446739 1.1116587 -0.5618118
2.1104405 1.147415 -0.55879599
2.1916342 1.1915587 -0.55848104
2.2846134 1.2421101 -0.5595203
2.3809018 1.2944608 -0.55957758
2.4790463 1.3478205 -0.55823392
2.5862801 1.4061219 -0.55699825
2.7075446 1.4720516 -0.55662525
2.8555772 1.5525348 -0.5592044
2.9991724 1.6306053 -0.55815351
3.1636999 1.7200563 -0.55808473
3.34691 1.8196651 -0.55802214
3.5511527 1.9307086 -0.55780119
3.7579448 2.0431385 -0.55409682
4.0260029 2.1888776 -0.55493665
4.3247256 2.3512888 -0.55464095
4.6671376 2.5374532 -0.55388397
5.063416 2.7529037 -0.55253339
5.5416074 3.0128891 -0.55185026
6.1209207 3.3278532 -0.55123395
6.826458 3.7114434 -0.54983133
7.7110019 4.1923566 -0.54780608
8.8533983 4.8134604 -0.54492646
10.416067 5.6630602 -0.54232657
12.625839 6.86448 -0.53773355
16.037775 8.7194986 -0.53116137
21.953857 11.935985 -0.51928425
34.735561 18.885206 -0.49292389
1.8203579 1.0188972 -0.55897057
1.8843008 1.0546875 -0.55941224
1.9452931 1.0888263 -0.55779046
2.0326586 1.1377269 -0.56231189
2.0943723 1.1722695 -0.55831599
2.1793506 1.2198339 -0.55913097
2.260474 1.2652404 -0.5573765
2.3661242 1.3243754 -0.55988955
2.4508367 1.3717909 -0.55563802
2.5769968 1.4424057 -0.55877656
2.6927333 1.5071862 -0.55734825
2.8252792 1.5813752 -0.557037
2.9741504 1.6647021 -0.55726421
3.133394 1.7538344 -0.55650091
3.3272631 1.8623474 -0.55852234
3.5168037 1.9684378 -0.55616575
3.7495902 2.0987339 -0.55662799
4.0137286 2.2465782 -0.55701047
4.286727 2.3993819 -0.55350965
4.6554084 2.6057417 -0.55625254
5.0242991 2.8122184 -0.55199659
5.5061936 3.0819461 -0.55205584
6.0827188 3.4046409 -0.55152214
6.788836 3.7998712 -0.55052286
7.6697779 4.2929554 -0.54858619
8.8124037 4.9325099 -0.54609519
10.36281 5.8003087 -0.54322618
12.55241 7.0258789 -0.53824502
15.934527 8.9189301 -0.53133392
21.810863 12.208054 -0.51941347
34.531208 19.327929 -0.4933593
1.8022798 1.0380849 -0.55729693
1.8640506 1.0736638 -0.55727774
1.9326146 1.1131556 -0.5580377
2.0005312 1.1522745 -0.5573017
2.0896895 1.2036283 -0.56097072
2.1714613 1.2507277 -0.56101024
2.2549036 1.298789 -0.55989861
2.3551233 1.3565141 -0.56119108
2.4587047 1.4161754 -0.5613274
2.5437968 1.465187 -0.55544227
2.6741853 1.5402887 -0.55738723
2.8144395 1.6210729 -0.5587877
2.9614794 1.7057656 -0.55877787
3.1170022 1.7953442 -0.55746835
3.2943292 1.8974819 -0.55686855
3.4991601 2.0154612 -0.55725271
3.7321599 2.1496654 -0.5579223
3.9798281 2.2923183 -0.55617559
4.2696228 2.4592357 -0.5551638
4.6148143 2.6580603 -0.55526549
5.0039287 2.8821843 -0.55361044
5.4625978 3.1463704 -0.5515222
6.0376625 3.4775987 -0.55127245
6.7383642 3.8811917 -0.55025852
7.6054206 4.3806028 -0.54779434
8.7493305 5.0394769 -0.5459854
10.283472 5.9231186 -0.54284418
12.465888 7.1801558 -0.53828019
15.823017 9.1138096 -0.53131241
21.670128 12.481653 -0.5196777
34.314564 19.764648 -0.49369907
1.7946984 1.0633175 -0.5589534
1.8599377 1.1019703 -0.56005681
1.9274017 1.1419412 -0.56054467
1.9912764 1.1797855 -0.55872267
2.0599246 1.220458 -0.55696702
2.1411428 1.2685779 -0.55716527
2.2328696 1.322924 -0.55842453
2.3282378 1.3794273 -0.55878419
2.4240277 1.4361807 -0.55740017
2.5392647 1.504456 -0.55844992
2.6657631 1.5794033 -0.55963749
2.7976048 1.6575165 -0.55944961
2.9343319 1.7385242 -0.55764705
3.0907295 1.8311862 -0.55675459
3.2661202 1.935101 -0.55608028
3.4659336 2.0534861 -0.55594051
3.6997309 2.1920054 -0.55706173
3.9540951 2.3427105 -0.55656314
4.250627 2.5183988 -0.55667835
4.5675626 2.706176 -0.55354214
4.9779253 2.9493065 -0.55470395
5.4353733 3.2203338 -0.55272979
6.0058975 3.5583563 -0.55232549
6.6958203 3.9671197 -0.55072629
7.549376 4.4728317 -0.5476777
8.6987925 5.1538343 -0.54674506
10.2164 6.0529823 -0.54319155
12.377344 7.333292 -0.53830981
15.715569 9.3111134 -0.53150874
21.525455 12.753337 -0.51992971
34.108688 20.208614 -0.49427491
1.7826699 1.0860236 -0.55932397
1.8417723 1.1220295 -0.55869919
1.9028689 1.1592503 -0.55751336
1.9908403 1.2128434 -0.56274235
2.053113 1.2507807 -0.55924147
2.1539791 1.3122294 -0.56466156
2.2170572 1.3506576 -0.55858141
2.3083341 1.4062644 -0.55811524
2.4164941 1.4721568 -0.55978811
2.5210392 1.5358469 -0.5585528
2.6289191 1.6015686 -0.55599499
2.7703199 1.6877117 -0.55810118
2.9167871 1.7769413 -0.55842304
3.0755606 1.873668 -0.5581302
3.239321 1.9734327 -0.55560708
3.450942 2.1023548 -0.55764031
3.6558588 2.2271924 -0.55453759
3.9155586 2.3854046 -0.55522555
4.2083707 2.5637891 -0.55523103
4.5461955 2.7695961 -0.55503792
4.9290261 3.002821 -0.55332768
5.3946319 3.2864735 -0.5526545
5.9424963 3.620239 -0.55054706
6.6357579 4.042582 -0.54983318
7.5042729 4.571692 -0.54844242
8.6409836 5.2641892 -0.54713875
10.130824 6.1718178 -0.54263562
12.301397 7.4941564 -0.53897381
15.618815 9.5151672 -0.53215343
21.397583 13.03566 -0.52067339
33.892689 20.647827 -0.49478665
1.7695025 1.1080611 -0.55942535
1.8283079 1.1448851 -0.55884308
1.888119 1.1823387 -0.55740929
1.9730841 1.2355437 -0.56197524
2.0430188 1.2793369 -0.56073463
2.118753 1.3267616 -0.55966169
2.2099667 1.3838795 -0.56103987
2.2973139 1.4385762 -0.55968541
2.3871272 1.4948173 -0.55720109
2.4981773 1.5643568 -0.55770737
2.6254611 1.6440617 -0.55949688
2.7509084 1.7226168 -0.55841565
2.8805249 1.8037826 -0.55568498
3.0532322 1.9119318 -0.55830246
3.2213411 2.0172014 -0.55673558
3.4191077 2.1410427 -0.55670834
3.653415 2.2877657 -0.55839181
3.8819516 2.4308753 -0.55465674
4.1793332 2.6170952 -0.55560374
4.5140271 2.8266804 -0.5553121
4.8952265 3.0653872 -0.55372292
5.3556819 3.353724 -0.55284715
5.9238629 3.7095184 -0.55300492
6.5869813 4.124763 -0.54995263
7.451817 4.6663222 -0.54876077
8.5646095 5.363152 -0.54643726
10.059137 6.2990241 -0.54290354
12.217297 7.6504622 -0.53937
15.506927 9.7104263 -0.53236926
21.239025 13.299862 -0.52075529
33.651096 21.072292 -0.49500501
1.7606819 1.1329113 -0.56099856
1.8271455 1.1756773 -0.56286407
1.8844409 1.2125441 -0.56068283
1.953284 1.2568413 -0.56069523
2.0178483 1.2983851 -0.55816597
2.1048481 1.3543651 -0.56034541
2.1744833 1.3991719 -0.5563575
2.2790091 1.4664292 -0.55957669
2.3739283 1.5275049 -0.55846232
2.4643245 1.5856704 -0.55446082
2.6064775 1.6771388 -0.5598039
2.7186086 1.7492895 -0.5561834
2.8588059 1.8394996 -0.55581665
3.017195 1.9414151 -0.55603606
3.1912684 2.0534227 -0.55585998
3.3955979 2.1848986 -0.55721277
3.6106429 2.3232694 -0.55617881
3.8526013 2.4789574 -0.55477655
4.1576605 2.6752481 -0.55705369
4.4765768 2.880455 -0.55502039
4.8625574 3.1288142 -0.55433762
5.3094478 3.4163659 -0.5523693
5.8580656 3.7693741 -0.55114782
6.5473824 4.2129154 -0.55093002
7.3882866 4.7539954 -0.54834574
8.4988718 5.4686017 -0.5464921
9.9977894 6.4330812 -0.5438208
12.115635 7.7958093 -0.53907317
15.389469 9.902359 -0.53247678
21.088558 13.569439 -0.52111775
33.437572 21.515417 -0.49571833
1.72702 1.1415198 -0.55470353
1.8091145 1.1957822 -0.56179667
1.8633851 1.2316538 -0.55888188
1.929585 1.2754104 -0.55835199
1.9977224 1.3204477 -0.55704808
2.0973847 1.386322 -0.56285411
2.15487 1.4243186 -0.55577838
2.2494175 1.4868124 -0.55675781
2.3640227 1.5625635 -0.5606097
2.4631128 1.6280599 -0.55865026
2.5713918 1.6996297 -0.55671495
2.7175181 1.7962157 -0.56043655
2.8444459 1.8801121 -0.55747741
2.9973245 1.9811612 -0.55682153
3.1796257 2.1016581 -0.55829126
3.3636689 2.2233062 -0.55641747
3.5880311 2.3716044 -0.55714571
3.8265276 2.5292449 -0.55545849
4.1197801 2.7230778 -0.55642259
4.4372239 2.9329011 -0.55457073
4.8258529 3.1897755 -0.55458277
5.2677431 3.4818547 -0.55244303
5.829845 3.8533907 -0.55290884
6.4921918 4.2911863 -0.55068439
7.3357315 4.8487463 -0.54882872
8.4325647 5.5737276 -0.54659414
9.9070768 6.5483451 -0.54322535
12.020449 7.9452348 -0.53914422
15.257963 10.085156 -0.53217727
20.920135 13.827719 -0.52111816
33.20496 21.947699 -0.49623328
1.7325754 1.1760548 -0.56109029
1.789014 1.2143648 -0.56014943
1.850113 1.2558383 -0.55949056
1.9124106 1.2981253 -0.55795914
1.9703436 1.3374496 -0.55395764
2.0620964 1.3997303 -0.55796093
2.1491408 1.4588152 -0.55888504
2.2444851 1.5235339 -0.56013149
2.33162 1.5826803 -0.55749863
2.4380617 1.6549319 -0.55754179
2.5597608 1.73754 -0.55878031
2.6864486 1.8235345 -0.55861121
2.8288119 1.9201691 -0.55899858
2.9764173 2.0203624 -0.55751061
3.1416082 2.1324923 -0.55617809
3.3437297 2.2696903 -0.55769372
3.5519147 2.4110043 -0.55609912
3.7996988 2.5791974 -0.5561257
4.0780916 2.768168 -0.55534744
4.4094357 2.9930811 -0.55565554
4.7818036 3.2458403 -0.55406547
5.23317 3.5522234 -0.55335623
5.7697625 3.9164572 -0.5517363
6.4327731 4.3665018 -0.55015707
7.2762041 4.9390144 -0.54887742
8.3661766 5.6788769 -0.54677594
9.8319931 6.6738591 -0.54356706
11.933685 8.1004667 -0.53967947
15.155977 10.287725 -0.53299206
20.765186 14.095201 -0.52153635
32.955078 22.369579 -0.49657217
1.7160578 1.1959264 -0.5604611
1.7781566 1.2392032 -0.5614785
1.8285735 1.274339 -0.55767334
1.8995553 1.3238065 -0.5589155
1.9679341 1.3714598 -0.5579794
2.0586963 1.4347123 -0.56177199
2.1276298 1.4827522 -0.55799031
2.2277913 1.5525551 -0.56068736
2.3225274 1.618577 -0.56004101
2.4286625 1.692543 -0.56010944
2.5367949 1.7679008 -0.55847025
2.66553 1.8576167 -0.5589689
2.7932856 1.9466501 -0.55666637
2.9497147 2.055666 -0.55720156
3.1291742 2.180732 -0.55868185
3.2974207 2.2979834 -0.55464089
3.5227258 2.4549994 -0.55621344
3.773598 2.629833 -0.55699641
4.0479412 2.8210237 -0.5559234
4.3700571 3.0455072 -0.55537039
4.7463541 3.3077502 -0.55462891
5.180697 3.6104448 -0.55246037
5.7226329 3.988122 -0.55187726
6.3928471 4.4551964 -0.55138606
7.2133684 5.0270205 -0.54875892
8.2861567 5.7746501 -0.54614562
9.7571535 6.7997923 -0.544011
11.827914 8.2429123 -0.53943914
15.026103 10.471742 -0.53291279
20.605644 14.360142 -0.52192479
32.718483 22.801619 -0.49719429
1.6936687 1.2115318 -0.55797225
1.7671849 1.26412 -0.5628798
1.8271551 1.3070185 -0.56209981
1.8920264 1.3534229 -0.56155455
1.9548497 1.3983623 -0.55910259
2.0301509 1.4522275 -0.55881327
2.1201811 1.5166287 -0.56088537
2.2077596 1.5792763 -0.56049097
2.3032026 1.6475495 -0.56022394
2.3965893 1.7143518 -0.55753207
2.5106626 1.7959517 -0.55753684
2.6368365 1.8862077 -0.55777341
2.7798316 1.9884963 -0.55881578
2.9234493 2.0912304 -0.55705541
3.0971837 2.2155077 -0.55779207
3.2751203 2.3427911 -0.55569351
3.4947293 2.4998839 -0.5566045
3.7402432 2.6755073 -0.55688709
4.0120254 2.8699212 -0.55579543
4.3388457 3.1037054 -0.55621195
4.6956601 3.3589454 -0.55348963
5.1517119 3.6851728 -0.55415982
5.681447 4.0641084 -0.552683
6.3353934 4.5318956 -0.55119538
7.1482329 5.1133437 -0.54854554
8.2354431 5.8910575 -0.54753619
9.676034 6.921555 -0.54419237
11.730469 8.3911543 -0.53965998
14.912422 10.6673 -0.53349274
20.445639 14.625375 -0.52238774
32.464272 23.22266 -0.49763301
1.6901819 1.2407342 -0.56180727
1.7502465 1.2848266 -0.56247431
1.8037088 1.3240725 -0.55985326
1.8699566 1.3727039 -0.55997169
1.9330293 1.4190044 -0.55781007
2.0143003 1.4786642 -0.55941278
2.0880656 1.532814 -0.55733341
2.1874659 1.6057822 -0.56030941
2.2833831 1.6761934 -0.5603742
2.386101 1.7515969 -0.56006038
2.4913459 1.8288554 -0.55819899
2.6216927 1.9245406 -0.5595336
2.7392514 2.0108385 -0.5555867
2.900979 2.1295602 -0.55772132
3.0719731 2.255084 -0.55820352
3.2690394 2.3997471 -0.55962616
3.4397471 2.5250609 -0.55275095
3.7160466 2.7278876 -0.55823654
3.9787648 2.9207447 -0.55612111
4.2919121 3.1506209 -0.55511987
4.6691484 3.4275436 -0.55529064
5.0977206 3.7421513 -0.55326003
5.6236939 4.1282597 -0.55196124
6.2787089 4.6090951 -0.55115294
7.0936747 5.2073479 -0.54923105
8.1505194 5.9831595 -0.54674011
9.5911121 7.0406752 -0.54424429
11.628017 8.5359335 -0.53973466
14.782823 10.851823 -0.53358978
20.27014 14.87997 -0.52253908
32.218403 23.650991 -0.49828446
1.6537535 1.2455715 -0.55474776
1.7326753 1.3050137 -0.56194198
1.7808715 1.341314 -0.55784202
1.8419647 1.387328 -0.55665576
1.9172276 1.4440144 -0.55833191
1.9925337 1.5007334 -0.55845046
2.0714829 1.5601962 -0.55798578
2.1712172 1.635314 -0.56125563
2.2592509 1.701619 -0.5595445
2.3477507 1.7682751 -0.55612046
2.4712133 1.8612645 -0.55877393
2.5846241 1.9466829 -0.55668896
2.7231512 2.0510187 -0.55739439
2.873548 2.1642942 -0.55752188
3.0448821 2.2933393 -0.55836278
3.2196751 2.4249897 -0.55623811
3.4371653 2.5887988 -0.55740935
3.6737697 2.767004 -0.55695474
3.9454036 2.9715927 -0.55652332
4.2586622 3.2075324 -0.55587864
4.6205502 3.4800987 -0.55455828
5.0484319 3.8023701 -0.55294335
5.578198 4.2013783 -0.55252475
6.2312937 4.6932759 -0.55201501
7.026495 5.2922044 -0.54902661
8.0807447 6.0862427 -0.54703856
9.514883 7.1664047 -0.54487789
11.518713 8.6756458 -0.53957206
14.657112 11.03942 -0.53391165
20.09833 15.137628 -0.52286899
31.95299 24.066303 -0.49871874
1.6517457 1.2761892 -0.55929595
1.7103186 1.3214444 -0.55991882
1.772225 1.3692752 -0.56036538
1.842899 1.4238801 -0.56218684
1.9020255 1.469563 -0.55912495
1.9731361 1.5245051 -0.55822563
2.053369 1.5864958 -0.55831921
2.1404417 1.6537707 -0.55851471
2.2416492 1.7319665 -0.56041735
2.3360257 1.8048849 -0.55855799
2.4515131 1.894114 -0.55954355
2.5678806 1.9840231 -0.55829513
2.700027 2.0861232 -0.55786955
2.851521 2.2031722 -0.5584622
3.0106292 2.3261039 -0.55728459
3.194751 2.4683623 -0.55713379
3.400264 2.6271479 -0.55662185
3.6405292 2.812784 -0.55711675
3.9051602 3.0172462 -0.55603814
4.2085028 3.2516179 -0.55450845
4.5767694 3.5361521 -0.55448055
4.9991322 3.8624823 -0.55270386
5.5268998 4.2702518 -0.55260289
6.1627674 4.7615423 -0.55108953
6.964942 5.3813272 -0.54934597
8.0100546 6.1888127 -0.5473634
9.425066 7.282094 -0.54482108
11.43591 8.8357334 -0.5407418
14.526947 11.223963 -0.53415722
19.924955 15.394629 -0.52324373
31.678059 24.475437 -0.49908727
1.6442739 1.3030144 -0.56214881
1.6985211 1.3460031 -0.56143266
1.7606722 1.395255 -0.56209475
1.8223772 1.4441535 -0.56130129
1.8884492 1.4965125 -0.5605011
1.9599619 1.5531833 -0.55985945
2.036644 1.6139505 -0.55912548
2.1134574 1.6748217 -0.55680531
2.216502 1.75648 -0.55948788
2.3258071 1.8430994 -0.56149119
2.422863 1.920012 -0.5583508
2.5374711 2.0108337 -0.55701739
2.683075 2.1262186 -0.55972666
2.8144417 2.2303207 -0.5565294
2.9794662 2.3610954 -0.55684823
3.1647675 2.5079386 -0.55724084
3.3617115 2.6640079 -0.55563122
3.5913682 2.8460007 -0.55490708
3.8673391 3.0646956 -0.55597675
4.1696863 3.3042922 -0.55470562
4.5353556 3.594069 -0.55477548
4.9579206 3.9289331 -0.55344707
5.484973 4.3465986 -0.5537129
6.1106772 4.842442 -0.55171448
6.8993258 5.467411 -0.54943168
7.9348078 6.2879848 -0.54746372
9.3323793 7.3954988 -0.54467887
11.325606 8.9750433 -0.54070365
14.39128 11.404454 -0.53428477
19.754396 15.654487 -0.52378017
31.416725 24.896368 -0.49975535
1.6285046 1.323439 -0.56227875
1.6755298 1.361655 -0.55932522
1.7332405 1.4085548 -0.55882442
1.8102705 1.4711549 -0.56310165
1.8746464 1.5234714 -0.56192201
1.9412959 1.5776355 -0.56002659
2.0210512 1.6424503 -0.56034696
2.1144857 1.718382 -0.56260049
2.2029908 1.7903074 -0.5615918
2.2864265 1.8581132 -0.55745786
2.401871 1.9519317 -0.55900216
2.5209727 2.0487223 -0.55888355
2.6572068 2.1594357 -0.55982727
2.799228 2.2748523 -0.55901009
2.9480789 2.3958192 -0.55644596
3.1273582 2.5415142 -0.55611455
3.3441887 2.7177262 -0.55821633
3.5704582 2.9016089 -0.55714703
3.8350203 3.116611 -0.55679786
4.1459103 3.3692622 -0.55701202
4.5013857 3.6581471 -0.55608052
4.9226313 4.0004816 -0.55495703
5.4208312 4.405354 -0.55266452
6.0455437 4.9130402 -0.55124658
6.8265581 5.5477481 -0.54902786
7.8428802 6.3736839 -0.54648721
9.2454443 7.5135074 -0.54495597
11.219094 9.1174364 -0.54093015
14.260471 11.589076 -0.53467858
19.567284 15.901771 -0.52396393
31.144777 25.310467 -0.50034243
1.6169997 1.3474376 -0.56398451
1.6656681 1.3879929 -0.56168818
1.7084661 1.4236561 -0.55643892
1.7832475 1.485971 -0.56033725
1.8564153 1.5469414 -0.56211656
1.9109591 1.5923926 -0.55688161
1.9982827 1.6651589 -0.5596689
2.0860603 1.7383034 -0.56068218
2.1737428 1.8113687 -0.55977154
2.2780552 1.8982917 -0.56106555
2.3737803 1.9780589 -0.55808312
2.493098 2.0774858 -0.55832505
2.6158898 2.1798077 -0.55672759
2.7725496 2.3103514 -0.55931342
2.929014 2.4407325 -0.55847013
3.0997446 2.5830014 -0.55681008
3.2965641 2.7470102 -0.55586308
3.5252442 2.9375682 -0.55568624
3.7816997 3.1512711 -0.55464035
4.0865159 3.405273 -0.55461609
4.4470844 3.7057331 -0.5549596
4.8608813 4.0505476 -0.55356878
5.3618903 4.4680362 -0.55221498
5.9914298 4.9926281 -0.5518685
6.7717843 5.6428933 -0.5501616
7.7870955 6.4889469 -0.54811859
9.1605873 7.6334705 -0.54544568
11.116064 9.2629595 -0.54141343
14.132114 11.776219 -0.53525484
19.381264 16.150309 -0.52426094
30.8678 25.721979 -0.50093609
1.5795074 1.349445 -0.5566532
1.6373264 1.3988425 -0.5578891
1.7002385 1.4525911 -0.55953437
1.7617707 1.5051609 -0.55936217
1.8287183 1.5623573 -0.55950493
1.9059286 1.6283215 -0.56120813
1.974256 1.6866968 -0.55870628
2.0613704 1.7611225 -0.55982435
2.153023 1.8394256 -0.56021816
2.2551095 1.9266427 -0.56120664
2.34447 2.0029874 -0.55694056
2.4723155 2.1122117 -0.55944508
2.6031351 2.2239769 -0.55979091
2.7371111 2.3384385 -0.5579229
2.8956842 2.4739149 -0.55787319
3.0814767 2.6326458 -0.55930144
3.2666769 2.7908707 -0.55656809
3.4939005 2.9849982 -0.55648929
3.7428012 3.1976454 -0.5546602
4.0614672 3.4698963 -0.55696517
4.3953667 3.7551618 -0.55422604
4.8109112 4.1101804 -0.55359197
5.3132167 4.5393224 -0.5529089
5.9259734 5.0628285 -0.55153191
6.7061005 5.7293267 -0.55050719
7.7086163 6.5858216 -0.5482533
9.063611 7.7434549 -0.54529971
11.002201 9.3996811 -0.54145622
13.981045 11.944643 -0.53505558
19.202587 16.405643 -0.52484488
30.579351 26.12533 -0.50143045
1.5688194 1.3740396 -0.55879873
1.6266648 1.424703 -0.56018323
1.6913484 1.4813558 -0.56256074
1.7442092 1.5276536 -0.55970818
1.8055468 1.5813756 -0.55832261
1.8919318 1.6570354 -0.56304377
1.9641289 1.7202687 -0.56178415
2.047678 1.7934446 -0.56205243
2.1259465 1.8619955 -0.55908805
2.2224576 1.9465241 -0.55899525
2.3253574 2.0366483 -0.55830729
2.4457037 2.1420527 -0.55934119
2.5804961 2.2601097 -0.56085646
2.7078395 2.3716426 -0.55785859
2.862071 2.5067251 -0.55729371
3.042516 2.6647666 -0.55813503
3.2335763 2.8321054 -0.5568198
3.4606228 3.0309625 -0.55708307
3.7102332 3.2495821 -0.55571342
4.0140085 3.5156417 -0.55634326
4.3458023 3.806241 -0.55383605
4.7601442 4.1691394 -0.55360746
5.2632833 4.6098104 -0.55356961
5.8603964 5.1327877 -0.55126113
6.6276164 5.8047519 -0.54988229
7.6269045 6.6799712 -0.54824233
8.9683876 7.8549004 -0.5453406
10.896146 9.543314 -0.54197109
13.845961 12.126889 -0.53555214
18.999739 16.640791 -0.52485371
30.294884 26.533564 -0.502078
1.5524943 1.3938429 -0.55904651
1.6107515 1.4461468 -0.56078452
1.6567776 1.4874694 -0.55710369
1.7246879 1.5484399 -0.5595116
1.7975364 1.6138439 -0.5619396
1.8618606 1.6715947 -0.56016934
1.9408484 1.7425107 -0.56121153
2.0154965 1.8095304 -0.55928433
2.1119618 1.8961377 -0.56149954
2.1994805 1.9747128 -0.55928111
2.300684 2.0655742 -0.55843937
2.4144018 2.167671 -0.55823618
2.5468376 2.2865732 -0.55960971
2.6827512 2.4085975 -0.55874932
2.8409438 2.5506241 -0.55924463
3.0163476 2.7081034 -0.55940109
3.2089581 2.8810308 -0.55863875
3.409802 3.0613501 -0.5549199
3.6804175 3.3043113 -0.55729127
3.9768839 3.5704813 -0.55724078
4.3021483 3.8625064 -0.55428368
4.7090697 4.2278442 -0.55367184
5.1934538 4.6627283 -0.55221379
5.8031273 5.2100983 -0.55185872
6.563952 5.8931732 -0.55057085
7.5450206 6.7739854 -0.54830241
8.8700962 7.9636497 -0.54527706
10.776445 9.6751871 -0.54189378
13.702631 12.302342 -0.53581899
18.821667 16.898258 -0.52563488
29.990528 26.925758 -0.50248307
1.5362495 1.4137564 -0.55941457
1.5989841 1.471489 -0.56294465
1.6488063 1.5173385 -0.56065476
1.7110417 1.5746115 -0.56132352
1.7753022 1.6337482 -0.56122667
1.8461224 1.6989216 -0.5616771
1.9085571 1.7563779 -0.55807704
1.985374 1.8270699 -0.55711776
2.0773442 1.9117068 -0.55850345
2.1834512 2.0093532 -0.56144547
2.2815182 2.0996008 -0.56001163
2.3889937 2.1985068 -0.55856985
2.5237753 2.3225417 -0.5607751
2.6505141 2.4391751 -0.55823982
2.8141453 2.5897591 -0.56019568
2.9753253 2.7380874 -0.55799514
3.1717408 2.9188414 -0.5583657
3.3799515 3.1104505 -0.55624437
3.630161 3.3407097 -0.55585957
3.9138796 3.6018059 -0.55457652
4.2533374 3.914197 -0.55415416
4.6696467 4.2973118 -0.55520755
5.1378241 4.728159 -0.55243891
5.7434225 5.28547 -0.55231982
6.4943709 5.976541 -0.55085713
7.462985 6.8679228 -0.54843646
8.7843809 8.0839567 -0.54607731
10.65686 9.8071346 -0.54190356
13.557673 12.476649 -0.53610927
18.636089 17.150139 -0.52630192
29.703209 27.33482 -0.50326276
1.5251875 1.4386102 -0.56178552
1.5705814 1.4814274 -0.5593161
1.6262045 1.5338929 -0.5593406
1.6930878 1.5969796 -0.56183326
1.7421972 1.6433012 -0.55710703
1.8136033 1.710654 -0.55814093
1.886593 1.7795005 -0.55801076
1.9805754 1.8681481 -0.56217486
2.0535226 1.9369543 -0.55846018
2.1530921 2.0308716 -0.56001806
2.2452035 2.1177545 -0.55744773
2.3643537 2.2301409 -0.55917817
2.4809864 2.340153 -0.55761921
2.6289794 2.4797451 -0.56008404
2.7715502 2.614223 -0.5580734
2.9373066 2.7705703 -0.55721211
3.1290383 2.9514184 -0.55719507
3.3399725 3.1503787 -0.55599821
3.5995584 3.3952293 -0.5575242
3.8681169 3.6485431 -0.5544073
4.2063489 3.9675756 -0.55434656
4.6198921 4.3576441 -0.55562085
5.0856028 4.7969184 -0.55312437
5.6744413 5.3523312 -0.55197358
6.4133143 6.0492625 -0.55024964
7.3742375 6.9556389 -0.54815859
8.6959429 8.2023172 -0.54680812
10.546718 9.9480324 -0.54248202
13.407739 12.646647 -0.53628922
18.412989 17.367775 -0.52599275
29.405077 27.735897 -0.50395185
1.5061066 1.4560199 -0.56130958
1.5585929 1.5067607 -0.56160247
1.6103088 1.5567566 -0.56041503
1.6579287 1.602793 -0.55666411
1.7291709 1.6716659 -0.55947238
1.8011713 1.7412719 -0.560862
1.8730974 1.810806 -0.56056261
1.9427265 1.8781195 -0.5579446
2.0268011 1.9593983 -0.55770344
2.1218958 2.0513306 -0.55842251
2.2207801 2.1469262 -0.5578962
2.3360202 2.2583339 -0.55900258
2.4503071 2.3688202 -0.55722845
2.592432 2.5062184 -0.55882108
2.7405546 2.649415 -0.55834985
2.9072602 2.8105769 -0.55802619
3.096314 2.9933436 -0.55787998
3.3092089 3.1991584 -0.55738348
3.5627844 3.4443011 -0.55834609
3.8398681 3.7121701 -0.55685878
4.1589026 4.0205951 -0.55456728
4.5566883 4.4051518 -0.55449218
5.0200629 4.8531165 -0.55244482
5.607522 5.4210391 -0.55190665
6.3565383 6.1451464 -0.5518198
7.3042769 7.0613675 -0.549371
8.5955954 8.309741 -0.54688203
10.424097 10.077435 -0.54250771
13.268945 12.827675 -0.5370062
18.214636 17.608894 -0.52647215
29.09012 28.122705 -0.50444251
1.483216 1.4695987 -0.55947101
1.5381393 1.5240177 -0.56094259
1.5875802 1.5730047 -0.55919433
1.6450262 1.6299233 -0.55901909
1.7121334 1.6964145 -0.56066674
1.7733009 1.7570204 -0.55886883
1.8502188 1.833232 -0.56041956
1.9253805 1.9077036 -0.55965763
2.0153923 1.9968891 -0.56127822
2.1017649 2.0824687 -0.55982137
2.2068908 2.1866295 -0.56111926
2.3048704 2.2837095 -0.55822617
2.4268403 2.4045596 -0.55857366
2.5630126 2.5394816 -0.5591684
2.702728 2.6779146 -0.55730993
2.8764071 2.849999 -0.5587886
3.0669978 3.0388398 -0.55928826
3.2766447 3.246562 -0.55858046
3.5031238 3.4709618 -0.55564302
3.7972882 3.7624257 -0.55735099
4.1241517 4.086288 -0.55659151
4.5035849 4.4622378 -0.55466521
4.956861 4.9113526 -0.55209392
5.5439482 5.4930496 -0.55225575
6.2644134 6.2069001 -0.5504064
7.2082906 7.1421118 -0.54871553
8.491559 8.4135981 -0.54680389
10.313542 10.218855 -0.54325253
13.116241 12.995822 -0.53725296
18.023645 17.858171 -0.52725899
28.787701 28.523403 -0.50524217
1.4589403 1.481536 -0.55714381
1.5169815 1.5404762 -0.56009227
1.5656856 1.5899347 -0.55832648
1.6293421 1.654577 -0.56056076
1.6901357 1.7163123 -0.56033194
1.7589256 1.7861675 -0.56121784
1.8301184 1.8584629 -0.56121075
1.8960254 1.9253907 -0.55796456
1.9891504 2.019958 -0.56084496
2.074888 2.1070235 -0.55952126
2.167608 2.2011795 -0.557971
2.2798955 2.3152061 -0.55903012
2.3971276 2.4342539 -0.55858207
2.5262029 2.5653281 -0.5579775
2.6815212 2.723052 -0.55979919
2.8322637 2.8761292 -0.55704135
3.0137594 3.0604358 -0.55640036
3.2405355 3.2907243 -0.55928063
3.4795761 3.5334671 -0.55875742
3.7391686 3.7970803 -0.55563152
4.0602903 4.1231751 -0.55477339
4.450892 4.5198264 -0.55497855
4.9163408 4.9924841 -0.55437648
5.4870915 5.5720744 -0.55337542
6.1975079 6.2934937 -0.55128574
7.1270614 7.2374439 -0.54926515
8.379776 8.5095606 -0.54630244
10.183998 10.341725 -0.54308623
12.95457 13.155208 -0.53721607
17.81163 18.087494 -0.52752328
28.463924 28.904768 -0.50575942
1.4536574 1.5129381 -0.56218827
1.5024341 1.563704 -0.56177801
1.5593499 1.6229409 -0.56314111
1.6093382 1.6749676 -0.56072211
1.6672038 1.735193 -0.55976075
1.7393707 1.810303 -0.5620386
1.8149862 1.8890021 -0.56365073
1.8774254 1.9539876 -0.55951935
1.9576347 2.037468 -0.5589807
2.0426829 2.1259842 -0.55784404
2.1488743 2.2365062 -0.56018555
2.2542181 2.3461461 -0.55976558
2.3720021 2.4687335 -0.55975872
2.5017908 2.6038148 -0.55961508
2.641295 2.7490079 -0.55841607
2.8052499 2.9196491 -0.55874711
2.9850998 3.1068332 -0.55812007
3.1919134 3.3220809 -0.55789703
3.4212887 3.5608101 -0.55638659
3.6996906 3.8505657 -0.55675894
4.0157933 4.1795592 -0.55567372
4.4087396 4.5885296 -0.55671579
4.8555655 5.0535779 -0.5544886
5.4197793 5.6408005 -0.55354029
6.1245561 6.3743181 -0.55172706
7.0416517 7.3288136 -0.54958653
8.2816362 8.6193647 -0.54677278
10.060653 10.47093 -0.54333371
12.800011 13.322001 -0.53755921
17.599468 18.317181 -0.52787054
28.153862 29.301989 -0.50661391
1.4419659 1.5381866 -0.56493896
1.4813054 1.5801511 -0.56110054
1.531103 1.6332717 -0.56015062
1.5838181 1.6895043 -0.55902654
1.6440828 1.7537905 -0.55919623
1.7120392 1.8262815 -0.56042111
1.7870486 1.9062961 -0.56221169
1.857102 1.9810243 -0.56067985
1.9522376 2.0825081 -0.56470889
2.0182416 2.1529164 -0.55835676
2.1118064 2.2527246 -0.55770141
2.2296748 2.3784585 -0.56089109
2.3347509 2.490546 -0.55815279
2.4612598 2.6254966 -0.55772829
2.6045506 2.7783492 -0.55782831
2.7692668 2.9540565 -0.5587728
2.9404714 3.1366856 -0.55694532
3.1435864 3.3533542 -0.55661529
3.385108 3.6109922 -0.55768156
3.6586792 3.9028184 -0.55776709
3.9696057 4.2344928 -0.55644548
4.3419032 4.6316333 -0.55542576
4.7799225 5.0988812 -0.5529685
5.3463788 5.7031364 -0.5531643
6.0352464 6.4379711 -0.55077147
6.9456387 7.4091129 -0.54916203
8.1728792 8.7182455 -0.54662889
9.9381561 10.601317 -0.54371721
12.65162 13.495848 -0.53825599
17.388441 18.54875 -0.52834219
27.81885 29.675169 -0.5071134
1.4076518 1.53908 -0.55886757
1.4597518 1.5960444 -0.56032795
1.524826 1.6671944 -0.56531155
1.5662581 1.7124949 -0.56021875
1.6271966 1.7791229 -0.56085128
1.6878642 1.8454549 -0.55989349
1.7505739 1.9140197 -0.55809885
1.8421379 2.0141327 -0.56359679
1.9032288 2.0809274 -0.55789196
2.0021536 2.1890886 -0.56131059
2.0904338 2.2856112 -0.55943704
2.1922991 2.3969874 -0.5588612
2.3033996 2.518461 -0.55801898
2.4352937 2.6626697 -0.55922133
2.5709991 2.8110456 -0.55800343
2.7379355 2.9935682 -0.55983603
2.9149163 3.187073 -0.5594855
3.1074586 3.3975925 -0.55757362
3.335288 3.6466937 -0.55681926
3.607625 3.944458 -0.55733603
3.9143562 4.2798281 -0.55603588
4.2845397 4.6845741 -0.5554145
4.7330575 5.1749687 -0.55486649
5.2716475 5.7638454 -0.55272353
5.958621 6.5149593 -0.55104792
6.8605399 7.5010877 -0.54968482
8.0853796 8.8402863 -0.5480057
9.8077459 10.723466 -0.54375547
12.489376 13.655471 -0.5384565
17.17642 18.78013 -0.52887678
27.490944 30.05769 -0.50783515
1.3931667 1.5613652 -0.56069684
1.4385905 1.6122732 -0.55977279
1.4917208 1.671818 -0.56061721
1.5328926 1.7179605 -0.55579847
1.6075894 1.8016756 -0.56168669
1.6721795 1.8740636 -0.56229234
1.7292117 1.9379815 -0.55884349
1.8048995 2.0228071 -0.55977142
1.8825889 2.1098762 -0.55940449
1.9679689 2.205564 -0.55928785
2.0682435 2.3179448 -0.56108385
2.1597822 2.4205353 -0.55811727
2.2744541 2.5490515 -0.55855793
2.3938105 2.6828182 -0.55722874
2.5460083 2.8533909 -0.56015229
2.6892385 3.0139134 -0.55741453
2.8702989 3.2168334 -0.55847174
3.0635254 3.4333885 -0.55722386
3.2913032 3.6886661 -0.5570063
3.5438216 3.9716711 -0.55498201
3.8548508 4.3202515 -0.55508739
4.2236257 4.7335491 -0.55502152
4.6632009 5.2261944 -0.55416888
5.2074351 5.8361349 -0.55347341
5.8865604 6.5972519 -0.55184424
6.7664537 7.5833755 -0.54957616
7.9692621 8.9314003 -0.5475378
9.6786699 10.847187 -0.54395306
12.321481 13.809068 -0.53849804
16.967722 19.016254 -0.52961069
27.149483 30.427271 -0.5084005
1.3813975 1.5870324 -0.56377155
1.426062 1.6383457 -0.56269425
1.4707098 1.6896398 -0.56048679
1.5274296 1.7548029 -0.56159902
1.574808 1.8092341 -0.55796391
1.6472532 1.8924634 -0.56169307
1.7062738 1.9602699 -0.55917817
1.7745817 2.0387461 -0.55810148
1.8559384 2.1322136 -0.5592339
1.9501696 2.2404721 -0.56201643
2.0366232 2.3397951 -0.56026864
2.1315963 2.4489062 -0.55857307
2.2477562 2.5823574 -0.55975729
2.3669977 2.7193491 -0.55872875
2.5016289 2.8740215 -0.55812132
2.6592357 3.0550897 -0.55894011
2.835077 3.257107 -0.55936903
3.0286322 3.4794748 -0.55861712
3.2498732 3.7336497 -0.55772245
3.51752 4.0411386 -0.55860281
3.8019586 4.3679185 -0.55516315
4.1683946 4.7889023 -0.55545986
4.6007872 5.2856607 -0.55443376
5.1337605 5.8979726 -0.55330932
5.8114977 6.6765981 -0.5524621
6.6785083 7.6726718 -0.55005449
7.8524022 9.0213118 -0.54708904
9.5518017 10.973683 -0.54436541
12.169304 13.980827 -0.53931987
16.737343 19.228867 -0.52976
26.818665 30.810896 -0.50926179
1.3570359 1.5983104 -0.56180763
1.3920878 1.6395944 -0.5572018
1.4512893 1.7093215 -0.5610534
1.5075166 1.7755458 -0.56226242
1.5608637 1.838378 -0.56099027
1.6139096 1.9008549 -0.55825132
1.685721 1.9854342 -0.5604012
1.7587366 2.0714314 -0.56108648
1.829616 2.1549129 -0.55924445
1.9152905 2.25582 -0.55991626
2.0025194 2.3585577 -0.55882287
2.0968871 2.4697037 -0.55739343
2.2074051 2.5998712 -0.5576278
2.3378823 2.7535467 -0.55980617
2.4722641 2.9118209 -0.55951589
2.620738 3.0866928 -0.55878395
2.7923951 3.2888696 -0.55888474
2.978477 3.5080359 -0.55728042
3.1980951 3.7667012 -0.5567432
3.4512613 4.0648789 -0.55597621
3.7592318 4.4276052 -0.55683196
4.1197438 4.8522143 -0.55688548
4.5419574 5.3494959 -0.55522937
5.0650721 5.9656177 -0.55377054
5.7252622 6.7431865 -0.55210489
6.5885282 7.7599373 -0.55046093
7.7553315 9.1341925 -0.54810995
9.4233427 11.098768 -0.54478109
12.002012 14.135913 -0.53956854
16.512213 19.448004 -0.53016341
26.465202 31.170589 -0.50978959
1.3289099 1.604766 -0.55829078
1.3860648 1.6737851 -0.56298649
1.4232274 1.718662 -0.55833274
1.4865798 1.7951652 -0.56264412
1.5388329 1.8582649 -0.56124228
1.5984839 1.9302984 -0.56108344
1.6617327 2.0066764 -0.56058711
1.7320653 2.0916088 -0.56074041
1.8150103 2.1917715 -0.56297541
1.8811398 2.2716281 -0.55805641
1.9786547 2.3893855 -0.5603199
2.0740578 2.5045922 -0.55946928
2.1835096 2.6367643 -0.55973965
2.291364 2.7670069 -0.55677241
2.4464357 2.9542687 -0.56184947
2.5751996 3.1097617 -0.55718547
2.7456498 3.315594 -0.55764669
2.9417617 3.5524149 -0.55854172
3.1558528 3.8109472 -0.55750513
3.410213 4.1181073 -0.5574789
3.6988068 4.466608 -0.55597508
4.0531211 4.8944712 -0.55597323
4.4732614 5.401824 -0.55490959
4.9919734 6.0282106 -0.55384094
5.6429372 6.814302 -0.55220461
6.499146 7.8482437 -0.55101448
7.6516423 9.2399759 -0.54877025
9.2955313 11.225105 -0.54533058
11.825972 14.280815 -0.5395081
16.286249 19.66696 -0.53063285
26.112185 31.532572 -0.51041985
1.3253647 1.6411517 -0.56523669
1.3520315 1.6741722 -0.5574826
1.4080776 1.743572 -0.56075788
1.4527264 1.798859 -0.55816084
1.5221376 1.8848085 -0.56356353
1.5696901 1.943691 -0.55932355
1.6377069 2.0279138 -0.56085181
1.7032545 2.1090789 -0.55976683
1.7716373 2.1937549 -0.55784708
1.8589219 2.3018365 -0.55981976
1.9498404 2.4144175 -0.56052518
2.0405462 2.5267353 -0.55876845
2.1436565 2.654413 -0.55784839
2.2603822 2.7989504 -0.55756503
2.3875442 2.9564104 -0.55663127
2.5413709 3.1468887 -0.55819631
2.7027566 3.3467267 -0.5572511
2.8916323 3.5806048 -0.55734128
3.1127195 3.8543692 -0.5582158
3.3570485 4.1569133 -0.55710185
3.6465201 4.5153551 -0.55641943
3.9943271 4.946032 -0.55620891
4.3995643 5.4478226 -0.55403554
4.9116402 6.0819082 -0.55318367
5.5594196 6.8840303 -0.55227363
6.3944039 7.9179611 -0.55034721
7.5348392 9.330122 -0.54857993
9.1539268 11.334979 -0.54515886
