# .PCD v0.7 - Point Cloud Data file format
VERSION 0.7
FIELDS x y z
SIZE 4 4 4
TYPE F F F
COUNT 1 1 1
WIDTH 1441
HEIGHT 1
VIEWPOINT 0 0 0 1 0 0 0
POINTS 1441
DATA ascii
-0.01939578 2.103476 -0.56364775
-0.020099264 2.1797688 -0.56471622
-0.020867752 2.2631118 -0.56627858
-0.021418002 2.3227863 -0.56073821
-0.022302369 2.4186962 -0.56265938
-0.023275435 2.5242252 -0.56513548
-0.024253234 2.6302679 -0.56596196
-0.025230629 2.7362664 -0.56501675
-0.026403677 2.8634839 -0.56651366
-0.027586237 2.9917326 -0.56608957
-0.028810602 3.1245151 -0.5643571
-0.03017983 3.2730083 -0.56312895
-0.031872597 3.4565892 -0.56517643
-0.033412136 3.6235526 -0.56159538
-0.035434432 3.8428707 -0.56292075
-0.037671924 4.0855269 -0.56382239
-0.039997239 4.337708 -0.56192666
-0.042861067 4.6482906 -0.56292003
-0.046116728 5.0013676 -0.56354195
-0.049971346 5.4194021 -0.56507182
-0.054367639 5.8961806 -0.56528801
-0.059256885 6.4264202 -0.562262
-0.06570179 7.1253715 -0.56378144
-0.073533885 7.9747639 -0.56433368
-0.083248429 9.0283079 -0.56351632
-0.096128747 10.425181 -0.56376177
-0.11375736 12.337007 -0.56435323
-0.13894495 15.068606 -0.56385064
-0.17868821 19.378771 -0.56388777
-0.25016472 27.130411 -0.56381261
-0.41737795 45.264717 -0.5643512
-0.045498673 2.1142766 -0.56664902
-0.046983425 2.1832716 -0.56573057
-0.048637506 2.2601352 -0.56564063
-0.050329305 2.3387513 -0.56469893
-0.051965673 2.4147916 -0.56185722
-0.054273419 2.5220304 -0.56475079
-0.056251843 2.6139655 -0.56256044
-0.058652341 2.7255142 -0.56290287
-0.061225075 2.8450665 -0.56297636
-0.064176187 2.9822018 -0.56439281
-0.067471214 3.1353183 -0.56641543
-0.070376389 3.2703187 -0.56277251
-0.07409481 3.44311 -0.56307888
-0.078683786 3.6563549 -0.56678635
-0.083126321 3.8627949 -0.56594628
-0.087865859 4.0830364 -0.56358516
-0.093199529 4.3308864 -0.561149
-0.1000702 4.6501598 -0.56325287
-0.10790678 5.0143175 -0.56510788
-0.11616888 5.3982491 -0.56297261
-0.12660086 5.8830128 -0.56413215
-0.13871059 6.4457388 -0.56405884
-0.15329811 7.1236062 -0.5637483
-0.17149387 7.9691448 -0.56404263
-0.19450474 9.0384359 -0.56425512
-0.22456449 10.435282 -0.56441462
-0.26522782 12.324864 -0.56390435
-0.32452294 15.080249 -0.56439286
-0.4173609 19.394335 -0.56444728
-0.58484358 27.17708 -0.56488919
-0.97570801 45.340153 -0.56539857
-0.070979759 2.0984311 -0.56259364
-0.074109569 2.1909602 -0.56791598
-0.07580024 2.2409427 -0.56102824
-0.079002731 2.3356206 -0.56413496
-0.081387863 2.4061341 -0.56003338
-0.084909834 2.510257 -0.56230575
-0.088943549 2.629509 -0.56609821
-0.091874056 2.716146 -0.5611589
-0.09654323 2.8541844 -0.56497282
-0.10072642 2.9778552 -0.56376201
-0.10541117 3.1163542 -0.56318104
-0.11106512 3.2835066 -0.56523424
-0.11628997 3.437973 -0.56243014
-0.12310962 3.6395876 -0.56437916
-0.13016663 3.8482196 -0.56400269
-0.13824643 4.0870895 -0.56433654
-0.14731775 4.3552718 -0.56450063
-0.15759364 4.6590662 -0.5645237
-0.16954142 5.0122881 -0.56507134
-0.18217312 5.3857288 -0.56185806
-0.19917853 5.8884735 -0.56484795
-0.21843371 6.4577293 -0.56530041
-0.24099925 7.1248527 -0.56403881
-0.26936275 7.9633856 -0.5638268
-0.3058058 9.040781 -0.56459355
-0.35289508 10.432919 -0.56447887
-0.41706562 12.330043 -0.56433326
-0.51006794 15.079545 -0.56455863
-0.6563679 19.404726 -0.56494194
-0.91960555 27.187031 -0.56528836
-1.5361089 45.413208 -0.56650233
-0.096723966 2.0962777 -0.56229264
-0.10059843 2.1802483 -0.56541729
-0.10412063 2.2565839 -0.56522185
-0.10765622 2.33321 -0.56382984
-0.11129589 2.412092 -0.56169617
-0.11604353 2.5149865 -0.5636422
-0.12073183 2.616595 -0.563595
-0.12661052 2.7440026 -0.56719285
-0.13117798 2.8429918 -0.563034
-0.13740553 2.9779606 -0.56405914
-0.14434534 3.1283658 -0.56562972
-0.1511694 3.2762618 -0.56426448
-0.15889114 3.4436135 -0.56362993
-0.16813764 3.6440108 -0.5653429
-0.17778672 3.8531332 -0.56500053
-0.18892859 4.0946088 -0.56565285
-0.20074493 4.3507013 -0.5641855
-0.21457624 4.6504645 -0.56375855
-0.23074996 5.0009942 -0.56407541
-0.25004312 5.4191303 -0.5656206
-0.27170941 5.8886995 -0.5651474
-0.29726282 6.442513 -0.5642457
-0.32914555 7.1335006 -0.56500113
-0.36792395 7.9739361 -0.5648514
-0.41724491 9.0428591 -0.56500101
-0.48183194 10.44264 -0.56528264
-0.57028216 12.359602 -0.56596434
-0.69561195 15.075848 -0.56469774
-0.89601278 19.419092 -0.56563818
-1.2561125 27.223455 -0.56632406
-2.0989087 45.489197 -0.56772923
-0.12284389 2.1009562 -0.56391013
-0.12706459 2.1731412 -0.56393677
-0.13209455 2.259167 -0.56623292
-0.13648139 2.3341939 -0.56443048
-0.14134048 2.4172969 -0.56327039
-0.14795493 2.5304215 -0.5674662
-0.15275328 2.6124861 -0.56307197
-0.16000132 2.7364471 -0.56599504
-0.16616489 2.8418603 -0.56317198
-0.17426813 2.9804473 -0.56489336
-0.18255299 3.1221402 -0.56486732
-0.19172189 3.2789526 -0.56509119
-0.20117569 3.4406378 -0.56350517
-0.21254991 3.6351671 -0.56433374
-0.22558431 3.8580902 -0.56609136
-0.23895618 4.0867844 -0.56493515
-0.25441977 4.351253 -0.56462008
-0.27219626 4.6552782 -0.56470513
-0.29197374 4.9935255 -0.56359529
-0.31513295 5.3896093 -0.56290126
-0.34389773 5.8815632 -0.56482565
-0.37619191 6.4338794 -0.56385207
-0.41641241 7.1217566 -0.56443381
-0.46535367 7.9587822 -0.56414062
-0.52831787 9.0356369 -0.56491297
-0.61043131 10.439994 -0.565503
-0.72137737 12.337466 -0.56531411
-0.8813138 15.072803 -0.56494695
-1.1356725 19.423012 -0.56611633
-1.5914869 27.218649 -0.56658828
-2.6642685 45.566059 -0.56905437
-0.14919597 2.1067564 -0.5659166
-0.15279512 2.1575792 -0.56034356
-0.15902396 2.2455349 -0.56326371
-0.16534419 2.3347812 -0.5650214
-0.17243123 2.4348555 -0.56781292
-0.17785817 2.511488 -0.56366807
-0.18564849 2.6214929 -0.56546247
-0.19368865 2.7350259 -0.5661509
-0.20139951 2.8439088 -0.56402606
-0.21093841 2.978605 -0.56499308
-0.22064582 3.1156807 -0.56414682
-0.23185912 3.2740209 -0.56468993
-0.24372058 3.4415133 -0.56409675
-0.25617045 3.6173148 -0.5620088
-0.271835 3.8385098 -0.56366616
-0.28825799 4.0704145 -0.56311965
-0.30751008 4.342268 -0.56390214
-0.32922214 4.6488581 -0.56437474
-0.35460573 5.0072927 -0.56559855
-0.38246256 5.4006519 -0.56450307
-0.41573778 5.8705225 -0.56421363
-0.45595327 6.4383945 -0.56469643
-0.50392729 7.1158233 -0.56441206
-0.56305569 7.9507599 -0.5640201
-0.64042401 9.0432568 -0.56583899
-0.73909461 10.436558 -0.56576639
-0.87311447 12.329017 -0.56537616
-1.068429 15.087002 -0.56592876
-1.3755825 19.424234 -0.56660211
-1.9287333 27.235128 -0.56738216
-3.2304454 45.616257 -0.57013428
-0.17488328 2.1022968 -0.56525356
-0.18075247 2.1728516 -0.56484443
-0.18790972 2.2588897 -0.56715029
-0.19338985 2.3247671 -0.56313092
-0.19990127 2.4030418 -0.56092477
-0.20935796 2.5167222 -0.56537783
-0.21790038 2.6194119 -0.56554878
-0.22719646 2.7311611 -0.56588644
-0.23609392 2.838119 -0.56341094
-0.24810432 2.9824977 -0.56626731
-0.25950897 3.1195946 -0.56539059
-0.27079511 3.2552669 -0.5619871
-0.286098 3.4392252 -0.56425565
-0.30134463 3.6225073 -0.56334865
-0.31956187 3.8414991 -0.56463951
-0.33973649 4.0840211 -0.56553721
-0.36073437 4.3364396 -0.56367874
-0.3860136 4.6403246 -0.5638724
-0.41433796 4.9808164 -0.56314081
-0.44747785 5.3791952 -0.5627929
-0.48824823 5.8693018 -0.56463069
-0.53493345 6.4305115 -0.56453925
-0.59209704 7.1176834 -0.56509435
-0.6624043 7.9628572 -0.56541342
-0.75066304 9.0238285 -0.56515813
-0.86634874 10.414503 -0.56510556
-1.0258144 12.331462 -0.56602395
-1.2530715 15.063354 -0.56557691
-1.6154379 19.419411 -0.566998
-2.2666774 27.248055 -0.56818914
-3.7964449 45.637608 -0.57094145
-0.20050035 2.0977008 -0.56463802
-0.20685418 2.1641767 -0.56320804
-0.21502428 2.249655 -0.56545281
-0.22233635 2.3261564 -0.56408703
-0.23129591 2.4198942 -0.56547958
-0.23972857 2.5081193 -0.56406486
-0.24872239 2.6022158 -0.56245387
-0.26033595 2.7237206 -0.56496531
-0.27063605 2.8314838 -0.56271183
-0.28411657 2.9725215 -0.5649938
-0.29693896 3.1066732 -0.56366789
-0.31242269 3.2686694 -0.56492144
-0.32632715 3.4141421 -0.56075639
-0.34704575 3.6309073 -0.56527585
-0.36729494 3.8427608 -0.56544608
-0.3897925 4.0781379 -0.56534356
-0.4131473 4.3224835 -0.56248248
-0.44320613 4.6369686 -0.56408423
-0.47727025 4.9933591 -0.56517971
-0.51609534 5.39956 -0.56554472
-0.55871004 5.8454089 -0.56295055
-0.6135602 6.4192696 -0.56417203
-0.67969328 7.1111755 -0.56519848
-0.75987911 7.9501061 -0.56512874
-0.86146927 9.0129757 -0.56509918
-0.99621552 10.422735 -0.56617421
-1.1772529 12.316808 -0.56597298
-1.4413468 15.079845 -0.56681871
-1.8558539 19.416555 -0.56753802
-2.6060607 27.265469 -0.56917745
-4.3680344 45.699818 -0.57234836
-0.2261634 2.0940201 -0.56435317
-0.2346058 2.1721871 -0.56600064
-0.24164198 2.2373343 -0.56306028
-0.25191823 2.3324809 -0.56632912
-0.26003659 2.4076478 -0.56332248
-0.27118194 2.5108414 -0.56538421
-0.28154549 2.606796 -0.5641495
-0.29382774 2.7205162 -0.56500739
-0.30628297 2.8358376 -0.56428289
-0.32135874 2.9754224 -0.56625348
-0.33476916 3.0995879 -0.56308663
-0.35095757 3.2494743 -0.5623073
-0.37119529 3.4368529 -0.56519347
-0.3922978 3.6322386 -0.56619132
-0.41514733 3.8437998 -0.56630725
-0.43996587 4.0735917 -0.56542057
-0.46842659 4.3371062 -0.56509209
-0.49973574 4.6269937 -0.56357569
-0.53741503 4.9758615 -0.56390458
-0.58078659 5.3774343 -0.56393266
-0.6326158 5.8573141 -0.56480354
-0.69438535 6.4292312 -0.56575513
-0.76707911 7.1022944 -0.56519955
-0.85761124 7.9405208 -0.56515425
-0.97356141 9.0140896 -0.56587678
-1.1240506 10.407451 -0.5660519
-1.3301557 12.315754 -0.56663334
-1.6265004 15.059573 -0.56676567
-2.0977108 19.422455 -0.56842148
-2.943737 27.255711 -0.56968635
-4.9385428 45.72538 -0.57338572
-0.25316164 2.101609 -0.56719458
-0.25998116 2.1582208 -0.5631519
-0.27053139 2.2458031 -0.56598598
-0.27955189 2.3206866 -0.56425738
-0.29015252 2.4086871 -0.56435776
-0.30193773 2.5065215 -0.56520474
-0.31311926 2.5993443 -0.56332749
-0.32627413 2.7085488 -0.56331259
-0.34153751 2.8352568 -0.5649603
-0.35623643 2.9572792 -0.56359172
-0.3739154 3.1040406 -0.56468809
-0.39292544 3.2618513 -0.56524247
-0.41257086 3.424937 -0.56402552
-0.43429011 3.6052382 -0.56277239
-0.46033832 3.8214762 -0.56380969
-0.48986962 4.0666289 -0.56524748
-0.52211517 4.3343134 -0.56552202
-0.55919516 4.6421313 -0.56621414
-0.60300827 5.0058436 -0.56809974
-0.64811325 5.3802805 -0.56502426
-0.70511514 5.8534789 -0.56522703
-0.77069533 6.3978901 -0.56378853
-0.85380906 7.0878539 -0.56484324
-0.95550323 7.9320636 -0.56534582
-1.0844654 9.0026369 -0.56595218
-1.2533392 10.404533 -0.56668866
-1.4825753 12.307527 -0.5670507
-1.8130364 15.050834 -0.56723285
-2.3352277 19.385778 -0.56814551
-3.2818134 27.243814 -0.57023805
-5.5106516 45.746407 -0.57445568
-0.27669081 2.0810976 -0.56253451
-0.28651476 2.1549871 -0.56318486
-0.29694992 2.2334743 -0.56375647
-0.30719644 2.3105419 -0.56266671
-0.31994382 2.4064198 -0.56470567
-0.33282951 2.5033381 -0.56536704
-0.34474355 2.5929484 -0.56281751
-0.35936826 2.7029464 -0.56302392
-0.37761673 2.8402002 -0.56682771
-0.3925682 2.9526558 -0.5635879
-0.41344982 3.1097143 -0.56660235
-0.43098235 3.2415833 -0.56260604
-0.45542943 3.4254591 -0.56499106
-0.48191378 3.6246581 -0.56668597
-0.50902206 3.8285499 -0.56573403
-0.53959352 4.0584893 -0.56499565
-0.57446784 4.3207927 -0.56463683
-0.61426705 4.6201377 -0.56441021
-0.66417003 4.9954772 -0.5678072
-0.71596897 5.3850765 -0.56640965
-0.77833402 5.8541484 -0.56617308
-0.85183221 6.4069567 -0.56546777
-0.94139534 7.080595 -0.56514448
-1.0531313 7.9210038 -0.56543779
-1.1954342 8.9913187 -0.566122
-1.3815255 10.390983 -0.56683296
-1.6334307 12.285658 -0.5669257
-2.0002267 15.044471 -0.56787711
-2.5743999 19.363049 -0.56836414
-3.622093 27.243149 -0.57111317
-6.0882988 45.792423 -0.57593012
-0.30182388 2.0745537 -0.56172639
-0.31535953 2.1675892 -0.56744879
-0.32428473 2.2289357 -0.56357479
-0.33621508 2.3109376 -0.56372726
-0.35101488 2.4126623 -0.56714058
-0.36348057 2.4983439 -0.56520581
-0.3776347 2.5956309 -0.56436503
-0.39482433 2.7137821 -0.56624943
-0.41112584 2.8258286 -0.56492573
-0.43053064 2.9592054 -0.56580579
-0.44959986 3.0902755 -0.56402516
-0.47234926 3.2466409 -0.56444925
-0.49656513 3.4130864 -0.56391478
-0.52547961 3.6118267 -0.56564736
-0.55397213 3.807667 -0.56361216
-0.58954746 4.0521898 -0.56508517
-0.62763786 4.3140001 -0.56471509
-0.67174715 4.6171808 -0.56501532
-0.72263795 4.9669733 -0.56553459
-0.78082335 5.3669038 -0.56546533
-0.84864533 5.8330708 -0.56510109
-0.93075132 6.397418 -0.56559324
-1.0286924 7.0706048 -0.56531399
-1.1513257 7.9135118 -0.56587082
-1.3054414 8.9728088 -0.56592447
-1.5080492 10.365412 -0.56640685
-1.7858064 12.274545 -0.56738329
-2.1858392 15.024126 -0.56808078
-2.8159373 19.355038 -0.56910235
-3.9613073 27.227613 -0.57176542
-6.6635122 45.800922 -0.57702392
-0.3292833 2.0831769 -0.56511492
-0.34083524 2.1562591 -0.56553715
-0.35075462 2.219013 -0.56211394
-0.365655 2.3132787 -0.56535238
-0.37719628 2.3862936 -0.5619899
-0.39309239 2.4868586 -0.56365836
-0.40843979 2.5839524 -0.56287527
-0.42747986 2.7044075 -0.56534743
-0.44242156 2.7989345 -0.56059444
-0.46578914 2.9467671 -0.56448001
-0.4865489 3.0781016 -0.56285262
-0.51298368 3.2453384 -0.56527674
-0.54042202 3.4189241 -0.56593448
-0.56981909 3.6049018 -0.56561738
-0.5999344 3.7954233 -0.56284922
-0.6403991 4.0514193 -0.56603301
-0.68004239 4.302218 -0.56422472
-0.72937918 4.6143427 -0.56572276
-0.78113151 4.9417481 -0.56371349
-0.84437788 5.3418698 -0.56387907
-0.92117369 5.8277106 -0.5656364
-1.0100713 6.3901114 -0.56600261
-1.1169211 7.0660863 -0.56600803
-1.2511257 7.9151182 -0.56704289
-1.4155995 8.9556446 -0.56589699
-1.6370181 10.356426 -0.56697297
-1.9368218 12.253103 -0.56745011
-2.3729558 15.012261 -0.56869245
-3.0570252 19.339956 -0.5697211
-4.3012714 27.21155 -0.57249552
-7.2408867 45.808727 -0.57820022
-0.35199535 2.0621171 -0.5605337
-0.36751035 2.1530097 -0.56582731
-0.38102135 2.232162 -0.56658882
-0.39292246 2.301883 -0.5637055
-0.40751737 2.3873854 -0.56338453
-0.42314464 2.4789355 -0.56299937
-0.44019166 2.5788033 -0.56289011
-0.4576073 2.6808305 -0.56155258
-0.4795005 2.8090887 -0.56376654
-0.50192648 2.9404683 -0.56441301
-0.52577478 3.0801802 -0.56437224
-0.55316687 3.2406533 -0.56560266
-0.58265686 3.4134161 -0.56616592
-0.61484176 3.6019673 -0.56630039
-0.64771616 3.7945573 -0.56385934
-0.68958735 4.0398545 -0.56555921
-0.73463279 4.3037467 -0.56556714
-0.78308338 4.5875883 -0.56358057
-0.84180939 4.9316263 -0.56369704
-0.9104684 5.3338556 -0.56417227
-0.99258208 5.814908 -0.56553566
-1.0881149 6.3745737 -0.56576872
-1.2060003 7.0651898 -0.56708121
-1.3473238 7.8931141 -0.56661057
-1.5293945 8.9597502 -0.56730187
-1.7658705 10.345113 -0.5674994
-2.089715 12.242313 -0.56809747
-2.558394 14.988005 -0.56892228
-3.2980053 19.320919 -0.57031184
-4.6421442 27.195374 -0.57331276
-7.8182187 45.801979 -0.57928467
-0.37780473 2.060257 -0.56124848
-0.3919414 2.1373477 -0.56293529
-0.40618142 2.2150016 -0.5634582
-0.424869 2.3169093 -0.5686217
-0.43980315 2.3983488 -0.56720507
-0.45488697 2.4806044 -0.56460607
-0.47544426 2.5927081 -0.56715846
-0.49268574 2.6867299 -0.56401473
-0.51523823 2.8097138 -0.56512076
-0.53592592 2.9225285 -0.56219202
-0.56535745 3.0830257 -0.56612462
-0.59443581 3.2415967 -0.56700027
-0.62335044 3.3992751 -0.56504899
-0.65936714 3.5956824 -0.56654418
-0.6981408 3.8071239 -0.5669595
-0.7374413 4.0214386 -0.56420791
-0.78683692 4.2908049 -0.56509519
-0.84167093 4.5898271 -0.56508434
-0.91037327 4.9644771 -0.56868851
-0.97830445 5.3349218 -0.56551462
-1.063887 5.8016229 -0.5654732
-1.1674997 6.3666472 -0.56629652
-1.292569 7.0486798 -0.56698889
-1.4428877 7.8684015 -0.56606746
-1.6384392 8.9347897 -0.56695426
-1.8932238 10.324189 -0.56758577
-2.2408006 12.219607 -0.5682795
-2.7432239 14.959437 -0.56907529
-3.5399933 19.304407 -0.57106614
-4.9796824 27.155365 -0.57371682
-8.4011688 45.81353 -0.58069342
-0.40332919 2.0565832 -0.56155622
-0.42009988 2.142097 -0.56550401
-0.43137562 2.1995924 -0.56084532
-0.45120925 2.3007243 -0.56596845
-0.4683623 2.3881881 -0.56612134
-0.48491341 2.4725826 -0.56409472
-0.50574702 2.5788136 -0.56543666
-0.52557981 2.6799414 -0.56390369
-0.55209512 2.8151433 -0.56753534
-0.57599729 2.937021 -0.5662995
-0.60302562 3.0748386 -0.56594008
-0.62992638 3.2120063 -0.56313676
-0.66632462 3.3976016 -0.56608999
-0.70265388 3.5828454 -0.56584018
-0.74210757 3.7840204 -0.56483513
-0.78843844 4.0202622 -0.56536031
-0.83778733 4.2718935 -0.56391865
-0.89612079 4.5693364 -0.56387568
-0.96664393 4.9289355 -0.56593597
-1.0421555 5.3139706 -0.56460947
-1.1333196 5.7788177 -0.56456602
-1.2452008 6.3493018 -0.56607282
-1.3801355 7.0373368 -0.56739873
-1.5378201 7.8413739 -0.56544065
-1.7455502 8.9005928 -0.56610346
-2.0212784 10.306537 -0.56793875
-2.3940811 12.207465 -0.56904083
-2.9292634 14.936369 -0.56952494
-3.7798278 19.273413 -0.57148105
-5.3184228 27.118736 -0.57428122
-8.9786701 45.782406 -0.58165443
-0.43337321 2.0743854 -0.56782937
-0.44571251 2.1334486 -0.56462502
-0.46312755 2.2168076 -0.56664395
-0.47637838 2.2802341 -0.56232637
-0.49480408 2.3684304 -0.56283754
-0.51562941 2.4681132 -0.56447887
-0.53698319 2.5703251 -0.56498051
-0.56146783 2.6875234 -0.56690902
-0.58257592 2.7885594 -0.56357759
-0.61028391 2.9211864 -0.5646506
-0.64051443 3.0658882 -0.56569952
-0.66973609 3.2057605 -0.56344301
-0.70875293 3.3925185 -0.5666523
-0.74738377 3.5774293 -0.56639338
-0.78930569 3.7780926 -0.56535631
-0.83691293 4.0059695 -0.5647549
-0.89070541 4.263453 -0.56420761
-0.95457 4.5691471 -0.56525803
-1.0258592 4.9103808 -0.56521118
-1.1105651 5.3158336 -0.56621557
-1.2082536 5.7834296 -0.56642526
-1.3255858 6.3450527 -0.56710434
-1.4646381 7.0106406 -0.56665552
-1.6391361 7.8458929 -0.56717706
-1.8594573 8.9004831 -0.56750786
-2.1447923 10.266269 -0.56713021
-2.5413723 12.164539 -0.56845361
-3.1123071 14.897377 -0.56945437
-4.0186806 19.235828 -0.57178861
-5.6596313 27.090406 -0.57511157
-9.5617113 45.768108 -0.58292246
-0.45748037 2.0627418 -0.56613916
-0.47170764 2.1268914 -0.56438208
-0.48760605 2.198576 -0.56347376
-0.50532007 2.2784472 -0.56337547
-0.52352899 2.3605497 -0.56245202
-0.54495895 2.4571755 -0.56346738
-0.56713611 2.5571706 -0.56357932
-0.59210837 2.6697686 -0.56465691
-0.61673838 2.7808232 -0.56350422
-0.64474487 2.9071023 -0.56341809
-0.674312 3.0404179 -0.5624873
-0.71109521 3.2062705 -0.56502676
-0.7492674 3.3783858 -0.56578791
-0.78955752 3.5600505 -0.56513631
-0.83619142 3.7703192 -0.56568897
-0.8872537 4.0005546 -0.56548685
-0.94784075 4.273737 -0.56706804
-1.0122379 4.5640984 -0.56613046
-1.086296 4.8980203 -0.56528324
-1.173627 5.2917891 -0.56514889
-1.2797506 5.7702913 -0.56663686
-1.4004089 6.3143296 -0.56585473
-1.5497314 6.9876127 -0.56629169
-1.7373401 7.8335252 -0.56778443
-1.9715322 8.8894787 -0.56830901
-2.274811 10.256938 -0.56811708
-2.6927321 12.141311 -0.56887245
-3.3012521 14.885077 -0.5704928
-4.2576966 19.197609 -0.57216555
-5.998229 27.045527 -0.57568109
-10.142799 45.733059 -0.58402038
-0.48375356 2.0609879 -0.56724757
-0.49726966 2.1185722 -0.56375444
-0.51510632 2.1945636 -0.56402618
-0.53980339 2.2997832 -0.57024926
-0.55741972 2.3748362 -0.56744635
-0.57627505 2.4551675 -0.5645892
-0.59728402 2.5446744 -0.56240141
-0.62861049 2.6781378 -0.56801891
-0.65288019 2.7815368 -0.56523287
-0.6849786 2.9182889 -0.56717569
-0.71466023 3.044745 -0.56487089
-0.75161487 3.2021868 -0.56589299
-0.78976405 3.364718 -0.56508249
-0.83475155 3.5563829 -0.56614071
-0.88153732 3.7557096 -0.56508064
-0.93823218 3.9972529 -0.56660807
-1.0007738 4.2637053 -0.56732696
-1.0693132 4.5557113 -0.56667829
-1.1470563 4.886929 -0.5655883
-1.2415882 5.2896738 -0.56651068
-1.352044 5.7602601 -0.56724155
-1.4810734 6.3099785 -0.56705397
-1.635551 6.9681158 -0.56629872
-1.833766 7.812593 -0.5678587
-2.0789928 8.8573608 -0.56784707
-2.4017923 10.232617 -0.56836283
-2.846395 12.126807 -0.56978971
-3.4877982 14.859447 -0.57111102
-4.4976363 19.16177 -0.57270241
-6.3435464 27.026102 -0.57688433
-10.726979 45.701321 -0.58525527
-0.50693429 2.0463116 -0.56488115
-0.52314574 2.1117513 -0.56360865
-0.54206759 2.1881323 -0.5640437
-0.56472343 2.2795856 -0.5669201
-0.58464581 2.3600051 -0.56557769
-0.60790789 2.4539061 -0.56597525
-0.63100886 2.5471563 -0.56462216
-0.65731394 2.6533403 -0.56443113
-0.68840665 2.7788506 -0.56636435
-0.71431303 2.8834255 -0.56206447
-0.7503643 3.0289514 -0.56361002
-0.79220974 3.1978664 -0.56680816
-0.82988614 3.3499525 -0.56427389
-0.87441498 3.5296993 -0.56356204
-0.93005466 3.7542968 -0.56654596
-0.98450154 3.9740794 -0.56499654
-1.0506281 4.2410083 -0.56598312
-1.1257759 4.544353 -0.56694454
-1.2054695 4.8660479 -0.56484443
-1.3058189 5.2711225 -0.56620073
-1.4184918 5.7259426 -0.56553698
-1.559952 6.2969661 -0.5675655
-1.7251502 6.9638119 -0.56762999
-1.9302713 7.7918124 -0.56803048
-2.1882846 8.8333197 -0.56798798
-2.5287635 10.20771 -0.5686636
-2.994813 12.088985 -0.56969982
-3.6718946 14.822121 -0.57136858
-4.7378082 19.124832 -0.57329631
-6.6773295 26.953981 -0.5770539
-11.310853 45.657852 -0.58643538
-0.53068864 2.0346797 -0.56342894
-0.54880375 2.1041336 -0.56333399
-0.5691424 2.1821129 -0.56425339
-0.59050792 2.264029 -0.56481433
-0.61065996 2.3412926 -0.56285018
-0.6383757 2.447556 -0.56627834
-0.66094697 2.5340948 -0.5634858
-0.69264764 2.6556363 -0.56668848
-0.72115046 2.7649171 -0.56528914
-0.75003713 2.8756697 -0.56230795
-0.79038131 3.0303509 -0.5656361
-0.82839608 3.176101 -0.56471312
-0.87309718 3.3474865 -0.56562418
-0.9176935 3.5184705 -0.5635283
-0.97727042 3.7468905 -0.56719887
-1.0346937 3.9670537 -0.56576377
-1.1009277 4.2209973 -0.56507647
-1.1812667 4.5290194 -0.56680083
-1.2659509 4.8537021 -0.56517559
-1.3700974 5.2530036 -0.56602138
-1.4932207 5.7250628 -0.56722075
-1.635578 6.2708659 -0.56698292
-1.8099064 6.9392476 -0.56739891
-2.0230818 7.7565699 -0.56723195
-2.2981298 8.8111143 -0.56833422
-2.6590455 10.194878 -0.56972712
-3.1478126 12.068829 -0.57053089
-3.852484 14.770564 -0.57116413
-4.9752254 19.075197 -0.57359892
-7.0186906 26.909916 -0.57791454
-11.898876 45.620728 -0.58779341
-0.55767322 2.0353265 -0.5654642
-0.57555401 2.1005855 -0.56423616
-0.59818721 2.1831894 -0.56639099
-0.61837357 2.2568629 -0.56488085
-0.64390558 2.3500466 -0.56681526
-0.66728854 2.4353869 -0.56531852
-0.69372576 2.5318739 -0.5648461
-0.72290379 2.6383643 -0.56485695
-0.75831723 2.767612 -0.5677036
-0.78604174 2.8687975 -0.56281161
-0.82594389 3.0144272 -0.5645169
-0.87079978 3.1781368 -0.56693608
-0.91522592 3.3402779 -0.56626493
-0.96436572 3.5196223 -0.56556922
-1.0221245 3.7304232 -0.56656581
-1.0848454 3.9593339 -0.56652242
-1.1540912 4.2120585 -0.56573689
-1.2338181 4.503036 -0.56540501
-1.3260345 4.8395963 -0.56538898
-1.4339656 5.2335091 -0.56577802
-1.5621363 5.7012911 -0.56672579
-1.7131126 6.2523055 -0.56716651
-1.8957299 6.9187994 -0.56759006
-2.121613 7.7431993 -0.56811905
-2.4064016 8.7825861 -0.56835973
-2.7801709 10.146722 -0.56890345
-3.2983675 12.037971 -0.5709464
-4.0408545 14.747809 -0.57216233
-5.2149844 19.033003 -0.57421499
-7.3581309 26.854792 -0.57863003
-12.479502 45.546135 -0.58876497
-0.58393008 2.0327492 -0.56670016
-0.60199481 2.0956354 -0.56485218
-0.62476212 2.1748917 -0.56618857
-0.64861059 2.2579119 -0.56709677
-0.66804248 2.3255572 -0.56284726
-0.69639707 2.4242637 -0.56468165
-0.72654337 2.5292077 -0.56620157
-0.75099325 2.6143215 -0.56164414
-0.78897995 2.7465589 -0.56533241
-0.82877457 2.8850901 -0.56796432
-0.86573404 3.0137515 -0.56634116
-0.90899718 3.1643572 -0.56642908
-0.95416671 3.321599 -0.5650447
-1.0105174 3.5177643 -0.56722456
-1.0667045 3.7133601 -0.56592369
-1.133979 3.9475527 -0.56678903
-1.2089696 4.2086067 -0.56722707
-1.2921027 4.4980054 -0.56672549
-1.3895459 4.8372202 -0.56706464
-1.5005428 5.2236171 -0.56666046
-1.6355537 5.6936107 -0.5679186
-1.7896667 6.2301011 -0.56710565
-1.9776654 6.8845534 -0.56673282
-2.2155607 7.7127032 -0.56783748
-2.5173326 8.763216 -0.56906646
-2.9059865 10.11618 -0.56915146
-3.4447923 11.991844 -0.57072449
-4.2238917 14.704008 -0.57243472
-5.4538469 18.985668 -0.57476676
-7.6926355 26.779232 -0.57899636
-13.066017 45.484787 -0.59000421
-0.60798085 2.0224257 -0.56586355
-0.62775666 2.0882094 -0.56488854
-0.65128744 2.1664836 -0.56604171
-0.67535704 2.2465503 -0.56628615
-0.69927651 2.3261175 -0.56502128
-0.73094988 2.4314778 -0.5684126
-0.75686747 2.5176916 -0.56566423
-0.78764981 2.6200879 -0.56492096
-0.82484007 2.7437999 -0.56680936
-0.86481458 2.8767738 -0.56837761
-0.90309131 3.0040998 -0.56657141
-0.94800586 3.1535063 -0.56653059
-0.99679095 3.3157883 -0.56609851
-1.0489612 3.4893305 -0.56467682
-1.1095259 3.6907969 -0.56452155
-1.1810471 3.9287093 -0.56612587
-1.2606152 4.1933899 -0.56722254
-1.346868 4.4803066 -0.56653941
-1.4475453 4.8152056 -0.56652778
-1.5651631 5.2064576 -0.56684393
-1.7034189 5.6663599 -0.56724679
-1.8660182 6.2072406 -0.56707054
-2.0629559 6.8623462 -0.56695002
-2.3136976 7.6964293 -0.56869096
-2.6273427 8.7397585 -0.56959802
-3.0342422 10.093294 -0.56991994
-3.5970886 11.965582 -0.57153648
-4.4044037 14.651087 -0.57243967
-5.6893182 18.925306 -0.57501382
-8.0364466 26.732941 -0.58008826
-13.653126 45.416618 -0.59125298
-0.62969685 2.0049119 -0.56308717
-0.65223533 2.0766728 -0.56389469
-0.67425942 2.146796 -0.56302154
-0.6957832 2.2153263 -0.56052977
-0.73258734 2.3325081 -0.56871873
-0.75882518 2.4160476 -0.56694388
-0.7886771 2.5110941 -0.56631798
-0.817366 2.6024375 -0.56323981
-0.85800081 2.7318161 -0.56647044
-0.89367926 2.8454137 -0.56431019
-0.93377417 2.9730732 -0.56284279
-0.98291278 3.1295271 -0.56435138
-1.0379514 3.3047662 -0.5663529
-1.087989 3.4640825 -0.56271344
-1.1623379 3.7008045 -0.56819546
-1.2276736 3.9088292 -0.56539381
-1.3123753 4.1785135 -0.56735021
-1.4027888 4.4663835 -0.56691712
-1.5092771 4.8054357 -0.56751889
-1.6275799 5.1821036 -0.56632859
-1.7736701 5.6472449 -0.56747365
-1.9414235 6.1813602 -0.56684428
-2.1560769 6.8648024 -0.56930029
-2.4080298 7.6670032 -0.56866157
-2.7316751 8.6974678 -0.56898791
-3.1621273 10.067998 -0.57064396
-3.7432823 11.918355 -0.57143605
-4.5891132 14.611423 -0.57305145
-5.9235344 18.86013 -0.57520312
-8.3719559 26.655737 -0.58060288
-14.241812 45.344959 -0.59255517
-0.65700692 2.0052774 -0.5654161
-0.67881429 2.0718367 -0.56480527
-0.70038509 2.1376736 -0.56284523
-0.73212761 2.2345564 -0.56763041
-0.75639433 2.3086219 -0.5651198
-0.78191429 2.3865123 -0.56222689
-0.81838095 2.4978137 -0.56554967
-0.85395408 2.6063879 -0.56632459
-0.89351368 2.7271292 -0.56773394
-0.92656171 2.8279965 -0.56307298
-0.97843456 2.9863198 -0.56758529
-1.0217719 3.1185913 -0.56460232
-1.0766822 3.2861855 -0.56539482
-1.1394866 3.4778731 -0.56718683
-1.2034516 3.6731038 -0.56617165
-1.2730975 3.8856726 -0.56426597
-1.3620647 4.1572127 -0.56668931
-1.4543747 4.4389563 -0.56566298
-1.5640484 4.7736959 -0.56599897
-1.6901883 5.1586924 -0.56599855
-1.8418169 5.6214843 -0.56711799
-2.0197749 6.1646366 -0.56754529
-2.2350569 6.8217077 -0.56796277
-2.5036469 7.6414824 -0.56900907
-2.8410358 8.6712408 -0.56951457
-3.2814016 10.015299 -0.56990093
-3.8903468 11.873885 -0.5715543
-4.7728605 14.567442 -0.57358485
-6.161315 18.805199 -0.57579494
-8.7101679 26.584658 -0.58134365
-14.828266 45.257954 -0.59375602
-0.68305129 2.001261 -0.56660903
-0.70135665 2.0548935 -0.56249493
-0.7312569 2.1424978 -0.56644017
-0.75880581 2.223213 -0.56707627
-0.78848267 2.3101625 -0.56782734
-0.81308866 2.3822553 -0.56353682
-0.85015416 2.4908531 -0.56629777
-0.8841511 2.5904601 -0.56518328
-0.92338145 2.7054005 -0.56553143
-0.96693957 2.8330207 -0.56639785
-1.0129973 2.9679646 -0.56642133
-1.0630344 3.1145673 -0.56619751
-1.1195893 3.2802668 -0.56670231
-1.1801795 3.4577889 -0.5662353
-1.2502626 3.6631243 -0.56696033
-1.3247544 3.8813765 -0.56596488
-1.4132233 4.1405802 -0.56674802
-1.5073005 4.4162154 -0.56508422
-1.6243496 4.7591558 -0.56660038
-1.7541276 5.1393905 -0.56620461
-1.9097241 5.5952702 -0.56679964
-2.0986631 6.148839 -0.56842375
-2.3188658 6.7940078 -0.56798756
-2.5961928 7.6065435 -0.56874162
-2.9469521 8.6342278 -0.56942052
-3.4084625 9.9863997 -0.57059824
-4.0403962 11.837892 -0.57216996
-4.9537177 14.513819 -0.57382858
-6.4009881 18.754152 -0.57659835
-9.0476398 26.508535 -0.58206791
-15.413592 45.160038 -0.59491301
-0.70649666 1.9895866 -0.56572056
-0.7278046 2.0495925 -0.56345105
-0.75838393 2.1357079 -0.56706762
-0.78411055 2.2081573 -0.56565255
-0.81249523 2.2880921 -0.56481552
-0.84566492 2.3815024 -0.56577581
-0.87877244 2.4747374 -0.56504792
-0.91644627 2.580832 -0.56549859
-0.95638394 2.6933017 -0.56541783
-1.0046123 2.8291192 -0.56804466
-1.0444657 2.9413512 -0.56375068
-1.1017886 3.1027801 -0.5664748
-1.1577761 3.2604482 -0.56569517
-1.2209516 3.4383583 -0.56546921
-1.2958127 3.6491773 -0.56722492
-1.3732822 3.8673413 -0.56633782
-1.4586717 4.1078095 -0.56467485
-1.5666525 4.4118972 -0.56695384
-1.6873087 4.7516804 -0.56813765
-1.8234422 5.1350503 -0.56815374
-1.9833599 5.5853996 -0.56822729
-2.169173 6.1086731 -0.56713355
-2.4079521 6.781106 -0.5693413
-2.6878943 7.5694599 -0.56839716
-3.052561 8.5964088 -0.56935883
-3.5344293 9.953413 -0.57115358
-4.1915374 11.803914 -0.57297558
-5.1344023 14.459146 -0.57411969
-6.6362786 18.688623 -0.57704896
-9.3792219 26.413111 -0.58246094
-15.999383 45.056343 -0.5960936
-0.72971278 1.977515 -0.56479675
-0.75485569 2.0456522 -0.56487679
-0.78411782 2.1249521 -0.56672901
-0.81227583 2.2012601 -0.56640148
-0.8430745 2.2847242 -0.56650037
-0.87847936 2.380671 -0.56810164
-0.91114706 2.4692001 -0.5662989
-0.9490574 2.5719368 -0.56606382
-0.985708 2.6712596 -0.56329244
-1.0324165 2.7978392 -0.56427044
-1.0809842 2.9294572 -0.56397611
-1.1386429 3.0857117 -0.56587207
-1.1937864 3.2351501 -0.56381017
-1.2640232 3.4254911 -0.56586647
-1.337966 3.6258755 -0.56611747
-1.4206048 3.8498261 -0.56628817
-1.5148568 4.105248 -0.56684053
-1.6193892 4.3885298 -0.56646705
-1.7449951 4.7289209 -0.56793898
-1.8830185 5.102963 -0.56712246
-2.0545607 5.5678401 -0.56896812
-2.2453353 6.0848384 -0.56744117
-2.4883194 6.7433228 -0.56869495
-2.7860203 7.5500894 -0.56947201
-3.1629968 8.5716925 -0.57025468
-3.6578324 9.9126921 -0.57135469
-4.3281894 11.729354 -0.57189655
-5.3119807 14.395419 -0.57413954
-6.8707514 18.619673 -0.57748497
-9.7191248 26.338737 -0.58341223
-16.582022 44.93713 -0.59716886
-0.75698966 1.9762708 -0.56705707
-0.78441989 2.0478828 -0.56811333
-0.80817366 2.1098969 -0.56532139
-0.83330494 2.1755068 -0.56236905
-0.86836439 2.2670364 -0.56471956
-0.90112478 2.3525639 -0.56399596
-0.93906063 2.4516029 -0.56486869
-0.97972804 2.5577734 -0.56555527
-1.022514 2.6694746 -0.56552464
-1.0668192 2.7851419 -0.5643127
-1.120159 2.924396 -0.56561071
-1.1800172 3.0806677 -0.56756508
-1.2391292 3.2349913 -0.5663951
-1.3059152 3.4093492 -0.56580991
-1.384745 3.61515 -0.5670585
-1.4739199 3.8479586 -0.56863642
-1.5663954 4.0893841 -0.5672667
-1.6792758 4.3840804 -0.56851518
-1.8012229 4.7024474 -0.56737667
-1.9508153 5.092988 -0.56863689
-2.1222005 5.5404229 -0.56879002
-2.3220315 6.0621214 -0.56794244
-2.5692673 6.7075787 -0.56830192
-2.8778081 7.5130858 -0.56930703
-3.2698386 8.5365582 -0.57054913
-3.7878289 9.888875 -0.57262325
-4.4802523 11.696582 -0.57294148
-5.4977689 14.35301 -0.5751009
-7.1044626 18.547602 -0.57791543
-10.051433 26.241247 -0.58394635
-17.167723 44.819725 -0.59836876
-0.78192472 1.9685584 -0.56756008
-0.80397964 2.0240836 -0.56421095
-0.83452624 2.100987 -0.56564087
-0.86564338 2.179327 -0.56606531
-0.89656872 2.2571838 -0.56496882
-0.92712343 2.3341079 -0.56226194
-0.9691034 2.4397957 -0.56485116
-1.0059131 2.5324674 -0.56265223
-1.0552444 2.6566629 -0.56551665
-1.1089149 2.7917824 -0.56837791
-1.1545767 2.9067397 -0.56489903
-1.2124771 3.0525086 -0.5650813
-1.2754135 3.2109561 -0.56489009
-1.3483191 3.3945019 -0.56605452
-1.430493 3.6013813 -0.56761503
-1.5187869 3.8236682 -0.56776381
-1.6196545 4.0776105 -0.56835324
-1.7328489 4.3625865 -0.56844807
-1.8594687 4.6813622 -0.56754845
-2.0120223 5.0654278 -0.56827915
-2.1864531 5.5045714 -0.56782669
-2.3958933 6.0318542 -0.56782401
-2.6543968 6.6826572 -0.56891286
-2.9736185 7.4863243 -0.57000679
-3.3754277 8.4979115 -0.57069701
-3.9011896 9.821559 -0.57145989
-4.6281323 11.651696 -0.5734871
-5.6731114 14.282515 -0.57502788
-7.3385873 18.475485 -0.57843637
-10.391212 26.160713 -0.58495337
-17.753704 44.696377 -0.5995912
-0.80287284 1.951026 -0.56530887
-0.8304773 2.0181062 -0.56534863
-0.86011469 2.0901268 -0.56552166
-0.89500594 2.1749146 -0.5677349
-0.92775148 2.254488 -0.56710654
-0.96545905 2.3461194 -0.56797224
-0.99955571 2.4289763 -0.56514913
-1.0400511 2.5273824 -0.56432122
-1.0848213 2.6361766 -0.56395268
-1.1414255 2.7737277 -0.5675168
-1.1949704 2.9038446 -0.5671491
-1.2562371 3.0527265 -0.56793827
-1.3199158 3.2074692 -0.56708908
-1.3941199 3.387789 -0.56775093
-1.4727882 3.5789576 -0.56689227
-1.5631292 3.7984915 -0.5668366
-1.665579 4.0474501 -0.56696117
-1.7827258 4.3321233 -0.56729215
-1.9135195 4.6499591 -0.56655115
-2.0771596 5.0476141 -0.56910306
-2.2553282 5.4805737 -0.56816894
-2.4745433 6.0132785 -0.56889671
-2.7309997 6.6364822 -0.56779784
-3.0655835 7.4495387 -0.57003301
-3.4822667 8.4621029 -0.57112467
-4.0205817 9.7702379 -0.57130718
-4.7631307 11.574675 -0.57253563
-5.85497 14.227904 -0.57568431
-7.5713606 18.39883 -0.57890749
-10.720785 26.052107 -0.58542836
-18.340437 44.568287 -0.60085285
-0.82811558 1.9440926 -0.56620759
-0.85836416 2.0151045 -0.56742162
-0.89022291 2.0898964 -0.56837821
-0.91687095 2.1524556 -0.56477255
-0.96013367 2.2540195 -0.56991547
-0.99435586 2.3343599 -0.56804252
-1.0249058 2.4060793 -0.56271142
-1.0714507 2.5153487 -0.56453341
-1.1214914 2.6328249 -0.56614304
-1.1753775 2.7593284 -0.56748486
-1.2281677 2.8832588 -0.56603533
-1.2901889 3.0288606 -0.56640691
-1.3586254 3.189523 -0.566827
-1.4317402 3.3611677 -0.5661971
-1.5161567 3.5593448 -0.56669593
-1.6146505 3.79057 -0.56857431
-1.7178551 4.0328541 -0.56783265
-1.8362285 4.3107491 -0.56740701
-1.974683 4.6357861 -0.56773984
-2.1387081 5.020853 -0.56900793
-2.3264711 5.461647 -0.56912959
-2.5475159 5.9805746 -0.56872332
-2.8168097 6.6127715 -0.56868958
-3.1654029 7.4311323 -0.57155973
-3.5840867 8.4140387 -0.57081205
-4.1452975 9.7315435 -0.57198185
-4.9119344 11.531307 -0.57333475
-6.0344701 14.166584 -0.57616204
-7.8007555 18.313133 -0.57918543
-11.055396 25.95376 -0.58622891
-18.915428 44.406052 -0.60175586
-0.84505677 1.9181023 -0.56162202
-0.88360012 2.0055876 -0.56775838
-0.90956831 2.0645299 -0.56447852
-0.93930393 2.1320236 -0.56239957
-0.97542357 2.2140076 -0.56278884
-1.0213265 2.318198 -0.56712282
-1.0595822 2.4050303 -0.56547046
-1.1074018 2.5135708 -0.56714767
-1.1551663 2.6219859 -0.56682384
-1.2031628 2.7309282 -0.56464404
-1.2671382 2.8761389 -0.56765348
-1.3271079 3.0122576 -0.56631094
-1.3986911 3.1747363 -0.56721288
-1.4748166 3.3475254 -0.5669111
-1.5648397 3.5518591 -0.56852472
-1.6560742 3.7589421 -0.5668419
-1.7650797 4.006362 -0.5671156
-1.8845863 4.277617 -0.56605345
-2.0291846 4.6058249 -0.56708348
-2.1994622 4.9923191 -0.56879628
-2.3896513 5.4240088 -0.56822652
-2.6218953 5.9511542 -0.56894845
-2.8955448 6.5722814 -0.56822658
-3.2485368 7.3734994 -0.57015622
-3.6924565 8.3811045 -0.57161486
-4.2673669 9.6860304 -0.57234776
-5.0625763 11.490991 -0.57438195
-6.2123418 14.100718 -0.57654643
-8.0317049 18.230291 -0.5796451
-11.37685 25.823071 -0.58639252
-19.509817 44.283203 -0.60329652
-0.87353802 1.9184622 -0.56482977
-0.91028798 1.9991723 -0.56906796
-0.93663216 2.0570292 -0.565534
-0.97441351 2.1400049 -0.56762266
-1.0066897 2.2108896 -0.56510013
-1.0437518 2.2922854 -0.5638808
-1.0894835 2.3927212 -0.56568342
-1.1349504 2.4925754 -0.56551659
-1.1817143 2.5952783 -0.56414884
-1.2370722 2.716855 -0.56483674
-1.298291 2.8513038 -0.56585991
-1.3624085 2.9921184 -0.56563151
-1.4400096 3.1625457 -0.56815547
-1.5140861 3.3252323 -0.56624585
-1.6051844 3.5253024 -0.56739038
-1.7012254 3.7362275 -0.56652832
-1.8144057 3.9847934 -0.56717783
-1.9469595 4.275908 -0.56895232
-2.0917358 4.5938654 -0.56873482
-2.2662601 4.9771552 -0.57020044
-2.4524987 5.3861723 -0.56737906
-2.6987808 5.9270558 -0.56977415
-2.9803681 6.5454774 -0.56903464
-3.3383355 7.3316445 -0.5700509
-3.7938612 8.3320694 -0.57140905
-4.3885498 9.6381226 -0.57266223
-5.2021265 11.424898 -0.57423234
-6.3814983 14.015033 -0.57620788
-8.2695789 18.161631 -0.58065128
-11.716414 25.731564 -0.5875417
-20.082895 44.10601 -0.60420108
-0.90076989 1.9154644 -0.56716537
-0.93492967 1.9881043 -0.56914687
-0.95640856 2.0337787 -0.56233251
-0.99874789 2.1238122 -0.56654233
-1.0387416 2.2088578 -0.56780255
-1.0784959 2.2933941 -0.56737286
-1.1232526 2.3885684 -0.56792414
-1.1679951 2.4837122 -0.56672132
-1.2173809 2.5887299 -0.56593657
-1.2735996 2.7082775 -0.56626654
-1.3421452 2.854038 -0.56963474
-1.4012823 2.9797916 -0.56651574
-1.472733 3.1317296 -0.56582993
-1.55275 3.3018837 -0.5654785
-1.6462133 3.5006311 -0.56663477
-1.7480453 3.7171743 -0.56685567
-1.8666424 3.9693677 -0.56820631
-1.9972057 4.2470078 -0.56833166
-2.1465859 4.564661 -0.56834412
-2.3201191 4.9336743 -0.56844461
-2.521688 5.3623056 -0.56808841
-2.7677209 5.885489 -0.56900686
-3.0617099 6.5106487 -0.5692367
-3.4333837 7.3010039 -0.57090795
-3.8989565 8.2910328 -0.57183945
-4.5149083 9.6008387 -0.57370222
-5.3524146 11.381775 -0.57532942
-6.5561714 13.941533 -0.5764569
-8.4933205 18.060831 -0.5807237
-12.041969 25.606943 -0.58803278
-20.671978 43.958443 -0.60561597
-0.92220479 1.9000233 -0.56590819
-0.9525013 1.9624434 -0.56511098
-0.98477894 2.0289452 -0.56430155
-1.0207444 2.103045 -0.56430811
-1.06199 2.1880233 -0.56576103
-1.1088785 2.2846279 -0.56853449
-1.1503019 2.3699732 -0.56682307
-1.1999388 2.47224 -0.56742752
-1.2467277 2.5686395 -0.56485331
-1.3021991 2.6829276 -0.56427157
-1.365925 2.8142223 -0.56499755
-1.4347374 2.9559968 -0.56530333
-1.5140767 3.1194601 -0.56693405
-1.5975834 3.2915092 -0.56702322
-1.6931278 3.4883597 -0.56797546
-1.7947911 3.6978173 -0.56722647
-1.9118671 3.9390297 -0.56718588
-2.0405991 4.204257 -0.56592584
-2.1966157 4.5256987 -0.56681311
-2.3866043 4.9171333 -0.56987691
-2.5868423 5.3296843 -0.56795943
-2.8418665 5.8551121 -0.5694055
-3.141336 6.4721107 -0.56920147
-3.5235794 7.2596483 -0.57101899
-4.0006914 8.2426453 -0.57185191
-4.6267271 9.5324697 -0.57297319
-5.4939952 11.319306 -0.57554311
-6.7406545 13.887805 -0.5776189
-8.7225695 17.971153 -0.58124501
-12.373835 25.493876 -0.58888584
-21.248817 43.779045 -0.60669833
-0.94338381 1.8843199 -0.56464344
-0.97730136 1.9520671 -0.56554079
-1.015615 2.028595 -0.56763458
-1.0453587 2.0880051 -0.56367898
-1.0888122 2.1747994 -0.56576085
-1.1317137 2.2604911 -0.56594825
-1.1841474 2.3652225 -0.56912631
-1.2235986 2.4440224 -0.56436169
-1.2808323 2.5583415 -0.56600928
-1.3407633 2.6780481 -0.56666988
-1.4008934 2.7981522 -0.56518692
-1.4709517 2.9380867 -0.5652945
-1.5501839 3.0963459 -0.56615478
-1.638909 3.2735655 -0.56736094
-1.7353319 3.4661613 -0.56779253
-1.8439335 3.6830828 -0.56840134
-1.9596586 3.9142327 -0.56704217
-2.0983388 4.1912332 -0.56760299
-2.2646542 4.5234327 -0.56997395
-2.4490716 4.891789 -0.57038671
-2.6604483 5.3139939 -0.56973052
-2.9163153 5.8250642 -0.56992763
-3.2361822 6.4639678 -0.57194185
-3.6166809 7.223978 -0.57166809
-4.1047425 8.1988354 -0.57227093
-4.7529039 9.4934759 -0.57409889
-5.6268539 11.239109 -0.57493997
-6.9128165 13.807697 -0.57777888
-8.9514523 17.879679 -0.58180249
-12.698575 25.364202 -0.5894528
-21.821642 43.58667 -0.60770488
-0.96589249 1.8714374 -0.56429952
-1.0003517 1.9382029 -0.56504512
-1.0427145 2.0202818 -0.56885314
-1.0734313 2.0797961 -0.56498349
-1.1257024 2.1810725 -0.57095051
-1.1570035 2.2417192 -0.56476766
-1.206574 2.3377628 -0.56604612
-1.2562361 2.4339843 -0.56556797
-1.3195989 2.556751 -0.56920439
-1.3700383 2.6544785 -0.56520462
-1.4374241 2.7850399 -0.56606579
-1.513247 2.9319487 -0.56765074
-1.5897112 3.0800993 -0.5667156
-1.6806978 3.2563879 -0.56792271
-1.7694992 3.4284425 -0.56513536
-1.8889439 3.6598692 -0.56836051
-2.0042617 3.8833003 -0.56608862
-2.1499474 4.1655693 -0.56766474
-2.3127289 4.4809618 -0.5681628
-2.5010018 4.8457446 -0.56856078
-2.7250628 5.2798676 -0.56962121
-2.984762 5.78304 -0.56936389
-3.3138294 6.4206157 -0.57166821
-3.697202 7.1634083 -0.57042944
-4.2053375 8.1479321 -0.57228404
-4.8675194 9.4309225 -0.57389224
-5.768744 11.177066 -0.57535136
-7.0839238 13.725254 -0.57793033
-9.175066 17.776886 -0.58208483
-13.023383 25.233084 -0.59008265
-22.406305 43.412697 -0.60907465
-0.99467915 1.870419 -0.56763756
-1.0313789 1.9394301 -0.56905723
-1.0665033 2.0054789 -0.56833476
-1.1043038 2.07656 -0.56775028
-1.1396143 2.1429586 -0.56459892
-1.1896509 2.2370489 -0.56723356
-1.2438004 2.3388727 -0.56997502
-1.296442 2.4378612 -0.57012999
-1.3501339 2.5388248 -0.56886649
-1.412127 2.6553984 -0.56905472
-1.4735796 2.7709551 -0.56684309
-1.5525908 2.9195299 -0.56889963
-1.6294142 3.0639904 -0.56739521
-1.7147175 3.2243967 -0.56597781
-1.8160945 3.4150286 -0.56656247
-1.9318076 3.6326184 -0.56777459
-2.059443 3.872627 -0.56818134
-2.2047057 4.1457825 -0.56861973
-2.3663092 4.4496655 -0.56784105
-2.5622358 4.8180909 -0.56896985
-2.7813728 5.2301617 -0.56790549
-3.0601571 5.7543941 -0.57020521
-3.3867209 6.3684726 -0.57069039
-3.7951851 7.1365585 -0.57196432
-4.3040633 8.0934658 -0.57213259
-4.9817371 9.3677807 -0.57373416
-5.9154716 11.123598 -0.57629979
-7.2588038 13.649632 -0.57846075
-9.4066505 17.688496 -0.5829339
-13.345522 25.095247 -0.59065223
-22.98691 43.225147 -0.61036289
-1.014558 1.8524897 -0.56593966
-1.043975 1.9062026 -0.56303179
-1.0823615 1.9762926 -0.56379271
-1.1249887 2.054126 -0.56535608
-1.169293 2.1350217 -0.56625313
-1.2169933 2.2221181 -0.56719935
-1.2602603 2.3011198 -0.56450862
-1.316447 2.4037116 -0.5658865
-1.3695906 2.500747 -0.5640654
-1.4454664 2.6392891 -0.56936848
-1.5016662 2.7419047 -0.56463504
-1.5875795 2.8987744 -0.56861621
-1.6719723 3.0528681 -0.56909978
-1.7573385 3.208739 -0.56697959
-1.8646295 3.4046426 -0.5686003
-1.9730116 3.6025381 -0.56682223
-2.1068385 3.8468935 -0.56816381
-2.2464924 4.1018891 -0.56634545
-2.424226 4.4264145 -0.56863505
-2.6188092 4.7817054 -0.56843281
-2.8497972 5.2034683 -0.5687691
-3.1337488 5.7219377 -0.5707643
-3.4651449 6.3270369 -0.57075232
-3.8805981 7.0856161 -0.57166266
-4.4074955 8.0476828 -0.57268405
-5.1051335 9.3215055 -0.57470125
-6.0438271 11.035474 -0.57554102
-7.4293199 13.565257 -0.57871276
-9.6279888 17.579824 -0.58321017
-13.667665 24.955902 -0.5912835
-23.559046 43.016655 -0.61146331
-1.040256 1.8451921 -0.5675751
-1.0730851 1.9034238 -0.56606567
-1.1113656 1.971325 -0.56623131
-1.1563381 2.0510967 -0.56839281
-1.1979737 2.1249495 -0.56744581
-1.2408718 2.2010415 -0.56567144
-1.2910298 2.2900112 -0.56563514
-1.3434751 2.3830378 -0.56486595
-1.4043616 2.4910374 -0.56572771
-1.4763699 2.6187646 -0.56881416
-1.5376786 2.7275133 -0.56552237
-1.6146296 2.8640079 -0.56564832
-1.7036411 3.0218954 -0.56718826
-1.7906443 3.1762204 -0.56508154
-1.909474 3.3869989 -0.56953198
-2.0184457 3.5802915 -0.56718421
-2.1517029 3.8166614 -0.56756353
-2.3081508 4.0941663 -0.56915486
-2.481745 4.4020853 -0.56938684
-2.6735325 4.7422752 -0.56761068
-2.9158831 5.1721535 -0.56922233
-3.2025809 5.6806941 -0.5705353
-3.537977 6.2756152 -0.56999511
-3.9725022 7.04637 -0.57239401
-4.5059438 7.9925814 -0.57266247
-5.2110476 9.2432852 -0.57378596
-6.1867275 10.973932 -0.57625544
-7.6011076 13.48274 -0.57913613
-9.8561964 17.482786 -0.58396745
-13.988958 24.813423 -0.59193856
-24.131325 42.803814 -0.61260939
-1.0640566 1.8343161 -0.56821144
-1.0914599 1.8815564 -0.56351119
-1.1362038 1.9586898 -0.56657225
-1.1801835 2.0345061 -0.56777388
-1.219308 2.1019523 -0.56526572
-1.2666625 2.1835861 -0.56514561
-1.3247097 2.2836533 -0.56804526
-1.3772429 2.3742146 -0.56674594
-1.4420398 2.4859176 -0.56854898
-1.4989121 2.5839591 -0.56521481
-1.5686964 2.7042594 -0.56465769
-1.6621761 2.8654082 -0.56991851
-1.7341354 2.9894578 -0.5650596
-1.8363377 3.1656432 -0.5671742
-1.9505951 3.3626106 -0.56942117
-2.0654562 3.5606182 -0.56804812
-2.1978536 3.7888567 -0.56740481
-2.3545594 4.0590005 -0.56824821
-2.5297179 4.3609543 -0.56804729
-2.7387359 4.7212782 -0.56908536
-2.9741061 5.1270304 -0.56823814
-3.2700357 5.6371808 -0.57016045
-3.6237385 6.2469249 -0.57139325
-4.057384 6.994482 -0.57218862
-4.6106272 7.9482126 -0.57350224
-5.3378386 9.2018452 -0.57524443
-6.3220286 10.898479 -0.57633191
-7.7706637 13.395766 -0.5794608
-10.075319 17.368738 -0.58425206
-14.319395 24.685057 -0.59303188
-24.702217 42.583897 -0.6137628
-1.0768019 1.8047893 -0.56312394
-1.1206543 1.8782887 -0.56661677
-1.153414 1.9331961 -0.56325787
-1.2053187 2.0201917 -0.56787235
-1.2477775 2.0913553 -0.56649923
-1.2917289 2.1650205 -0.56440884
-1.353421 2.2684205 -0.56835294
-1.4115129 2.3657863 -0.56883419
-1.4694343 2.4628663 -0.5673666
-1.5429751 2.5861254 -0.56979579
-1.5974737 2.6774688 -0.56312269
-1.6941344 2.839478 -0.56886148
-1.7737007 2.9728363 -0.56599754
-1.8761655 3.1445742 -0.5674898
-1.9854593 3.3277576 -0.5676105
-2.1104493 3.5372488 -0.56841701
-2.2455268 3.7636473 -0.56772172
-2.4051571 4.031198 -0.56845337
-2.5853219 4.3331656 -0.56852555
-2.7936387 4.6823182 -0.56848687
-3.0511811 5.1139755 -0.5709064
-3.3414526 5.6004891 -0.57056201
-3.6917591 6.1876254 -0.57007837
-4.1450963 6.9474478 -0.57246733
-4.7092919 7.8930759 -0.57365882
-5.4365726 9.1120453 -0.57376647
-6.4555044 10.81984 -0.5763275
-7.9352589 13.300004 -0.57949543
-10.292742 17.251297 -0.58451474
-14.629322 24.519684 -0.59333581
-25.266428 42.348156 -0.61479658
-1.0979145 1.7897879 -0.56261313
-1.1453902 1.8671813 -0.56747186
-1.1818181 1.9265652 -0.56551725
-1.2242287 1.9957017 -0.56517708
-1.2744569 2.0775821 -0.56697053
-1.3256172 2.1609821 -0.56756252
-1.376551 2.2440131 -0.56643575
-1.4383347 2.3447309 -0.56798124
-1.4950277 2.43715 -0.56563461
-1.5641857 2.5498896 -0.56600696
-1.6494406 2.6888695 -0.56974322
-1.7227385 2.8083575 -0.56682783
-1.8152213 2.9591205 -0.56759292
-1.9043987 3.1044946 -0.56444019
-2.0335252 3.3149929 -0.5696553
-2.1531799 3.5100505 -0.56825805
-2.2899313 3.7329788 -0.56730014
-2.4501064 3.9940913 -0.56742632
-2.6433275 4.3090749 -0.56958628
-2.854913 4.653995 -0.56926733
-3.1132534 5.0751343 -0.57080078
-3.4114325 5.5612168 -0.57079148
-3.7745371 6.1531391 -0.57113403
-4.2349601 6.903707 -0.5731107
-4.8037815 7.8309836 -0.57339579
-5.5530949 9.0524921 -0.57427275
-6.5993414 10.758052 -0.57731509
-8.1023369 13.208191 -0.57979214
-10.514849 17.140997 -0.58511412
-14.950007 24.371061 -0.59414291
-25.83313 42.112408 -0.61593908
-1.1290815 1.7908142 -0.56725711
-1.1537765 1.8299825 -0.56043589
-1.2110251 1.9207834 -0.56814831
-1.2550304 1.9905792 -0.5680539
-1.3012041 2.0638144 -0.56753689
-1.3569258 2.1521935 -0.56959349
-1.4038182 2.2265687 -0.56634694
-1.4664749 2.3259473 -0.56775635
-1.5323839 2.4304843 -0.56841785
-1.5990659 2.5362473 -0.5673005
-1.671322 2.6508512 -0.56599939
-1.7580863 2.7884665 -0.56713361
-1.8515215 2.9366622 -0.56760931
-1.9539835 3.0991752 -0.56779855
-2.0698841 3.2830029 -0.5684889
-2.2022324 3.4929178 -0.56982535
-2.3396695 3.7109041 -0.56827462
-2.5075445 3.9771674 -0.56935942
-2.6989353 4.2807288 -0.5701831
-2.9122279 4.6190281 -0.56932741
-3.1714356 5.0301523 -0.57008463
-3.48296 5.5242553 -0.5713504
-3.846633 6.1010699 -0.57064819
-4.315197 6.8442502 -0.57253653
-4.9076905 7.7839923 -0.57433033
-5.6781473 9.0059986 -0.5757091
-6.7280703 10.671262 -0.57705361
-8.2717943 13.119732 -0.58033013
-10.725262 17.011129 -0.58513868
-15.266746 24.214287 -0.59485251
-26.403961 41.878811 -0.61722457
-1.1406754 1.7608351 -0.56216139
-1.1821789 1.8249028 -0.56328952
-1.2298182 1.8984426 -0.56597042
-1.2784225 1.973472 -0.56761515
-1.3240093 2.0438433 -0.56647921
-1.3741335 2.1212187 -0.56582493
-1.4295412 2.2067506 -0.56573445
-1.5017065 2.3181505 -0.57031751
-1.5516376 2.3952281 -0.56459194
-1.6375608 2.5278659 -0.56988668
-1.7054244 2.6326253 -0.56654257
-1.7962939 2.7728982 -0.56841666
-1.8845735 2.9091735 -0.56673241
-1.9908645 3.0732524 -0.56749147
-2.1071498 3.2527597 -0.56769568
