# .PCD v0.7 - Point Cloud Data file format
VERSION 0.7
FIELDS x y z
SIZE 4 4 4
TYPE F F F
COUNT 1 1 1
WIDTH 1509
HEIGHT 1
VIEWPOINT 0 0 0 1 0 0 0
POINTS 1509
DATA ascii
35.886059 16.207146 -0.49091285
1.9090987 0.89062345 -0.56446755
1.9606855 0.91468948 -0.56049025
2.0291283 0.94661909 -0.56023985
2.1000154 0.979689 -0.55938876
2.1722581 1.0133914 -0.55759138
2.2614779 1.0550137 -0.55867237
2.3554406 1.0988487 -0.55924201
2.4514351 1.1436316 -0.55855209
2.5509348 1.1900496 -0.55687195
2.6694226 1.245326 -0.55733979
2.811801 1.3117477 -0.56039762
2.9455647 1.3741506 -0.55920321
3.0900393 1.44155 -0.55749452
3.2574811 1.5196642 -0.55707181
3.4513891 1.6101252 -0.55786067
3.6458192 1.7008297 -0.55517471
3.8885694 1.8140765 -0.55583966
4.1647124 1.9429013 -0.55651742
4.4445291 2.0734401 -0.55259067
4.8234763 2.2502248 -0.55494863
5.2245722 2.4373419 -0.55270076
5.7208428 2.6688597 -0.55229354
6.3088455 2.943172 -0.55079949
7.0206904 3.2752583 -0.54819906
7.9529748 3.7101831 -0.5477345
9.1403093 4.2640929 -0.54539764
10.735207 5.0081367 -0.54186612
13.011728 6.0701685 -0.53723747
16.520147 7.7068992 -0.53042102
22.585133 10.536305 -0.51789457
35.71484 16.661512 -0.49133611
1.8765538 0.90369976 -0.5580883
1.9496024 0.93887806 -0.5605799
2.0112581 0.96856993 -0.55855203
2.1002395 1.011421 -0.56271869
2.1620371 1.0411812 -0.55821186
2.2490697 1.0830939 -0.55885494
2.3333356 1.1236742 -0.55723214
2.4399166 1.1750008 -0.55917734
2.5298831 1.2183263 -0.55550474
2.6774247 1.2893785 -0.56227827
2.7822959 1.3398819 -0.55775875
2.9216006 1.4069674 -0.55789602
3.0647242 1.4758919 -0.5561595
3.2297809 1.555379 -0.55556345
3.4313595 1.652454 -0.55786532
3.6243832 1.7454093 -0.55513674
3.866056 1.8617927 -0.55585194
4.1400671 1.9937494 -0.55645812
4.4223557 2.1296923 -0.55304796
4.7756262 2.2998183 -0.55265522
5.2033348 2.5057917 -0.55367184
5.6900301 2.7401714 -0.55252999
6.2671185 3.0180821 -0.5503549
6.9928789 3.3675897 -0.54921931
7.9197588 3.813951 -0.5486353
9.0806456 4.3730044 -0.5450049
10.680805 5.1435995 -0.54227161
12.942739 6.2328887 -0.53751284
16.423258 7.9090166 -0.53039259
22.458 10.815192 -0.51798975
35.537457 17.113922 -0.49175376
1.8740838 0.93106842 -0.56071627
1.9387646 0.96320266 -0.56082684
2.0105181 0.9988507 -0.56171501
2.0728915 1.0298386 -0.55874205
2.1487658 1.0675339 -0.55813241
2.2348785 1.1103158 -0.55867898
2.329648 1.1573985 -0.55970794
2.4208152 1.2026914 -0.55814683
2.5315437 1.2577028 -0.559223
2.6443002 1.3137217 -0.55867213
2.7597342 1.3710707 -0.55657351
2.9138522 1.4476384 -0.55977327
3.0538428 1.5171875 -0.55752826
3.2228007 1.601128 -0.55770731
3.4077947 1.6930352 -0.55737668
3.6149533 1.7959542 -0.55703282
3.8538449 1.9146386 -0.55743915
4.1011829 2.0375192 -0.55455738
4.414659 2.193258 -0.55541611
4.7630234 2.3663299 -0.5545221
5.1777267 2.5723598 -0.5542708
5.6442041 2.8041117 -0.55138659
6.2390704 3.0996487 -0.55119723
6.9581704 3.4569066 -0.54979026
7.848361 3.8991644 -0.54696935
9.0322561 4.4873385 -0.54537117
10.613585 5.2729626 -0.54210979
12.862644 6.3903236 -0.53740925
16.337111 8.1164818 -0.53079349
22.33934 11.098465 -0.51836139
35.335823 17.555283 -0.49191353
1.8597643 0.95264262 -0.55989444
1.9233673 0.9852224 -0.55983496
1.9884441 1.0185573 -0.55900472
2.0594432 1.0549258 -0.5585714
2.1327863 1.0924948 -0.55742902
2.2335045 1.1440867 -0.56180984
2.31458 1.1856165 -0.55954808
2.4113293 1.2351753 -0.55941927
2.5238886 1.2928325 -0.56100124
2.6135433 1.338757 -0.55561
2.7561896 1.411826 -0.55931759
2.8750355 1.4727035 -0.55575317
3.0235968 1.5488021 -0.55544126
3.1963413 1.6372886 -0.55657041
3.3725297 1.7275389 -0.55504125
3.5932305 1.8405904 -0.55713093
3.8245587 1.9590857 -0.55664545
4.0752349 2.0874918 -0.55447769
4.3733959 2.240221 -0.55364859
4.7284751 2.4221063 -0.55392551
5.1513128 2.6387 -0.55487466
5.6260743 2.881891 -0.55303556
6.1991644 3.1754496 -0.55107969
6.9163914 3.542841 -0.5498898
7.815639 4.0034699 -0.5480783
8.9775372 4.5986385 -0.54544032
10.548038 5.4031096 -0.54211438
12.795184 6.5541835 -0.53791726
16.235727 8.3165617 -0.53078198
22.215303 11.37953 -0.51869094
35.157089 18.008808 -0.49247086
1.8416443 0.9721297 -0.55799586
1.9139748 1.0103101 -0.56067473
1.9971145 1.0541962 -0.56504375
2.048018 1.0810661 -0.55903584
2.1216168 1.1199158 -0.55806679
2.2054543 1.1641703 -0.55831271
2.2924981 1.2101173 -0.55776495
2.4020987 1.2679709 -0.56085259
2.5089991 1.3243994 -0.5612691
2.593807 1.369166 -0.55495143
2.7320099 1.4421177 -0.55796707
2.8721409 1.5160873 -0.55875504
3.0171313 1.5926219 -0.55780894
3.1843243 1.6808764 -0.55803472
3.3642313 1.7758421 -0.55722719
3.5521173 1.8750194 -0.55428928
3.7994647 2.0055842 -0.55654043
4.0644479 2.145458 -0.55655736
4.3556156 2.2991538 -0.5549348
4.6988363 2.4803262 -0.55398446
5.1101365 2.6974349 -0.55397028
5.5774002 2.9440844 -0.55176783
6.1679411 3.2558072 -0.55182129
6.8701253 3.6264617 -0.54971522
7.7787738 4.1061006 -0.54899228
8.9272146 4.7123165 -0.54586214
10.494051 5.5393863 -0.54279941
12.716051 6.7122903 -0.53801972
16.136564 8.5178413 -0.53092414
22.081945 11.656168 -0.51888454
34.955193 18.451435 -0.4927837
1.8376453 0.99910033 -0.56046414
1.8904316 1.0277995 -0.55743814
1.9614767 1.0664256 -0.55862862
2.0393825 1.1087818 -0.56035787
2.0982242 1.1407732 -0.55556136
2.2021511 1.1972767 -0.56116104
2.2956548 1.2481132 -0.56222445
2.3901269 1.2994764 -0.56174576
2.4818537 1.3493469 -0.55886608
2.5929277 1.4097362 -0.55842996
2.7069356 1.4717206 -0.55650008
2.8484712 1.5486712 -0.55781281
2.9932053 1.6273611 -0.55704296
3.1669726 1.7218357 -0.55866206
3.3337226 1.8124951 -0.55582345
3.5459535 1.927882 -0.55698454
3.7871099 2.0589952 -0.55839705
4.0294256 2.1907387 -0.55540848
4.3310275 2.3547151 -0.55544919
4.6683531 2.5381141 -0.55402821
5.0664163 2.754535 -0.5528608
5.5429611 3.0136254 -0.55198509
6.121078 3.3279388 -0.55124807
6.8348894 3.7160273 -0.55051041
7.7158933 4.1950159 -0.54815358
8.8610716 4.8176322 -0.54539877
10.42078 5.6656227 -0.54257196
12.627142 6.8651886 -0.53778905
16.033033 8.7169209 -0.53100437
21.947166 11.932347 -0.519126
34.761387 18.899248 -0.49329042
1.8274405 1.0228614 -0.56114537
1.8692725 1.0462757 -0.55495059
1.9475368 1.0900822 -0.55843383
2.0148606 1.1277649 -0.55738825
2.0945177 1.1723509 -0.55835474
2.1789715 1.2196215 -0.55903363
2.2688036 1.2699027 -0.55943042
2.3635867 1.3229551 -0.55928916
2.4798398 1.3880247 -0.56221342
2.5724468 1.439859 -0.55778998
2.7048049 1.513943 -0.55984682
2.8287132 1.5832974 -0.55771405
2.9687219 1.6616635 -0.55624706
3.1480625 1.7620447 -0.55910611
3.3296547 1.8636861 -0.55892384
3.521708 1.9711828 -0.55694133
3.7476773 2.0976632 -0.55634403
4.0000105 2.2389002 -0.55510676
4.306078 2.4102132 -0.55600828
4.6444097 2.5995853 -0.55493832
5.0407953 2.8214519 -0.55380899
5.5079641 3.0829372 -0.5522334
6.073359 3.3994021 -0.55067348
6.7750039 3.792129 -0.54940116
7.6713758 4.2938495 -0.54870045
8.8209362 4.9372854 -0.54662389
10.365834 5.802001 -0.54338467
12.547503 7.0231323 -0.53803456
15.940683 8.9223757 -0.5315392
21.824112 12.215468 -0.51972896
34.551434 19.339251 -0.49364832
1.821135 1.0489452 -0.56312728
1.8672414 1.0755017 -0.55823159
1.9339333 1.1139151 -0.55841845
2.010649 1.1581023 -0.56012034
2.0885332 1.2029623 -0.56066024
2.164674 1.2468182 -0.55925667
2.2437918 1.2923889 -0.55713958
2.3476865 1.3522305 -0.55941898
2.4440184 1.4077162 -0.55797446
2.5622029 1.4757886 -0.5594613
2.6841731 1.5460415 -0.55946904
2.8077929 1.6172446 -0.55746806
2.9614027 1.7057214 -0.55876333
3.1176672 1.7957273 -0.55758733
3.3002126 1.9008707 -0.55786306
3.5058177 2.0192959 -0.55831295
3.7188797 2.1420164 -0.55593705
3.9708014 2.2871192 -0.55491412
4.2706165 2.4598081 -0.55529302
4.6112576 2.6560118 -0.55483752
5.0143104 2.888164 -0.55475903
5.4670744 3.1489487 -0.55197418
6.0477767 3.4834244 -0.55219597
6.7256699 3.8738801 -0.54922193
7.6202044 4.3891177 -0.54885918
8.7546778 5.0425568 -0.54631907
10.281875 5.9221978 -0.54275978
12.467701 7.1811996 -0.53835839
15.824807 9.1148405 -0.53137249
21.678162 12.48628 -0.51987034
34.347794 19.783789 -0.49417716
1.7846308 1.0573528 -0.55581784
1.8527963 1.0977392 -0.55790639
1.9212575 1.1383009 -0.55875778
2.0007727 1.1854118 -0.56138718
2.0660455 1.2240845 -0.558622
2.1426835 1.2694907 -0.55756611
2.226934 1.3194072 -0.55694008
2.3316498 1.381449 -0.55960315
2.4439523 1.4479855 -0.5619818
2.5282712 1.4979426 -0.55603212
2.6701477 1.5820011 -0.56055796
2.77596 1.6446925 -0.55512118
2.9263287 1.7337824 -0.55612606
3.0801857 1.8249391 -0.55485529
3.2697225 1.9372354 -0.55669361
3.4732618 2.0578277 -0.55711597
3.7083385 2.1971052 -0.55835778
3.9564023 2.3440773 -0.55688787
4.2467675 2.5161123 -0.55617291
4.5738668 2.7099109 -0.55430609
4.9737058 2.9468064 -0.55423373
5.4420967 3.2243173 -0.55341351
5.9936028 3.5510716 -0.55119479
6.6889586 3.9630542 -0.5501619
7.5607233 4.4795547 -0.5485009
8.6808443 5.1432009 -0.54561698
10.208636 6.0483823 -0.54277873
12.385791 7.3382964 -0.53867716
15.730108 9.3197269 -0.53200048
21.522169 12.751391 -0.51985031
34.131329 20.222027 -0.49460298
1.7870079 1.0886664 -0.5606851
1.8467728 1.1250758 -0.56021607
1.9070026 1.1617684 -0.55872446
1.9771276 1.2044895 -0.5588662
2.0431204 1.244693 -0.55651963
2.1401994 1.3038348 -0.56104928
2.2181718 1.3513365 -0.55886221
2.3042967 1.4038048 -0.55713904
2.4116924 1.4692315 -0.55867583
2.5204496 1.5354878 -0.55842221
2.6535966 1.6166024 -0.56121409
2.7770979 1.6918409 -0.55946666
2.909893 1.7727413 -0.55710316
3.0865643 1.8803715 -0.56012708
3.2427521 1.9755229 -0.55619556
3.4443021 2.0983095 -0.55656737
3.673923 2.2381973 -0.55727768
3.9250283 2.3911736 -0.55656838
4.2186923 2.5700774 -0.55659282
4.5402293 2.7659614 -0.55430955
4.9287648 3.0026619 -0.55329835
5.4033251 3.2917695 -0.55354506
5.9575887 3.6294334 -0.55194533
6.6380801 4.0439968 -0.55002564
7.5062232 4.5728798 -0.548585
8.6264229 5.2553191 -0.54621685
10.13142 6.1721807 -0.54266751
12.302126 7.4946008 -0.53900576
15.615677 9.5132551 -0.53204644
21.396868 13.035225 -0.52065599
33.909847 20.658279 -0.49503711
1.7786481 1.1137881 -0.56231672
1.8263128 1.1436356 -0.5582332
1.8880961 1.1823244 -0.55740255
1.9686091 1.2327416 -0.56070071
2.0336523 1.2734715 -0.55816382
2.1288469 1.3330823 -0.56232792
2.2085402 1.3829862 -0.56067771
2.2977731 1.4388638 -0.55979729
2.3878603 1.4952763 -0.55737221
2.4928055 1.560993 -0.55650812
2.6105106 1.6346997 -0.55631089
2.7574904 1.7267383 -0.55975175
2.8959651 1.8134512 -0.55866355
3.0560701 1.9137088 -0.55882132
3.236614 2.0267651 -0.55937511
3.4127378 2.137054 -0.55567116
3.640367 2.2795951 -0.55639756
3.9003057 2.4423685 -0.55727917
4.1829782 2.6193779 -0.55608833
4.5081706 2.8230131 -0.55459166
4.9023423 3.0698431 -0.55452788
5.3660402 3.3602102 -0.55391639
5.9111233 3.7015409 -0.55181563
6.5798326 4.1202865 -0.5493558
7.4437013 4.6612401 -0.54816312
8.5626736 5.3619399 -0.54631376
10.075624 6.3093486 -0.54379338
12.212972 7.6477537 -0.53917909
15.512024 9.7136183 -0.5325442
21.232456 13.295749 -0.5205943
33.694576 21.099518 -0.49564457
1.7701215 1.1389853 -0.56400621
1.8072031 1.1628454 -0.55672067
1.8858391 1.2134438 -0.56109881
1.9575603 1.2595928 -0.56192273
2.0386839 1.3117919 -0.56392944
2.0921314 1.3461827 -0.55696005
2.1991801 1.4150631 -0.56267631
2.277879 1.4657019 -0.55929917
2.3796022 1.5311557 -0.55979705
2.4814119 1.5966653 -0.55830538
2.6019928 1.6742531 -0.55884075
2.7248471 1.7533038 -0.55745971
2.8742561 1.8494411 -0.55882055
3.0193276 1.9427873 -0.55642903
3.2005317 2.0593832 -0.55747348
3.3887379 2.1804845 -0.55608708
3.6099288 2.3228099 -0.55606884
3.8746953 2.4931738 -0.55795807
4.1386552 2.6630189 -0.55450726
4.4715533 2.8772225 -0.55439752
4.8649569 3.1303582 -0.55461115
5.3150215 3.4199524 -0.55294919
5.8545456 3.7671094 -0.55081666
6.5419693 4.2094321 -0.55047452
7.3916645 4.7561688 -0.54859644
8.4912519 5.4636989 -0.54600215
9.9915686 6.4290781 -0.54348242
12.119016 7.7979846 -0.53922361
15.382257 9.8977175 -0.53222722
21.089382 13.56997 -0.52113813
33.45956 21.529566 -0.49604434
1.7481776 1.1555043 -0.56149912
1.8014435 1.1907119 -0.55941451
1.8717154 1.23716 -0.56138039
1.9443997 1.2852026 -0.56263888
2.0125573 1.3302531 -0.56118464
2.0703905 1.3684795 -0.55561
2.171545 1.4353404 -0.56007916
2.257648 1.4922525 -0.55879492
2.35412 1.5560181 -0.55826133
2.4603255 1.6262174 -0.55801803
2.5820179 1.7066532 -0.55901557
2.7092578 1.7907557 -0.55873305
2.8600836 1.8904481 -0.56054217
3.0042629 1.9857473 -0.55811048
3.1712284 2.0961075 -0.55681676
3.3642821 2.2237117 -0.55651891
3.5816963 2.3674173 -0.55616206
3.8398433 2.5380464 -0.55739141
4.109664 2.7163913 -0.55505627
4.436202 2.9322255 -0.554443
4.8304772 3.1928322 -0.55511421
5.2885509 3.4956081 -0.55462515
5.8325472 3.8551767 -0.55316514
6.4968724 4.2942801 -0.55108142
7.3447375 4.8546991 -0.54950255
8.4273109 5.5702553 -0.54625362
9.9178152 6.5554433 -0.54381418
12.038355 7.9570699 -0.53994733
15.27199 10.094427 -0.5326665
20.927702 13.83272 -0.52130663
33.212448 21.95265 -0.49634522
1.7371433 1.1791555 -0.56256956
1.7890953 1.21442 -0.56017488
1.851985 1.2571089 -0.56005663
1.9149666 1.2998601 -0.55870485
1.9951714 1.3543024 -0.56093794
2.072552 1.4068274 -0.56079
2.1512876 1.4602726 -0.5594433
2.2391081 1.5198841 -0.55878961
2.3358762 1.5855695 -0.55851632
2.4450548 1.6596788 -0.55914098
2.5540271 1.7336481 -0.55752867
2.6945543 1.8290365 -0.56029665
2.8309143 1.9215963 -0.55941403
2.9722395 2.0175264 -0.55672807
3.1432133 2.1335816 -0.55646223
3.3496313 2.2736962 -0.55867797
3.546042 2.4070177 -0.55517966
3.8132153 2.5883725 -0.55810398
4.0789876 2.7687762 -0.55546945
4.3970432 2.984669 -0.5540939
4.7809143 3.2452369 -0.55396241
5.2295156 3.5497427 -0.55296981
5.7762752 3.9208777 -0.55235904
6.4471784 4.3762803 -0.5513891
7.2845674 4.9446917 -0.54950827
8.3644199 5.6776843 -0.54666114
9.8361139 6.6766558 -0.54379487
11.935448 8.1016626 -0.53975916
15.146475 10.281276 -0.53265792
20.777231 14.103377 -0.5218389
32.976398 22.384048 -0.49689338
1.7149464 1.1951519 -0.56009817
1.792781 1.2493951 -0.56609637
1.8312515 1.2762053 -0.5584901
1.908186 1.3298211 -0.56145495
1.9637991 1.3685781 -0.55680692
2.0398867 1.4216038 -0.55663931
2.1301949 1.4845399 -0.55866301
2.2164507 1.5446517 -0.55783314
2.3191075 1.6161939 -0.55921638
2.4198833 1.6864246 -0.55808467
2.5401993 1.7702733 -0.55921972
2.6595807 1.8534707 -0.55772132
2.8056896 1.9552944 -0.5591383
2.9635606 2.0653152 -0.55981702
3.1242383 2.1772921 -0.55780059
3.307173 2.30478 -0.55628133
3.5170717 2.4510589 -0.55532068
3.7667575 2.6250658 -0.5559867
4.0458622 2.8195748 -0.5556379
4.3640513 3.041322 -0.55460715
4.7468286 3.3080807 -0.55468428
5.1882901 3.6157365 -0.55327004
5.7136598 3.9818685 -0.55101186
6.3788438 4.4454374 -0.55017823
7.2204938 5.0319862 -0.54930097
8.2994947 5.7839456 -0.54702479
9.751174 6.7956257 -0.54367763
11.832745 8.2462797 -0.53965944
15.047937 10.486958 -0.53368717
20.617838 14.36864 -0.52223366
32.739716 22.816416 -0.49751693
1.69836 1.2148875 -0.55951774
1.7626144 1.2608505 -0.56142396
1.8130707 1.2969434 -0.55776685
1.8938533 1.3547298 -0.56209677
1.9601151 1.4021287 -0.56060851
2.0323136 1.4537746 -0.55940855
2.1175964 1.5147798 -0.56020159
2.2146833 1.5842289 -0.56224865
2.3018544 1.646585 -0.55989599
2.4033575 1.7191933 -0.55910665
2.5287776 1.8089099 -0.56155962
2.6466022 1.8931932 -0.55983913
2.7698836 1.9813803 -0.55681598
2.9116244 2.0827715 -0.55480218
3.0954757 2.2142861 -0.55748445
3.285552 2.3502533 -0.55746347
3.4965672 2.5011988 -0.55689728
3.7302134 2.6683326 -0.55539376
4.013763 2.8711641 -0.55603617
4.3260298 3.094538 -0.55456913
4.6991963 3.3614752 -0.5539065
5.1435738 3.6793516 -0.55328447
5.6828146 4.0650868 -0.55281603
6.33709 4.5331092 -0.55134302
7.1559963 5.1188974 -0.54914129
8.2394819 5.8939471 -0.54780477
9.6743727 6.9203672 -0.54409897
11.738873 8.3971653 -0.54004663
14.920845 10.673326 -0.53379411
20.451509 14.629574 -0.52253771
32.494896 23.244566 -0.49810243
1.6960307 1.2450278 -0.5637514
1.7390425 1.276602 -0.55887371
1.8073933 1.3267772 -0.56099689
1.8758873 1.3770576 -0.56174767
1.9409554 1.4248229 -0.56009734
2.0050006 1.4718374 -0.55683005
2.0969391 1.5393279 -0.55970186
2.1805861 1.6007317 -0.55854714
2.2744739 1.6696533 -0.55818778
2.3903296 1.754701 -0.56105292
2.4984095 1.8340406 -0.55978161
2.613533 1.9185508 -0.55779213
2.7553062 2.0226243 -0.55884302
2.9086092 2.1351614 -0.55918819
3.0572839 2.2443011 -0.55553436
3.250886 2.386421 -0.5565185
3.4680066 2.5458057 -0.5572921
3.7060897 2.7205784 -0.55674076
3.9800794 2.9217098 -0.55630487
4.2870784 3.1470726 -0.55449462
4.6688075 3.4272935 -0.55525005
5.0874505 3.7346122 -0.55214536
5.6247725 4.1290512 -0.55206716
6.2683244 4.6014719 -0.55024135
7.0885143 5.2035599 -0.54883152
8.1540127 5.9857244 -0.54697448
9.5810003 7.0332518 -0.54367048
11.638183 8.543395 -0.54020649
14.788173 10.85575 -0.5337829
20.277523 14.885391 -0.52272946
32.234455 23.662775 -0.49853271
1.6788952 1.2645077 -0.56318146
1.7298101 1.3028557 -0.5610128
1.8006539 1.3562137 -0.56403869
1.8610374 1.4016931 -0.56241965
1.9151499 1.4424496 -0.55772686
1.9943731 1.5021188 -0.55896604
2.0772021 1.5645037 -0.55952632
2.1778321 1.6402961 -0.56296557
2.260812 1.7027949 -0.55993116
2.3668985 1.7826968 -0.56065607
2.4670775 1.8581494 -0.55783874
2.5951309 1.9545965 -0.55895197
2.7256691 2.0529151 -0.55790973
2.8635781 2.1567852 -0.55558753
3.0389545 2.2888749 -0.55727583
3.231416 2.4338329 -0.55826652
3.4310741 2.5842109 -0.55642152
3.6878247 2.77759 -0.55908549
3.9467423 2.9726012 -0.55671215
4.2530565 3.2033103 -0.55514693
4.618237 3.4783564 -0.55428064
5.0450368 3.799813 -0.55257148
5.5768094 4.2003326 -0.55238718
6.2263198 4.6895294 -0.55157435
7.0370455 5.3001509 -0.549851
8.0857086 6.0899811 -0.54737461
9.5012903 7.156167 -0.54409951
11.532099 8.6857281 -0.54019904
14.663049 11.043892 -0.53412789
20.117207 15.151846 -0.52336013
31.967388 24.077147 -0.49894345
1.6555229 1.2791076 -0.56057501
1.7126359 1.3232348 -0.56067747
1.7704713 1.3679203 -0.55981082
1.8249402 1.4100046 -0.55670846
1.9168229 1.4809959 -0.56347483
1.9791203 1.5291288 -0.5599187
2.0563331 1.5887858 -0.55912513
2.150722 1.6617136 -0.56119722
2.243212 1.7331741 -0.56080806
2.3353732 1.8043807 -0.55840194
2.4500196 1.89296 -0.55920261
2.5652487 1.9819895 -0.55772293
2.7040696 2.0892467 -0.55870485
2.8568909 2.2073212 -0.55951393
3.0065513 2.3229532 -0.5565297
3.2007508 2.4729979 -0.55818009
3.3903735 2.6195061 -0.55500275
3.6381853 2.8109729 -0.55675805
3.9021199 3.0148971 -0.55560523
4.2226772 3.2625694 -0.55637604
4.5669055 3.5285308 -0.55328554
5.0065732 3.8682313 -0.55352652
5.5220637 4.2665148 -0.55211931
6.1673903 4.7651143 -0.55150294
6.9665103 5.3825388 -0.54946965
8.0182991 6.1951833 -0.54792684
9.4205456 7.2786012 -0.54455978
11.439327 8.8383732 -0.54090339
14.527722 11.224562 -0.53418571
19.930393 15.39883 -0.52338654
31.70389 24.495394 -0.49949422
1.642874 1.3019052 -0.56167024
1.7078518 1.3533971 -0.56451678
1.759023 1.3939481 -0.56156826
1.8258728 1.4469236 -0.56237799
1.8846335 1.4934888 -0.55936855
1.9641541 1.5565054 -0.56105697
2.0466447 1.6218756 -0.56187099
2.1267703 1.6853716 -0.56031263
2.2117052 1.7526786 -0.55827707
2.3170934 1.8361942 -0.55938756
2.4229438 1.9200761 -0.55836946
2.5408258 2.0134923 -0.5577538
2.6698375 2.1157284 -0.55696517
2.8099461 2.2267582 -0.5556404
2.9938395 2.3724856 -0.55953455
3.167026 2.5097282 -0.55763847
3.3847759 2.6822853 -0.55944335
3.6069219 2.8583264 -0.55731034
3.8529079 3.0532594 -0.55390203
4.1769147 3.3100204 -0.55566722
4.5186038 3.5807941 -0.55272639
4.9523425 3.9245126 -0.55282438
5.4804497 4.3430142 -0.55325627
6.1068335 4.839396 -0.5513674
6.9026017 5.4700074 -0.54969257
7.9321213 6.2858558 -0.54727834
9.3352232 7.3977523 -0.54484481
11.314801 8.9664803 -0.54018784
14.401073 11.412214 -0.5346483
19.754587 15.654638 -0.52378523
31.446638 24.920073 -0.50023121
1.6222322 1.3183416 -0.56011307
1.6781757 1.3638053 -0.56020844
1.7508708 1.4228824 -0.56450874
1.8052508 1.4670755 -0.56154019
1.8714899 1.5209062 -0.56097585
1.9452355 1.5808371 -0.56116307
2.0304377 1.6500785 -0.56294942
2.0885973 1.6973431 -0.5557124
2.1894784 1.7793263 -0.55814725
2.2931991 1.8636172 -0.55910909
2.4026494 1.9525644 -0.5591833
2.5366268 2.0614438 -0.56235391
2.6538794 2.1567318 -0.55912632
2.7877605 2.265533 -0.55672002
2.9522853 2.3992376 -0.55723995
3.1431611 2.5543568 -0.55892467
3.3370008 2.711885 -0.55701649
3.5699024 2.9011574 -0.5570603
3.8362684 3.1176252 -0.55697906
4.1326528 3.3584883 -0.55523086
4.4882569 3.6474776 -0.55445862
4.9202209 3.9985225 -0.55468529
5.4142327 4.399992 -0.55199182
6.0465269 4.9138389 -0.55133623
6.8331246 5.5530844 -0.54955596
7.8605466 6.388041 -0.54771823
9.238286 7.5076904 -0.54453409
11.221622 9.1194906 -0.54105204
14.275485 11.601277 -0.53524148
19.579023 15.91131 -0.52427828
31.157265 25.320616 -0.50054306
1.6108855 1.3423427 -0.56185198
1.6583263 1.3818749 -0.55921239
1.7204366 1.4336309 -0.5603376
1.7841773 1.4867458 -0.56062943
1.8454076 1.5377687 -0.55878347
1.9146286 1.5954503 -0.55795097
1.9941961 1.6617534 -0.55852431
2.0720401 1.7266206 -0.55691391
2.1783273 1.8151891 -0.56095213
2.2696574 1.8912939 -0.55899721
2.3766725 1.980469 -0.55876309
2.48949 2.0744793 -0.55751699
2.6086621 2.1737847 -0.55518931
2.7719016 2.3098116 -0.55918276
2.9265678 2.438694 -0.55800372
3.1083062 2.5901356 -0.55834806
3.3040955 2.7532859 -0.55713302
3.5378418 2.9480655 -0.55767202
3.7883224 3.1567898 -0.55561173
4.0897198 3.4079425 -0.55505091
4.4466596 3.7053785 -0.55490655
4.860024 4.0498333 -0.55347115
5.3738589 4.4780092 -0.5534476
5.9909544 4.9922318 -0.55182469
6.7719145 5.6430016 -0.55017215
7.7782836 6.4816041 -0.54749835
9.1513205 7.6257486 -0.54489392
11.111984 9.2595596 -0.5412147
14.134066 11.777845 -0.53532875
19.389387 16.157078 -0.52448064
30.886932 25.737923 -0.50124657
1.5956364 1.3632247 -0.5623374
1.6510804 1.4105932 -0.56257552
1.7004446 1.4527671 -0.5596022
1.7598153 1.5034903 -0.55874133
1.8267026 1.5606351 -0.55888814
1.9026287 1.6255022 -0.56023639
1.9881008 1.698525 -0.56262428
2.0610013 1.7608073 -0.55972409
2.1520133 1.8385628 -0.55995542
2.240901 1.9145038 -0.55767077
2.3451662 2.0035822 -0.55710596
2.4657376 2.1065919 -0.55795658
2.6002491 2.2215111 -0.55917025
2.7393391 2.340342 -0.55837703
2.8927388 2.4713984 -0.55730575
3.0618699 2.6158948 -0.55574268
3.2614582 2.7864122 -0.55567896
3.4954662 2.986336 -0.55673867
3.7560196 3.2089386 -0.55661911
4.0490808 3.4593141 -0.55526656
4.3929954 3.7531359 -0.55392706
4.8078017 4.1075234 -0.5532341
5.3125067 4.5387158 -0.55283505
5.9249315 5.0619388 -0.55143493
6.7137103 5.7358279 -0.5511319
7.7033458 6.5813189 -0.5478785
9.0671968 7.7465191 -0.54551548
11.001698 9.399251 -0.54143149
13.989919 11.952224 -0.53539515
19.204617 16.407377 -0.52490038
30.60297 26.14551 -0.50181776
1.5813307 1.3849975 -0.56325513
1.6335953 1.4307733 -0.56256992
1.6903932 1.4805192 -0.56224304
1.7459781 1.5292028 -0.56027585
1.8079841 1.5835104 -0.55907631
1.8843806 1.6504217 -0.56079656
1.9569848 1.7140115 -0.55974078
2.0410917 1.787676 -0.56024456
2.1232898 1.8596687 -0.55838943
2.2199578 1.9443346 -0.55836642
2.3215225 2.0332894 -0.55738658
2.4528353 2.148299 -0.56097227
2.5718291 2.2525187 -0.55897272
2.7133403 2.3764603 -0.55899185
2.8670437 2.5110805 -0.55826199
3.0400693 2.6626236 -0.55768621
3.2367201 2.8348589 -0.55736113
3.4448993 3.0171914 -0.5545519
3.7221539 3.2600226 -0.55749887
4.0121088 3.5139775 -0.55607986
4.3460703 3.8064754 -0.55387014
4.7591319 4.1682529 -0.55348974
5.2579508 4.6051397 -0.55300874
5.8553834 5.128397 -0.55078954
6.6421919 5.8175178 -0.55109161
7.6263547 6.6794901 -0.54820281
8.9729481 7.8588948 -0.54561794
10.898406 9.5452938 -0.5420835
13.851858 12.132054 -0.53578031
19.005669 16.645985 -0.52501756
30.316164 26.552202 -0.50243068
1.562562 1.4028817 -0.56267184
1.6060001 1.4418809 -0.55913031
1.6665058 1.4962035 -0.56037486
1.7246741 1.5484276 -0.55950713
1.7948039 1.6113906 -0.56108534
1.8636633 1.6732132 -0.56071174
1.9284698 1.731397 -0.55763209
2.0136766 1.8078966 -0.55877936
2.1122775 1.8964212 -0.56158346
2.2067258 1.9812177 -0.56112349
2.3053329 2.0697482 -0.55956781
2.4254303 2.1775725 -0.56078607
2.5405724 2.2809482 -0.55823302
2.6837468 2.4094915 -0.55895674
2.8321986 2.5427728 -0.55752313
3.0017023 2.6949546 -0.55668503
3.1966641 2.869993 -0.55649853
3.4191439 3.0697372 -0.55644023
3.6842093 3.3077154 -0.55786538
3.9708517 3.5650654 -0.55639553
4.2924714 3.8538182 -0.55303687
4.7069106 4.2259054 -0.55341792
5.2038026 4.6720195 -0.55331415
5.8078556 5.2143435 -0.55230838
6.5573444 5.8872409 -0.55001664
7.5605006 6.7878838 -0.54942733
8.8777962 7.9705629 -0.54575038
10.778564 9.6770897 -0.54200035
13.708994 12.308055 -0.53606778
18.825411 16.901619 -0.52573943
30.02742 26.958879 -0.50310123
1.5376453 1.4150409 -0.55992281
1.598785 1.4713056 -0.56287456
1.6466907 1.5153916 -0.55993539
1.7096473 1.5733284 -0.56086606
1.7755049 1.6339347 -0.56129074
1.8457657 1.6985933 -0.56156856
1.909959 1.7576681 -0.55848694
1.9915253 1.8327308 -0.55884391
2.0767643 1.9111731 -0.55834752
2.1730466 1.9997784 -0.55877012
2.2803841 2.0985572 -0.55973327
2.3900616 2.1994896 -0.55881953
2.5176294 2.3168859 -0.5594095
2.6435013 2.4327214 -0.55676281
2.8029561 2.5794618 -0.55796832
2.9692903 2.7325335 -0.55686331
3.177603 2.9242363 -0.55939776
3.380625 3.1110702 -0.55635524
3.6321564 3.3425457 -0.5561651
3.9206312 3.6080189 -0.55553317
4.2563648 3.9169829 -0.55454856
4.6650562 4.293087 -0.55466175
5.1517038 4.740932 -0.5539313
5.7452307 5.2871337 -0.55249369
6.4998155 5.9815516 -0.55131894
7.4594479 6.8646674 -0.54817653
8.7801886 8.0800982 -0.54581666
10.659786 9.8098269 -0.54205233
13.571484 12.489359 -0.53665543
18.62916 17.143761 -0.52610618
29.727381 27.357063 -0.50367224
1.5215311 1.4351614 -0.56043875
1.5738035 1.4844666 -0.56046355
1.6328936 1.5402024 -0.56164134
1.6891612 1.5932759 -0.56053025
1.7565924 1.6568794 -0.56171024
1.8226712 1.7192072 -0.56093156
1.9078677 1.7995675 -0.56430328
1.9705768 1.858717 -0.55933672
2.0587792 1.9419125 -0.55988973
2.1493709 2.0273616 -0.5590502
2.2481663 2.1205492 -0.55818337
2.3597426 2.2257919 -0.55808771
2.4977438 2.3559594 -0.56138563
2.6184936 2.4698546 -0.55785012
2.7718894 2.614543 -0.55814171
2.9481971 2.7808425 -0.55927807
3.130698 2.9529839 -0.55749059
3.3427243 3.1529746 -0.55645633
3.5876367 3.3839843 -0.55567771
3.8726342 3.6528041 -0.55505472
4.2093849 3.970439 -0.55474663
4.6049628 4.3435616 -0.55382526
5.0806608 4.7922573 -0.55258685
5.6904278 5.3674102 -0.55352867
6.4164662 6.0522351 -0.55052
7.375052 6.9564071 -0.54821914
8.6970797 8.2033892 -0.54687959
10.552511 9.9534979 -0.54278004
13.411899 12.650572 -0.53645563
18.42284 17.377068 -0.5262742
29.420473 27.75042 -0.50421572
1.5095406 1.4593396 -0.56258941
1.5575293 1.5057324 -0.56121922
1.6189231 1.5650845 -0.56341296
1.6706582 1.6150991 -0.56093818
1.7258716 1.6684763 -0.55840492
1.8090754 1.748913 -0.5633232
1.8696964 1.8075181 -0.55954474
1.9549412 1.889928 -0.56145263
2.0293121 1.9618257 -0.55839437
2.1300795 2.059242 -0.5605762
2.225688 2.1516709 -0.55912912
2.3369894 2.2592709 -0.55923456
2.4589434 2.3771694 -0.55919248
2.5886428 2.5025556 -0.55800438
2.737541 2.6465018 -0.55773586
2.9123914 2.8155375 -0.5590111
3.0994549 2.9963801 -0.55844593
3.3121796 3.2020304 -0.55788392
3.5532842 3.4351168 -0.55685723
3.833508 3.7060215 -0.55593646
4.1686172 4.0299869 -0.55586267
4.5480657 4.3968158 -0.5534429
5.0367365 4.8692355 -0.55427974
5.6171556 5.4303527 -0.55285478
6.3508315 6.1396294 -0.55132443
7.301002 7.0582013 -0.54912472
8.5879707 8.302371 -0.54639691
10.42695 10.080194 -0.54265618
13.269304 12.828022 -0.53702074
18.216288 17.610491 -0.52651989
29.118124 28.149776 -0.50492811
1.486817 1.4731667 -0.56082934
1.5507312 1.536494 -0.56553471
1.6013101 1.5866086 -0.56403041
1.6500334 1.6348845 -0.56072062
1.7099061 1.6942075 -0.55993736
1.772243 1.7559721 -0.5585354
1.8578389 1.8407822 -0.56272763
1.9272902 1.9095958 -0.56021273
2.0069168 1.9884914 -0.55891782
2.0990088 2.0797379 -0.55908722
2.2015426 2.1813304 -0.55975944
2.316514 2.2952464 -0.56104618
2.4275534 2.405266 -0.55873775
2.5596995 2.5361991 -0.55844557
2.7047579 2.6799257 -0.55772853
2.8680925 2.8417606 -0.55717331
3.0588894 3.0308061 -0.55780971
3.2744172 3.244355 -0.55820072
3.5086718 3.476459 -0.55652303
3.7922461 3.7574296 -0.55661094
4.1116424 4.0738935 -0.55490327
4.5007086 4.4593878 -0.55431092
4.967454 4.9218478 -0.55327374
5.5518146 5.500844 -0.55303937
6.2643485 6.2068357 -0.55040073
7.218576 7.1523027 -0.5494985
8.4969778 8.4189672 -0.54715282
10.31147 10.216801 -0.54314339
13.12377 13.003282 -0.5375613
18.030161 17.864628 -0.52744961
28.80279 28.538353 -0.50550699
1.4633915 1.4860563 -0.55884367
1.5263598 1.5499997 -0.56355494
1.5731931 1.5975584 -0.56100363
1.6294899 1.6547271 -0.56061161
1.6881191 1.7142643 -0.5596633
1.761561 1.7888438 -0.56205875
1.8371594 1.8656129 -0.56336987
1.8979224 1.9273171 -0.55852282
1.9859825 2.016741 -0.55995178
2.074404 2.1065321 -0.55939072
2.1838312 2.2176538 -0.56214708
2.2836924 2.3190618 -0.55996108
2.4000981 2.4372704 -0.55927426
2.5205791 2.5596175 -0.5567354
2.6779253 2.7194004 -0.55904847
2.8406365 2.8846316 -0.55868804
3.0174196 3.0641527 -0.5570761
3.239675 3.2898505 -0.5591321
3.4719107 3.5256829 -0.55752653
3.7512014 3.8092992 -0.55741954
4.0602055 4.1230888 -0.55476177
4.4521308 4.5210848 -0.55513299
4.9146347 4.9907517 -0.55418408
5.4753828 5.5601845 -0.5521946
6.1935945 6.2895193 -0.55093759
7.1320238 7.2424831 -0.54964757
8.3920422 8.5220165 -0.54710209
10.183822 10.341547 -0.54307681
12.973677 13.17461 -0.53800839
17.808743 18.084562 -0.52743775
28.484144 28.925301 -0.50611866
1.4531398 1.5123994 -0.56198812
1.5006552 1.5618526 -0.56111288
1.557355 1.6208646 -0.56242067
1.6161158 1.6820216 -0.56308353
1.6685758 1.736621 -0.56022137
1.7369395 1.8077726 -0.56125301
1.8010074 1.8744532 -0.5593096
1.879694 1.9563487 -0.56019545
1.9598641 2.0397882 -0.55961728
2.0528526 2.1365688 -0.56062138
2.1398852 2.2271507 -0.5578422
2.2399843 2.3313317 -0.55623102
2.3731384 2.4699159 -0.56002688
2.5014951 2.6035073 -0.55954903
2.6387227 2.7463307 -0.55787224
2.8024549 2.9167402 -0.55819041
2.9863052 3.108088 -0.5583455
3.1692491 3.2984924 -0.55393565
3.4250541 3.564729 -0.55699891
3.7005692 3.85148 -0.55689114
4.0080891 4.1715407 -0.55460769
4.4072375 4.5869665 -0.55652612
4.8540616 5.052012 -0.55431682
5.4058628 5.6263161 -0.55211896
6.1241403 6.3738852 -0.55168957
7.0425053 7.3297019 -0.54965311
8.2861862 8.6240997 -0.54707313
10.056929 10.467054 -0.5431326
12.808611 13.330952 -0.53792036
17.603598 18.32148 -0.52799445
28.157915 29.306208 -0.50668687
1.4396183 1.5356823 -0.5640192
1.47962 1.5783533 -0.56046212
1.5272368 1.6291475 -0.55873621
1.5888964 1.6949216 -0.56081903
1.6487163 1.7587333 -0.56077218
1.7075664 1.8215103 -0.55895698
1.7761801 1.8947026 -0.55879247
1.8555921 1.9794135 -0.560224
1.9425652 2.0721903 -0.56191105
2.0276215 2.1629221 -0.56095177
2.1267929 2.2687111 -0.56165916
2.2274318 2.3760655 -0.56032681
2.3344831 2.4902604 -0.55808878
2.4776711 2.6430032 -0.5614472
2.5973434 2.7706611 -0.55628479
2.760776 2.9449995 -0.55705965
2.9497895 3.1466255 -0.55871022
3.1522446 3.3625901 -0.55814832
3.3844302 3.6102691 -0.5575698
3.6514568 3.8951142 -0.55666602
3.9672282 4.2319565 -0.55611223
4.3343506 4.6235762 -0.55445957
4.7917795 5.1115294 -0.55434018
5.3415623 5.697998 -0.55266589
6.0512924 6.4550877 -0.55223578
6.9484625 7.4121251 -0.54938525
8.180727 8.7266178 -0.54715377
9.9333124 10.59615 -0.54345214
12.648872 13.492917 -0.5381391
17.401508 18.562691 -0.52873927
27.851717 29.710228 -0.50771254
1.4071646 1.5385473 -0.55867416
1.460727 1.5971106 -0.5607022
1.5156875 1.6572026 -0.56192356
1.5606966 1.7064141 -0.55822951
1.6309193 1.7831933 -0.56213444
1.6907264 1.8485844 -0.56084293
1.761441 1.9259013 -0.56156337
1.8315446 2.0025504 -0.56035578
1.9088988 2.087127 -0.55955404
1.9959799 2.1823385 -0.55957973
2.0923214 2.2876751 -0.55994225
2.1891868 2.3935847 -0.55806786
2.3000696 2.5148201 -0.55721229
2.4273612 2.6539967 -0.55739981
2.5771747 2.8177974 -0.5593437
2.7296462 2.9845049 -0.55814111
2.9070625 3.1784863 -0.55797809
3.1130621 3.4037194 -0.55857909
3.3398275 3.6516571 -0.55757707
3.5985353 3.9345195 -0.55593175
3.9249587 4.29142 -0.55754191
4.2827444 4.6826115 -0.5551818
4.7163959 5.1567516 -0.55291319
5.2747955 5.7672873 -0.55305356
5.9650655 6.5220051 -0.55164385
6.8518825 7.491622 -0.5489912
8.0736589 8.8274727 -0.54721135
9.8156614 10.73212 -0.54419428
12.49836 13.665294 -0.53884381
17.187668 18.792429 -0.52922314
27.514839 30.083815 -0.50827652
1.3943955 1.5627425 -0.56119138
1.441203 1.6152011 -0.56078935
1.4881498 1.6678159 -0.55927521
1.5438144 1.730201 -0.55975854
1.5974367 1.790297 -0.55813938
1.660046 1.8604653 -0.55821228
1.726763 1.9352372 -0.55805212
1.8065032 2.0246046 -0.56026882
1.8803205 2.1073339 -0.55873042
1.970112 2.2079659 -0.55989689
2.0544527 2.3024893 -0.55734271
2.1632309 2.4244003 -0.55900848
2.2831893 2.5588415 -0.56070316
2.40256 2.6926239 -0.55926543
2.5300012 2.8354511 -0.55663049
2.6931777 3.0183282 -0.55823106
2.8708017 3.217397 -0.55856961
3.0755103 3.4468203 -0.55940378
3.2858362 3.682539 -0.55608112
3.5478394 3.9761744 -0.55561119
3.8664682 4.3332715 -0.55676025
4.2141323 4.7229095 -0.55377394
4.6725373 5.2366586 -0.55527848
5.2020593 5.8301096 -0.55290204
5.8864875 6.5971699 -0.55183738
6.7764869 7.5946198 -0.55039108
7.9637299 8.9252005 -0.5471577
9.6746387 10.842669 -0.5437265
12.328308 13.81672 -0.53879642
16.964798 19.012978 -0.52951938
27.17355 30.454245 -0.50885117
1.3714581 1.5756135 -0.55971509
1.4320488 1.6452239 -0.5650565
1.4694248 1.6881636 -0.55999708
1.523777 1.7506067 -0.56025606
1.5852811 1.8212663 -0.56167465
1.6473807 1.8926101 -0.56173658
1.7046099 1.9583583 -0.55863291
1.7779157 2.0425766 -0.55915004
1.8575802 2.1341 -0.55972862
1.9404838 2.2293444 -0.55922508
2.0284607 2.3304176 -0.55802321
2.1307685 2.4479551 -0.55835611
2.2474089 2.5819585 -0.55967081
2.3675523 2.7199864 -0.55885971
2.5031683 2.8757904 -0.55846483
2.6607194 3.0567944 -0.55925196
2.8219585 3.2420359 -0.55678076
3.0234601 3.4735327 -0.55766314
3.2456191 3.7287624 -0.55699235
3.5052307 4.0270195 -0.55665118
3.8061593 4.3727446 -0.55577654
4.1697364 4.7904439 -0.55563867
4.5953941 5.2794652 -0.55378383
5.1377196 5.9025211 -0.55373603
5.8078141 6.6723661 -0.55211192
6.6824369 7.6771855 -0.55037808
7.8679404 9.0391626 -0.54817158
9.5555744 10.978019 -0.54458046
12.16894 13.98041 -0.53930378
16.74987 19.243259 -0.53015655
26.835278 30.829981 -0.50957721
1.3542614 1.5950427 -0.56065905
1.4043722 1.6540629 -0.56211877
1.4463922 1.7035538 -0.55916023
1.5085993 1.776821 -0.56266624
1.5691925 1.8481874 -0.56398368
1.6192328 1.9071246 -0.56009263
1.6935484 1.9946532 -0.5630033
1.7640284 2.0776641 -0.56277472
1.8378367 2.1645954 -0.56175727
1.9196275 2.2609282 -0.56118423
2.015496 2.3738418 -0.56244415
2.1101074 2.4852743 -0.56090766
2.2134619 2.6070049 -0.55915785
2.3256977 2.7391956 -0.55688858
2.4758711 2.916069 -0.56033224
2.6206691 3.0866115 -0.55876923
2.7873316 3.2829058 -0.55787134
2.98439 3.5150003 -0.55838674
3.1907988 3.7581074 -0.55547297
3.4560661 4.070538 -0.55675024
3.7521133 4.4192209 -0.55577755
4.1098313 4.8405399 -0.55554557
4.5419369 5.3494716 -0.5552268
5.0612745 5.9611454 -0.55335534
5.7247777 6.7426157 -0.55205816
6.5909758 7.7628198 -0.55066544
7.7549753 9.1337729 -0.54808474
9.4253683 11.101154 -0.54489821
11.997366 14.13044 -0.53935963
16.514122 19.450254 -0.53022474
26.489676 31.199413 -0.510261
1.3388878 1.6168151 -0.5624826
1.3788682 1.6650947 -0.56006348
1.4265119 1.7226282 -0.55962121
1.4734186 1.7792718 -0.55766279
1.5377831 1.8569974 -0.56085944
1.6016468 1.9341178 -0.56219363
1.6636838 2.0090325 -0.56124532
1.73002 2.0891387 -0.56007826
1.8033423 2.1776817 -0.55935627
1.8903198 2.2827137 -0.56077975
1.9775571 2.3880599 -0.56000906
2.0753601 2.5061648 -0.55982059
2.1841311 2.6375148 -0.55989897
2.2988224 2.7760136 -0.55858469
2.4264705 2.9301591 -0.55726427
2.5905631 3.128314 -0.56050956
2.746079 3.3161123 -0.55773389
2.9417956 3.5524557 -0.55854809
3.1618764 3.8182213 -0.55856925
3.4081259 4.1155872 -0.55713773
3.70348 4.4722509 -0.55667746
4.0457454 4.8855643 -0.55496144
4.4751377 5.4040904 -0.55514234
4.9918308 6.028039 -0.55382514
5.6463265 6.8183956 -0.55253631
6.5011106 7.850616 -0.55118102
7.6452146 9.232214 -0.54830927
9.2960596 11.225742 -0.54536158
11.838742 14.296237 -0.54009068
16.28764 19.668638 -0.53067815
26.13541 31.560619 -0.51087385
1.319731 1.6341757 -0.56283402
1.3549621 1.6778011 -0.55869097
1.3988708 1.7321717 -0.55709136
1.4607033 1.8087366 -0.56122571
1.5184599 1.8802546 -0.56220186
1.5731615 1.9479896 -0.56056052
1.6336001 2.0228286 -0.55944544
1.7082947 2.1153202 -0.5614233
1.7808223 2.2051284 -0.56073922
1.8682051 2.3133314 -0.56261539
1.9550476 2.4208653 -0.56202209
2.0345299 2.5192857 -0.55712098
2.1481173 2.6599369 -0.55900925
2.2674477 2.8076994 -0.55930787
2.3889489 2.9581499 -0.55695879
2.5417778 3.1473923 -0.55828565
2.7135487 3.3600903 -0.55947626
2.8836234 3.5706875 -0.55579758
3.1057808 3.8457773 -0.55697149
3.360966 4.1617637 -0.55775195
3.6540148 4.5246358 -0.55756307
3.9886384 4.9389877 -0.5554167
4.3982887 5.4462438 -0.55387491
4.9196253 6.0917959 -0.55408299
5.5580578 6.8823438 -0.55213833
6.4043689 7.9303007 -0.55120486
7.5376239 9.3335695 -0.54878265
9.1502638 11.330443 -0.54494071
11.665649 14.445155 -0.54025656
16.063007 19.890247 -0.53128797
25.781332 31.924101 -0.51158726
1.2966347 1.6465918 -0.56157655
1.3463287 1.7096981 -0.56375706
1.3893545 1.7643363 -0.56189901
1.4440624 1.8338096 -0.56345326
1.4906679 1.8929939 -0.56048787
1.5505093 1.9689863 -0.56107372
1.613781 2.0493348 -0.56124556
1.6771683 2.1298299 -0.55975842
1.7633315 2.2392485 -0.56385928
1.8294673 2.3232341 -0.55951029
1.9228331 2.4417989 -0.56135041
2.0091918 2.5514655 -0.55873156
2.1205115 2.6928301 -0.56039983
2.2348943 2.8380842 -0.55984396
2.3513882 2.9860194 -0.55672008
2.5090969 3.1862934 -0.55967087
2.6724153 3.3936906 -0.55955696
2.8595774 3.6313672 -0.55972713
3.0581634 3.8835506 -0.55695385
3.3052514 4.1973267 -0.55702901
3.6009734 4.5728631 -0.55800742
3.9273086 4.9872751 -0.55537421
4.3491769 5.5230045 -0.55620056
4.8485584 6.1571674 -0.55456424
5.4742885 6.9517798 -0.55226678
6.3055224 8.0073605 -0.55113018
7.4127288 9.4133978 -0.5480755
9.0171204 11.450809 -0.54535574
11.489695 14.590722 -0.54037595
15.82781 20.09968 -0.53164327
25.436167 32.3013 -0.51258087
1.2710069 1.6555276 -0.55925155
1.3116353 1.7084473 -0.55798423
1.3674231 1.7811127 -0.56184435
1.4124439 1.8397536 -0.55990082
1.4686602 1.9129775 -0.56101519
1.5269544 1.9889073 -0.56135756
1.5886234 2.0692332 -0.56130284
1.6480298 2.1466119 -0.55880076
1.7246696 2.2464378 -0.56028706
1.8035662 2.3492033 -0.56038111
1.8926775 2.4652736 -0.56135428
1.9825883 2.5823853 -0.56012154
2.0810277 2.7106059 -0.55873156
2.199122 2.8644276 -0.55966389
2.3358538 3.0425251 -0.56185752
2.4586663 3.2024922 -0.55716372
2.6233284 3.41697 -0.55803448
2.8044658 3.6529074 -0.55768967
3.0102482 3.9209456 -0.55696613
3.2543077 4.2388406 -0.55718565
3.5328059 4.601594 -0.55617034
3.8710401 5.0421548 -0.55614275
4.2780848 5.5723433 -0.55582958
4.7656345 6.2073927 -0.55376804
5.3956871 7.0280566 -0.55301374
6.2067451 8.084486 -0.55114383
7.3083959 9.5194216 -0.54897463
8.8817892 11.568817 -0.54573327
11.324216 14.750156 -0.54108268
15.594133 20.311861 -0.53214335
25.068014 32.651897 -0.51321417
1.2541696 1.6758597 -0.56086785
1.3007493 1.738101 -0.56240278
1.3409224 1.7917814 -0.55996621
1.3919829 1.8600101 -0.56081396
1.4538577 1.9426889 -0.56444311
1.5070375 2.0137496 -0.56309623
1.5671817 2.0941162 -0.56278265
1.6367968 2.1871378 -0.56406838
1.6916625 2.2604513 -0.55855179
1.7733301 2.3695779 -0.55999738
1.8536164 2.4768589 -0.55875999
1.9551175 2.6124878 -0.56139386
2.0534649 2.7439027 -0.5603478
2.1635637 2.8910201 -0.55961931
2.2873611 3.0564418 -0.55919117
2.4277539 3.2440391 -0.55915594
2.5916014 3.4629769 -0.56030124
2.7680495 3.6987522 -0.55945009
2.9716742 3.9708416 -0.55882096
3.1987689 4.2742925 -0.55663329
3.480818 4.6511755 -0.55694765
3.8118219 5.093473 -0.55659115
4.2038326 5.6172895 -0.55511469
4.689436 6.2661676 -0.55382532
5.3107648 7.0964065 -0.55321157
6.121202 8.1793375 -0.55243707
7.1896429 9.6070213 -0.5488866
8.7471504 11.68821 -0.54625022
11.153217 14.90327 -0.54162747
15.356246 20.519485 -0.53259557
24.696901 33.000755 -0.51388526
1.2383003 1.6977775 -0.56306463
1.2829661 1.7590168 -0.56402326
1.3204354 1.8103892 -0.56066483
1.3687444 1.8766235 -0.56070608
1.4303497 1.9610877 -0.56463593
1.4724665 2.0188322 -0.55941218
1.5320356 2.1005046 -0.55939448
1.6015694 2.1958392 -0.56119102
1.6824206 2.3066907 -0.56482285
1.7531074 2.4036062 -0.56290215
1.8290173 2.5076828 -0.56059754
1.9194143 2.6316221 -0.56039143
2.0192714 2.7685316 -0.56026435
2.1312997 2.9221287 -0.56052566
2.2566993 3.0940583 -0.56095397
2.3923249 3.2800086 -0.56024295
2.5435874 3.4873974 -0.55914956
2.7274539 3.7394886 -0.56049651
2.923821 4.0087185 -0.55904943
3.1460238 4.3133707 -0.55664241
3.4218619 4.6915598 -0.55670291
3.7471993 5.1376152 -0.55633759
4.1472392 5.6860924 -0.55683225
4.6239486 6.3396869 -0.55525589
5.2131209 7.1474738 -0.55215365
6.0189319 8.252285 -0.55232346
7.0750852 9.7003288 -0.54920554
8.6049271 11.797826 -0.54638678
10.963798 15.031967 -0.54136413
15.122176 20.73333 -0.5332793
24.322687 33.347736 -0.51459223
1.211331 1.7044315 -0.56028914
1.2608361 1.7740887 -0.56384218
1.2953995 1.8227221 -0.55950886
1.3463988 1.8944817 -0.56105274
1.4045522 1.9763079 -0.56400281
1.4555331 2.0480418 -0.56250411
1.5088676 2.1230874 -0.56042504
1.5788444 2.2215497 -0.56275761
1.6435968 2.3126609 -0.56129354
1.7197256 2.41978 -0.5616951
1.7962238 2.5274184 -0.56002951
1.8808521 2.6464968 -0.55859172
1.9877194 2.7968669 -0.56100982
2.0824046 2.9300957 -0.5571
2.2104843 3.1103134 -0.55893081
2.3460643 3.3010843 -0.55887312
2.5064447 3.526751 -0.56047535
2.6737072 3.7621021 -0.55891585
2.8639982 4.0298553 -0.55704373
3.0909045 4.3491287 -0.55631012
3.3640094 4.7334075 -0.55671805
3.6829777 5.1822195 -0.55622154
4.0674691 5.723227 -0.55552888
4.5431247 6.392509 -0.5549475
5.1389809 7.2309227 -0.55367672
5.9209518 8.331213 -0.55269134
6.9604492 9.7938614 -0.54961377
8.4648609 11.91068 -0.54675138
10.78851 15.180223 -0.5418849
14.877812 20.934172 -0.53369927
23.943861 33.690765 -0.51530331
1.1867822 1.7141409 -0.55864143
1.239152 1.7897816 -0.56394434
1.2833701 1.8536485 -0.56411535
1.3187537 1.9047551 -0.55925059
1.3761084 1.987596 -0.56235272
1.4234751 2.0560107 -0.559843
1.4752669 2.1308167 -0.55763465
1.5364177 2.2191403 -0.55731934
1.6158664 2.3338931 -0.56158179
1.6868583 2.4364307 -0.56070298
1.765128 2.5494804 -0.56006634
1.8477451 2.6688092 -0.55846334
1.9485608 2.8144236 -0.55968302
2.0603397 2.9758725 -0.5609442
2.1727796 3.1382761 -0.55911231
2.3027444 3.3259921 -0.558254
2.457607 3.5496693 -0.55927271
2.6261723 3.7931383 -0.55868697
2.8202529 4.0734606 -0.55823541
3.0409586 4.3922391 -0.55699933
3.3079424 4.7778602 -0.55712008
3.6225526 5.2322702 -0.55677044
4.0048141 5.7843938 -0.55664396
4.4675198 6.4527073 -0.5553624
5.0504007 7.2945967 -0.55375522
5.8125949 8.3954802 -0.55217147
6.8442788 9.885603 -0.54999757
8.3277102 12.028212 -0.54740459
10.605357 15.317954 -0.54210526
14.625639 21.124689 -0.53393096
23.56991 34.043438 -0.51622552
1.1731043 1.7397081 -0.56223023
1.2115257 1.796687 -0.56138366
1.250105 1.8538998 -0.55947149
1.2988248 1.9261512 -0.56080103
1.3548611 2.0092528 -0.5637238
1.4028083 2.0803583 -0.56173331
1.4575454 2.1615329 -0.56094033
1.5095217 2.2386136 -0.55750608
1.5874678 2.3542073 -0.56173038
1.651642 2.4493773 -0.55896628
1.7369114 2.5758317 -0.56112081
1.8218962 2.7018635 -0.56064987
1.9143339 2.8389482 -0.55983663
2.019644 2.9951224 -0.55984926
2.1338406 3.1644754 -0.55906302
2.264179 3.3577669 -0.55887192
2.4093068 3.5729904 -0.55823714
2.5772247 3.8220122 -0.55822986
2.7761831 4.1170669 -0.55949074
2.9860752 4.4283352 -0.55687833
3.2509203 4.8210993 -0.55745864
3.5580215 5.2765293 -0.55678242
3.9314544 5.8303285 -0.5563702
4.3784056 6.493155 -0.55416799
4.9619913 7.3586102 -0.55394095
5.7091956 8.4667101 -0.55219728
6.7243562 9.9721889 -0.55017298
8.179574 12.13027 -0.54743052
10.42677 15.462852 -0.54265475
14.382884 21.32975 -0.53460342
23.186041 34.384792 -0.51703936
1.1523603 1.7551206 -0.56258923
1.1913531 1.8145093 -0.56233251
1.2325878 1.8773123 -0.56192046
1.2828516 1.9538674 -0.56423521
1.3262957 2.0200357 -0.56213099
1.3729081 2.0910294 -0.56001395
1.4281429 2.1751556 -0.55987597
1.4950589 2.2770731 -0.56246322
1.5525696 2.3646657 -0.55962825
1.6255941 2.4758868 -0.56041193
1.7099258 2.6043296 -0.56270593
1.7927724 2.7305105 -0.56197733
1.8793494 2.8623726 -0.55985647
1.9819312 3.0186117 -0.55964214
2.0970156 3.193893 -0.55966228
2.2257137 3.3899083 -0.55962408
2.3654613 3.6027532 -0.55830055
2.5379055 3.8653972 -0.55996615
2.7185843 4.1405826 -0.55810142
2.9352727 4.4706135 -0.55761397
3.1873779 4.8545866 -0.55675668
3.5039055 5.3366785 -0.55854076
3.8482325 5.8611112 -0.55475014
4.3172636 6.5754766 -0.55662102
4.8811026 7.4342403 -0.5550741
5.608273 8.541769 -0.55255312
6.6069722 10.062854 -0.55065119
8.0359459 12.239275 -0.547849
10.24759 15.607755 -0.54327673
14.133663 21.526499 -0.53513831
22.792534 34.714527 -0.51774406
1.127026 1.763419 -0.56076461
1.1671865 1.8262569 -0.56148285
1.2028413 1.8820447 -0.55886757
1.2467355 1.9507244 -0.55885822
1.2989212 2.0323777 -0.56107837
1.3614274 2.1301789 -0.56597263
1.4099256 2.2060626 -0.56332618
1.4630035 2.2891119 -0.56095082
1.5255462 2.38697 -0.56042498
1.5884193 2.4853456 -0.55808967
1.6732824 2.6181281 -0.56119925
1.7574105 2.7497604 -0.56144917
1.8464955 2.8891485 -0.56061023
1.9471864 3.0466962 -0.56036752
2.0508518 3.2088978 -0.55783045
2.1826541 3.4151247 -0.55931389
2.3222015 3.6334693 -0.55859321
2.4842474 3.8870173 -0.55863065
2.6611524 4.1638141 -0.55677998
2.8854315 4.5147362 -0.5586496
3.1296411 4.896843 -0.55714726
3.4358277 5.3759227 -0.55818409
3.7834849 5.9198899 -0.55586809
4.2232075 6.6079087 -0.55492848
4.7744217 7.4703746 -0.55334675
5.5086021 8.6191216 -0.55313337
6.4860392 10.148484 -0.55093104
7.8787279 12.327577 -0.5474236
10.061077 15.742225 -0.54360992
13.890464 21.733934 -0.53600842
22.405508 35.057137 -0.51870561
1.1039379 1.7750196 -0.56009459
1.1446236 1.8404381 -0.56147313
1.1840078 1.9037639 -0.56095129
1.2255348 1.9705352 -0.56017411
1.2728024 2.0465364 -0.560624
1.3297027 2.1380265 -0.56367081
1.3779068 2.2155337 -0.56137568
1.4385688 2.313072 -0.56244498
1.4990232 2.4102764 -0.56152678
1.5648675 2.5161474 -0.56064302
1.6397032 2.6364756 -0.56076783
1.7218269 2.7685223 -0.56091458
1.8062763 2.9043081 -0.55919975
1.9140602 3.0776138 -0.5616827
2.0240281 3.254431 -0.56137687
2.1423693 3.4447117 -0.55980277
2.2754421 3.658679 -0.55812514
2.4313319 3.9093339 -0.55749911
2.6222436 4.2163005 -0.55944443
2.8286319 4.5481515 -0.5584383
3.0741262 4.9428816 -0.55804235
3.3600771 5.4026613 -0.55662835
3.7113788 5.9675188 -0.55601311
4.1447368 6.6643143 -0.55534333
4.6898136 7.5407424 -0.55424553
5.4076519 8.694953 -0.55369067
6.3568678 10.221195 -0.55059326
7.7430158 12.44998 -0.54858965
9.8710794 15.871691 -0.5438481
13.628652 21.913483 -0.53626293
22.005196 35.382111 -0.51947105
1.0857621 1.7946285 -0.56202668
1.1213956 1.853526 -0.56121677
1.1578984 1.9138607 -0.55968875
1.2019244 1.9866302 -0.56050569
1.247815 2.0624814 -0.56074631
1.2967505 2.1433659 -0.5608322
1.3465706 2.2257121 -0.55971688
1.4100841 2.3306918 -0.56247073
1.4687796 2.4277079 -0.56133777
1.5293149 2.5277653 -0.5589993
1.6054391 2.653589 -0.56016654
1.6864389 2.7874715 -0.56050998
1.7737149 2.9317276 -0.56023735
1.8683896 3.0882132 -0.55938184
1.9739553 3.2627001 -0.55857408
2.1058586 3.4807198 -0.56140387
2.2314751 3.6883481 -0.5584231
2.3869615 3.9453473 -0.55840695
2.5573838 4.2270341 -0.55665404
2.769851 4.5782156 -0.5579055
