# .PCD v0.7 - Point Cloud Data file format
VERSION 0.7
FIELDS x y z
SIZE 4 4 4
TYPE F F F
COUNT 1 1 1
WIDTH 1487
HEIGHT 1
VIEWPOINT 0 0 0 1 0 0 0
POINTS 1487
DATA ascii
2.365351 3.6025851 -0.55827451
2.5294747 3.8525565 -0.55810595
2.7183602 4.1402416 -0.5580554
2.935544 4.4710269 -0.55766547
3.1949368 4.8660989 -0.55807704
3.4983151 5.3281641 -0.55764961
3.8547258 5.8710012 -0.55568624
4.2974062 6.5452328 -0.55406082
4.8626809 7.4061832 -0.55297917
5.6073136 8.540308 -0.55245858
6.603817 10.058048 -0.55038822
8.033721 12.235886 -0.54769731
10.239353 15.595209 -0.54284006
14.125025 21.513342 -0.5348112
22.753458 34.655014 -0.51685649
1.1249222 1.7601272 -0.55971783
1.1757339 1.8396307 -0.56559467
1.2076081 1.8895031 -0.56108236
1.2528291 1.960259 -0.56158978
1.2982656 2.031352 -0.56079519
1.3509641 2.1138072 -0.5616228
1.401855 2.1934347 -0.56010163
1.4588803 2.2826602 -0.5593698
1.5162911 2.372489 -0.55702502
1.5968796 2.4985831 -0.56106216
1.6674596 2.6090171 -0.5592463
1.7533678 2.7434347 -0.5601576
1.8447844 2.886471 -0.56009066
1.9457524 3.0444524 -0.55995482
2.0575669 3.2194047 -0.55965698
2.1844804 3.4179819 -0.55978185
2.327513 3.6417801 -0.5598709
2.474371 3.8715639 -0.55640972
2.6739173 4.1837869 -0.55945075
2.8778107 4.5028124 -0.55717415
3.1356304 4.9062138 -0.55821347
3.4224341 5.3549662 -0.55600816
3.784101 5.9208536 -0.55595863
4.2271938 6.6141462 -0.55545229
4.7753 7.4717488 -0.55344856
5.5016904 8.6083069 -0.55243939
6.4847827 10.146519 -0.55082434
7.8841319 12.336033 -0.54779911
10.049248 15.723716 -0.54297078
13.865718 21.695215 -0.53505349
22.371283 35.003582 -0.51791322
1.099705 1.7682135 -0.55794698
1.1449037 1.8408884 -0.56161046
1.1921512 1.9168576 -0.56480944
1.2195128 1.9608523 -0.55742151
1.274731 2.0496376 -0.56147355
1.3267415 2.133265 -0.56241548
1.3732065 2.2079761 -0.55946076
1.4324595 2.3032489 -0.56005639
1.5015042 2.4142659 -0.56245619
1.5590668 2.5068204 -0.55856484
1.6375775 2.6330578 -0.56004089
1.7174572 2.7614961 -0.55949104
1.8130143 2.9151421 -0.56128573
1.9069476 3.0661774 -0.55959547
2.0159976 3.2415187 -0.55914956
2.1356194 3.4338582 -0.55803895
2.2862248 3.6760168 -0.56076998
2.4335036 3.9128258 -0.55799705
2.6167912 4.2075334 -0.55828118
2.8249292 4.5421987 -0.55770731
3.0699704 4.9361992 -0.55728793
3.3571687 5.3979855 -0.55614656
3.7071848 5.9607754 -0.55538481
4.1437011 6.6626496 -0.55520457
4.693738 7.5470524 -0.55470932
5.3993368 8.6815834 -0.55283934
6.3575506 10.222293 -0.55065238
7.7282519 12.426242 -0.54754359
9.8697538 15.869558 -0.54377502
13.615416 21.8922 -0.5357421
21.96855 35.323193 -0.51860601
1.0877867 1.7979746 -0.56307459
1.122057 1.854619 -0.5615477
1.1655065 1.9264357 -0.56336623
1.2019609 1.9866903 -0.56052268
1.2510825 2.0678821 -0.56221467
1.3054014 2.1576645 -0.56457359
1.3458482 2.2245178 -0.55941653
1.4054897 2.3230977 -0.56063801
1.4715229 2.4322424 -0.56238621
1.5381857 2.5424278 -0.56224179
1.5971764 2.6399319 -0.55728358
1.6809095 2.7783322 -0.55867219
1.771186 2.9275479 -0.55943865
1.8673363 3.0864723 -0.55906647
1.9752555 3.2648492 -0.55894202
2.095099 3.4629354 -0.55853546
2.2309692 3.6875119 -0.5582965
2.3902879 3.9508455 -0.55918515
2.5603247 4.231895 -0.55729407
2.7729907 4.583405 -0.5585379
3.0117085 4.9779754 -0.55778122
3.2949724 5.4461756 -0.55689508
3.637217 6.0118628 -0.55593556
4.0630975 6.7157893 -0.55542743
4.6014695 7.6056509 -0.55481559
5.2951593 8.7522326 -0.55315012
6.2355947 10.306655 -0.55102473
7.5804744 12.529572 -0.54794794
9.6690989 15.981805 -0.54350609
13.368438 22.096348 -0.53667462
21.556969 35.630962 -0.51919359
1.0625105 1.8059669 -0.56144351
1.1081774 1.8835877 -0.56615019
1.1364179 1.9315885 -0.56074417
1.1755199 1.9980508 -0.55960739
1.2281889 2.0875731 -0.56341964
1.2725348 2.1629488 -0.56181943
1.3182433 2.2406402 -0.55935228
1.3733428 2.3342936 -0.55922228
1.435346 2.4396818 -0.55998302
1.5048393 2.5578005 -0.56150687
1.5722827 2.6724353 -0.56002134
1.6499945 2.8045232 -0.55981666
1.738292 2.9546039 -0.56048191
1.8399237 3.1273491 -0.56233013
1.9439719 3.3042016 -0.56154436
2.0533092 3.4900441 -0.55879325
2.1867242 3.7168117 -0.55861926
2.3406453 3.9784341 -0.55897403
2.5140433 4.2731614 -0.55861521
2.712991 4.6113162 -0.5578317
2.9478288 5.0104742 -0.55731899
3.2286325 5.4877605 -0.55704564
3.5732863 6.0735745 -0.55753696
3.9874513 6.7775378 -0.55643713
4.5088601 7.663785 -0.55496997
5.1785064 8.8019934 -0.55222887
6.1160574 10.395565 -0.55171567
7.433352 12.634592 -0.54850203
9.4925423 16.134634 -0.54469275
13.091467 22.251785 -0.53649944
21.152233 35.952805 -0.52005404
1.0477388 1.832033 -0.56549901
1.0775839 1.8842189 -0.56231475
1.1175284 1.9540644 -0.56323713
1.1659197 2.0386794 -0.56692821
1.2014617 2.1008267 -0.56296676
1.2458521 2.1784458 -0.56182307
1.2964391 2.2669001 -0.56188565
1.3497895 2.3601866 -0.56140661
1.4057273 2.4579971 -0.56017703
1.478 2.5843704 -0.56330734
1.5394974 2.6919022 -0.56009144
1.6177937 2.8288076 -0.56065077
1.7024063 2.9767578 -0.56067097
1.7953937 3.1393518 -0.56047624
1.9015096 3.3249018 -0.56104618
2.0111425 3.5166011 -0.55904353
2.1421194 3.7456222 -0.55894822
2.2874587 3.9997563 -0.55797565
2.4568961 4.2960277 -0.5576129
2.6589549 4.6493397 -0.55843395
2.8878241 5.049531 -0.55767131
3.158164 5.5222359 -0.55656111
3.4864182 6.0962081 -0.55563724
3.9016852 6.8223267 -0.55613333
4.4138808 7.7179308 -0.55491865
5.0814099 8.8851452 -0.55348372
5.9891691 10.472416 -0.55184406
7.2800007 12.72951 -0.54869497
9.2873192 16.239426 -0.54433393
12.842599 22.456041 -0.53757602
20.748451 36.279892 -0.5210554
1.0140566 1.8248433 -0.55938846
1.0624386 1.911909 -0.56663674
1.0809225 1.9451715 -0.55680066
1.1264342 2.027072 -0.55980629
1.1774607 2.1188965 -0.56388652
1.218869 2.1934128 -0.56177521
1.2695973 2.2847009 -0.5623858
1.3193096 2.3741605 -0.56082934
1.380661 2.4845655 -0.56232035
1.4358284 2.5838418 -0.55930156
1.5073133 2.7124822 -0.56047463
1.5785124 2.8406086 -0.55910045
1.6592718 2.9859388 -0.55851507
1.7575738 3.162838 -0.56076849
1.8568412 3.3414745 -0.55994755
1.9724503 3.5495183 -0.56037831
2.1018384 3.7823586 -0.56053114
2.2411132 4.0329905 -0.5587253
2.4036245 4.3254371 -0.55755168
2.6003759 4.6795006 -0.55817384
2.8285618 5.0901318 -0.55827183
3.0964279 5.5721698 -0.55771416
3.4182813 6.1513605 -0.55679095
3.8180768 6.8708115 -0.55621648
4.3175907 7.7697105 -0.55478239
4.9756255 8.9538755 -0.55391198
5.8644919 10.553433 -0.55227154
7.1266603 12.824765 -0.54898202
9.0974607 16.371313 -0.54496384
12.576991 22.632896 -0.53806686
20.335585 36.594856 -0.52194816
0.99139369 1.836898 -0.55930454
1.0286672 1.90596 -0.56108236
1.0645096 1.9723705 -0.56079698
1.1058155 2.0489037 -0.56203777
1.1404352 2.1130486 -0.55855608
1.1890997 2.2032163 -0.56049877
1.2355645 2.2893085 -0.5597378
1.2951242 2.3996632 -0.56304908
1.3448306 2.4917614 -0.56016397
1.4070998 2.6071367 -0.56055629
1.4807063 2.7435181 -0.56308275
1.5471386 2.8666067 -0.56043065
1.6316717 3.0232332 -0.56169558
1.7198741 3.1866586 -0.56119984
1.8191977 3.3706896 -0.56105226
1.9276621 3.5716574 -0.56008899
2.0481522 3.7949066 -0.55861616
2.1910055 4.0595913 -0.55863589
2.3555906 4.364542 -0.55881643
2.5502956 4.7253003 -0.55985391
2.7658834 5.1247506 -0.55829632
3.025727 5.6062007 -0.55735421
3.3445644 6.1969566 -0.5571534
3.7359071 6.9220533 -0.55660373
4.2278247 7.8334999 -0.55558312
4.8669453 9.0176907 -0.55411559
5.7274189 10.612014 -0.55160993
6.9717546 12.917574 -0.54924357
8.9085274 16.506113 -0.54576331
12.30189 22.793486 -0.5382477
19.918365 36.905624 -0.52284777
0.97366637 1.8583646 -0.5621528
1.0057927 1.9196818 -0.56143856
1.0406132 1.986141 -0.5610317
1.0789125 2.0592399 -0.56119144
1.1194477 2.1366065 -0.56110221
1.1599156 2.2138445 -0.55953181
1.2135669 2.3162448 -0.56263262
1.2639802 2.4124651 -0.56236351
1.3106358 2.501513 -0.55869097
1.3670512 2.609189 -0.55734116
1.4461207 2.760103 -0.56279451
1.5141921 2.8900259 -0.56132668
1.5893312 3.0334382 -0.55991822
1.6772518 3.2012458 -0.5600943
1.7687489 3.3758795 -0.55825371
1.8906502 3.6085434 -0.56218511
2.0072615 3.8311107 -0.56026983
2.1415935 4.0875001 -0.55881029
2.3054223 4.400188 -0.55970848
2.4789443 4.7313766 -0.55692023
2.6958559 5.1453795 -0.55689025
2.9587367 5.6471205 -0.55776322
3.2669277 6.235342 -0.55695069
3.6458979 6.9586539 -0.55589986
4.1333628 7.8890424 -0.5558756
4.7547445 9.0750275 -0.55400431
5.6042457 10.696407 -0.55237287
6.811636 13.000863 -0.54918206
8.7087765 16.621794 -0.54600614
12.046631 22.992508 -0.53940874
19.498751 37.215816 -0.52380592
0.9549998 1.878569 -0.56466961
0.97828859 1.9243802 -0.5592522
1.0171012 2.0007279 -0.56157684
1.0483394 2.0621762 -0.55843639
1.0878624 2.1399214 -0.55841762
1.1436195 2.2496009 -0.56497204
1.176052 2.3133981 -0.55838621
1.2339752 2.4273381 -0.56225097
1.2857231 2.5291309 -0.56128573
1.3457979 2.6473033 -0.56190526
1.4082843 2.7702198 -0.56128395
1.4763209 2.9040534 -0.56048292
1.5592411 3.0671651 -0.56256211
1.6348709 3.2159355 -0.55910492
1.7322344 3.4074583 -0.55991107
1.8426499 3.6246555 -0.56112283
1.9577006 3.8509703 -0.55961132
2.0974369 4.125844 -0.56048405
2.2458704 4.4178252 -0.55839694
2.4259381 4.7720346 -0.5581525
2.6340947 5.1814971 -0.55725151
2.8894181 5.6837411 -0.55782872
3.184725 6.2646356 -0.55602729
3.5675225 7.017632 -0.55706483
4.0373874 7.9418979 -0.55605978
4.6397138 9.1267271 -0.55363578
5.4746876 10.769195 -0.55261344
6.6642842 13.109236 -0.55025673
8.5164719 16.752653 -0.54682338
11.772924 23.158382 -0.53986311
19.076706 37.525566 -0.52482432
0.93115366 1.8887982 -0.56426001
0.95603997 1.9392788 -0.56012315
0.99538827 2.0190947 -0.56325406
1.0337443 2.0968981 -0.56435412
1.0685862 2.1675732 -0.56216204
1.1051202 2.2416804 -0.55952781
1.1516644 2.3360932 -0.56040359
1.1982706 2.4306314 -0.55955851
1.2521913 2.5400069 -0.56023991
1.3134613 2.66429 -0.56204015
1.3681457 2.7752144 -0.55884504
1.4483659 2.9379373 -0.5635426
1.5162728 3.0756829 -0.56066227
1.5996542 3.2448177 -0.56066412
1.6862435 3.4204597 -0.5585981
1.7868789 3.6245937 -0.5576697
1.9114151 3.8772092 -0.55996644
2.0442314 4.1466203 -0.55984938
2.1959333 4.45434 -0.55955696
2.3698363 4.8070936 -0.55880249
2.5734568 5.2201276 -0.55796063
2.8179874 5.7161455 -0.55756611
3.1151705 6.3189664 -0.5574075
3.4801686 7.0593462 -0.55693704
3.9387758 7.9896078 -0.55596709
4.5345941 9.1981945 -0.55454665
5.3456368 10.843354 -0.55300409
6.5024085 13.189807 -0.55024093
8.3088818 16.854147 -0.54675996
11.491858 23.310654 -0.54007787
18.638035 37.806313 -0.52550572
0.90526772 1.89468 -0.56264919
0.93777263 1.9627112 -0.56351799
0.96688008 2.0236316 -0.56116056
1.0022228 2.0976021 -0.56118435
1.0434935 2.1839797 -0.56304669
1.0813662 2.2632453 -0.56154907
1.1263927 2.3574836 -0.56216979
1.1715258 2.4519451 -0.56110638
1.2245363 2.5628932 -0.56192416
1.2742894 2.6670237 -0.55926907
1.3394812 2.8034673 -0.56117511
1.4038296 2.9381452 -0.56022894
1.4757966 3.0887682 -0.55969727
1.5596189 3.2642043 -0.5606578
1.6486924 3.4506307 -0.56017214
1.7505072 3.6637239 -0.56033599
1.8632355 3.8996587 -0.55985749
1.9902062 4.1654019 -0.55903876
2.1373551 4.4733772 -0.55860466
2.3111677 4.8371582 -0.5589515
2.5141153 5.2619176 -0.55908084
2.7496254 5.7548285 -0.55799919
3.0365379 6.3553219 -0.55727863
3.3913836 7.0979967 -0.55665416
3.8373394 8.0313597 -0.55554694
4.4121866 9.2344866 -0.55342185
5.2111292 10.906632 -0.55292147
6.3460135 13.281889 -0.55078536
8.1056309 16.96468 -0.54707098
11.217857 23.478415 -0.54072785
18.204185 38.100449 -0.52644295
0.88369352 1.9095362 -0.56379139
0.91355097 1.974054 -0.56350678
0.94378686 2.0393894 -0.56226963
0.97765243 2.1125681 -0.56192958
1.0125087 2.1878877 -0.56080204
1.0546535 2.2789567 -0.56218708
1.1025438 2.3824406 -0.5648455
1.1476498 2.4799082 -0.56423348
1.1903213 2.5721154 -0.56069469
1.2415744 2.6828661 -0.55934745
1.3109729 2.8328264 -0.56378251
1.3684314 2.9569862 -0.5605706
1.4368812 3.1048963 -0.55937582
1.5194836 3.2833884 -0.56070125
1.6068482 3.4721711 -0.56041908
1.7047659 3.6837571 -0.56015152
1.8162696 3.924701 -0.56020397
1.9400262 4.192121 -0.55938083
2.0850937 4.5055919 -0.55938339
2.2545907 4.8718505 -0.5597145
2.4479108 5.289588 -0.55878037
2.682658 5.7968431 -0.55883223
2.961293 6.3989339 -0.55786765
3.3065944 7.145081 -0.55711597
3.7391977 8.079875 -0.55568045
4.3089004 9.3109217 -0.55478537
5.0785394 10.974002 -0.5531292
6.1864634 13.368069 -0.55116284
7.9098167 17.091991 -0.54799855
10.939361 23.638405 -0.54127365
17.770823 38.400227 -0.52752584
0.85486597 1.9084655 -0.56032932
0.88947105 1.9857205 -0.5636723
0.91554236 2.0439241 -0.56037354
0.94988996 2.120604 -0.56091779
0.98355657 2.1957638 -0.55967855
1.0322405 2.3044493 -0.5653019
1.0680352 2.3843601 -0.5621444
1.1128013 2.4842992 -0.56207675
1.1559877 2.5807118 -0.55942768
1.2140355 2.7103019 -0.56191266
1.2705137 2.8363879 -0.56133968
1.33734 2.9855762 -0.56283057
1.3966143 3.1179044 -0.55858314
1.4785405 3.3008025 -0.56052792
1.568242 3.5010586 -0.56192666
1.6561078 3.6972167 -0.55905932
1.7716912 3.9552536 -0.56141293
1.8914108 4.2225242 -0.56029195
2.0317659 4.5358634 -0.55999762
2.1965387 4.9037142 -0.56022978
2.3814456 5.316514 -0.55848914
2.6009641 5.8065834 -0.55664593
2.8855486 6.4419107 -0.55847883
3.2141092 7.1754136 -0.55635732
3.6450813 8.1375465 -0.55652207
4.1988378 9.3737936 -0.55541313
4.9475412 11.045254 -0.55361223
6.0296803 13.461101 -0.55189991
7.7033639 17.197556 -0.54830468
10.659082 23.796118 -0.54184276
17.331871 38.692944 -0.52857935
0.83292037 1.9224899 -0.56139737
0.85554087 1.9747009 -0.5575158
0.89184034 2.0584848 -0.56131655
0.92323136 2.1309395 -0.56060642
0.95697165 2.2088165 -0.55996382
0.99146092 2.2884223 -0.55833739
1.0374949 2.3946748 -0.561526
1.0798129 2.4923503 -0.56085175
1.1278865 2.6033106 -0.56127757
1.1806687 2.7251387 -0.56193626
1.2368536 2.854821 -0.56193531
1.2977703 2.9954245 -0.56163633
1.363821 3.1478784 -0.56090629
1.4335393 3.3087974 -0.55884993
1.5197483 3.5077791 -0.55996364
1.6165115 3.7311213 -0.56113797
1.7136585 3.9553492 -0.55839336
1.8417386 4.2509751 -0.56101966
1.9780055 4.5654974 -0.56061095
2.1310687 4.918787 -0.55891573
2.3162167 5.3461332 -0.55856645
2.5371611 5.856102 -0.55835998
2.8031402 6.4700165 -0.55788505
3.1397898 7.2470484 -0.55887586
3.5479698 8.1891813 -0.55702758
4.0816584 9.4210052 -0.55519474
4.817564 11.119572 -0.55432612
5.8671923 13.542252 -0.55222738
7.4903674 17.288754 -0.54823434
10.380162 23.958782 -0.54259926
16.88447 38.971581 -0.52950948
0.81154674 1.9381441 -0.563012
0.83350611 1.9905876 -0.55906516
0.8637554 2.0628293 -0.55956268
0.90103573 2.1518626 -0.56315345
0.92728454 2.2145503 -0.55848449
0.96770704 2.3110876 -0.56092173
1.0027418 2.394758 -0.55861199
1.055279 2.5202277 -0.56416231
1.0933627 2.6111798 -0.5600332
1.1494567 2.7451441 -0.56310433
1.1989914 2.8634431 -0.56068802
1.2640405 3.0187943 -0.56306118
1.3208748 3.1545265 -0.55915451
1.3975399 3.3376186 -0.5607729
1.4788918 3.5319045 -0.56086946
1.570536 3.7507699 -0.56114614
1.6711614 3.9910843 -0.56049478
1.7846726 4.2621732 -0.55955899
1.9238926 4.5946598 -0.56124455
2.0690253 4.941267 -0.55853701
2.2511671 5.3762593 -0.55877966
2.4640329 5.8846278 -0.55814874
2.7246027 6.5069232 -0.55813634
3.0453389 7.2729087 -0.55794013
3.4500904 8.2395401 -0.55752516
3.9714046 9.4845486 -0.55601948
4.6808877 11.178944 -0.55437458
5.6947041 13.600149 -0.55169111
7.2900739 17.410227 -0.54920214
10.100837 24.122919 -0.54346257
16.43145 39.241753 -0.53039497
0.78534925 1.9422739 -0.56136394
0.81429619 2.0138636 -0.5627476
0.84285069 2.0844827 -0.56258249
0.87602758 2.1665335 -0.56413114
0.90240467 2.2317677 -0.55998582
0.94183213 2.329277 -0.56248307
0.98398221 2.4335198 -0.56478864
1.0198115 2.5221305 -0.56173861
1.0647929 2.6333754 -0.56194299
1.1118315 2.7497082 -0.5611937
1.171636 2.8976128 -0.56451505
1.2238603 3.0267704 -0.56169951
1.2869287 3.1827469 -0.56130928
1.3617749 3.3678517 -0.56299651
1.4350225 3.5490026 -0.56074011
1.521524 3.7629325 -0.56012434
1.6180043 4.0015411 -0.55912697
1.7335317 4.2872562 -0.56001115
1.8657523 4.6142554 -0.5607934
2.0149076 4.9831362 -0.56042671
2.1863418 5.4071164 -0.55915022
2.3922827 5.9164352 -0.55833328
2.6478355 6.5484514 -0.55886346
2.9525533 7.3020597 -0.55734915
3.3492308 8.2830963 -0.55764347
3.850781 9.5234966 -0.55548489
4.5373859 11.221563 -0.55367947
5.5325727 13.682793 -0.5522421
7.0742931 17.495674 -0.54911202
9.8128633 24.268524 -0.54398334
15.974359 39.506729 -0.53128129
0.76190442 1.9530544 -0.56172955
0.78691489 2.0171659 -0.56092405
0.80806535 2.0713825 -0.55632317
0.84298575 2.160897 -0.5599221
0.8805815 2.2572694 -0.5636251
0.91373658 2.3422587 -0.5628621
0.95057082 2.4366789 -0.56276649
0.99261761 2.5444613 -0.56395108
1.0310435 2.6429615 -0.56124073
1.0740597 2.7532287 -0.55917448
1.1287754 2.8934858 -0.56096452
1.1900306 3.0505066 -0.56334621
1.2465222 3.1953163 -0.56078041
1.3141457 3.3686612 -0.56038821
1.3946178 3.5749424 -0.56208658
1.4771858 3.7865961 -0.56090057
1.5708386 4.0266638 -0.55989599
1.6824377 4.3127356 -0.56059462
1.8065476 4.630877 -0.56007135
1.9468306 4.9904766 -0.55851775
2.1251144 5.4474864 -0.56058031
2.3257236 5.9617252 -0.55986613
2.5602238 6.562839 -0.55736244
2.8619277 7.3362226 -0.55722851
3.2422082 8.3110285 -0.55679786
3.7346404 9.5733213 -0.5556705
4.408484 11.300642 -0.55486459
5.3692698 13.763506 -0.5527932
6.8677201 17.60461 -0.54983902
9.5260239 24.418867 -0.5446865
15.515878 39.77317 -0.53225839
0.74135137 1.971632 -0.56440818
0.76752037 2.0412288 -0.5649482
0.79134399 2.104588 -0.56258529
0.82080418 2.1829376 -0.56297541
0.84985399 2.260196 -0.56170404
0.88694102 2.3588293 -0.56418067
0.91795462 2.4413102 -0.56118679
0.96046871 2.5543768 -0.56348854
0.99906945 2.6570361 -0.56157827
1.0471318 2.7848582 -0.56294072
1.0929432 2.9066942 -0.56087738
1.1507075 3.0603189 -0.56250268
1.2145985 3.230238 -0.56424534
1.2763696 3.3945186 -0.56203628
1.3472894 3.5831311 -0.56072688
1.4293966 3.8014958 -0.56046164
1.5244302 4.0542383 -0.56108129
1.6295569 4.3338242 -0.56068885
1.7536397 4.6638236 -0.56140566
1.8906857 5.0282989 -0.5601064
2.0553427 5.4662061 -0.55986357
2.2445726 5.9694653 -0.5579589
2.4842486 6.6068859 -0.55846667
2.7724917 7.3734717 -0.55742615
3.1515515 8.3815851 -0.55888635
3.6204739 9.6286898 -0.55625814
4.2752442 11.370058 -0.5556497
5.2025061 13.836121 -0.5530985
6.6559958 17.701693 -0.5502733
9.2343121 24.558754 -0.54523271
15.052799 40.033081 -0.53321934
0.71618098 1.9781896 -0.56372178
0.74138111 2.0477958 -0.56419998
0.76657134 2.1173744 -0.56344104
0.79146987 2.1861477 -0.56125087
0.82109761 2.2679834 -0.56108779
0.85636997 2.3654106 -0.56319356
0.88836205 2.4537771 -0.56149906
0.92537147 2.5560021 -0.5612945
0.96588355 2.667902 -0.56132215
1.0063994 2.7798126 -0.5593769
1.0553228 2.9149454 -0.55992317
1.1124693 3.0727918 -0.56223845
1.1684303 3.2273641 -0.56119126
1.2293544 3.3956444 -0.55967748
1.3008084 3.5930102 -0.55972743
1.3837835 3.8221986 -0.56096286
1.4691941 4.0581141 -0.55907518
1.5772953 4.3567047 -0.56109738
1.6892605 4.6659679 -0.55912107
1.8289337 5.051764 -0.5601728
1.9875937 5.4900045 -0.5597555
2.179477 6.0200124 -0.5601362
2.4060504 6.6458397 -0.55921626
2.6811872 7.4058042 -0.55733591
3.0381444 8.3917685 -0.55703217
3.5048251 9.6808043 -0.55673707
4.1281848 11.40261 -0.55471784
5.0365124 13.911533 -0.5535956
6.4412823 17.7917 -0.55056751
8.9412432 24.696934 -0.54581833
14.585324 40.286652 -0.53416753
0.69147307 1.9858955 -0.56345212
0.70604473 2.027745 -0.55624169
0.73814005 2.1199222 -0.56166118
0.76144344 2.1868489 -0.55898482
0.79708195 2.289202 -0.56386971
0.8266803 2.3742077 -0.56282526
0.8593803 2.4681215 -0.56232083
0.89720118 2.5767422 -0.5633837
0.93563104 2.6871119 -0.56290072
0.97364175 2.7962778 -0.56023866
1.0218412 2.9347055 -0.56126285
1.0740547 3.0846615 -0.56195128
1.1287333 3.2416973 -0.56122774
1.1938306 3.4286554 -0.56265628
1.2604417 3.619961 -0.56146902
1.3356429 3.8359375 -0.56052643
1.4204382 4.0794678 -0.55956841
1.5242872 4.3777199 -0.56134748
1.6357466 4.6978288 -0.56048632
1.7648809 5.0686994 -0.55960196
1.9222432 5.5206404 -0.56042677
2.1046386 6.044476 -0.55996209
2.326544 6.6817842 -0.55979121
2.6000092 7.4671698 -0.55950576
2.9383097 8.4387617 -0.55771101
3.3879213 9.7300358 -0.5571304
3.9906917 11.46118 -0.55513793
4.8719807 13.992223 -0.55438066
6.2246137 17.876955 -0.5507955
8.6445751 24.827032 -0.54630303
14.114822 40.537464 -0.5351513
0.66753024 1.9958235 -0.56389743
0.6927498 2.0712264 -0.56578982
0.71439487 2.1359422 -0.56353563
0.73723888 2.2042427 -0.56107128
0.76515496 2.287708 -0.56114173
0.79619932 2.3805263 -0.56195974
0.82878721 2.4779596 -0.56219786
0.86557746 2.5879574 -0.56346607
0.89786834 2.6845026 -0.55999899
0.94307661 2.819669 -0.56255925
0.9878512 2.9535389 -0.56249905
1.0384784 3.104907 -0.56327063
1.0881388 3.2533851 -0.56089228
1.1492908 3.4362211 -0.56153625
1.2174561 3.6400259 -0.56221664
1.2863847 3.846113 -0.55965966
1.3656632 4.0831447 -0.55772722
1.4712216 4.3987498 -0.56168193
1.5765467 4.7136574 -0.56001955
1.7032846 5.0925865 -0.55988443
1.850898 5.5339303 -0.55942315
2.0287967 6.0658226 -0.55958629
2.2419987 6.7032676 -0.55923915
2.5055857 7.4913564 -0.55896717
2.8367352 8.4814482 -0.55818462
3.2637496 9.7581615 -0.55640084
3.8510258 11.514037 -0.55536252
4.6996837 14.051407 -0.55439401
6.0137258 17.980211 -0.55165678
8.3471489 24.956825 -0.54685915
13.649326 40.809608 -0.53648776
0.64592612 2.0131869 -0.56651634
0.66045618 2.0584736 -0.5600453
0.68773013 2.1434796 -0.56325048
0.71633649 2.2326384 -0.56601423
0.73888797 2.3029253 -0.56260324
0.76614517 2.3878791 -0.56142908
0.79741424 2.4853368 -0.56160456
0.83068597 2.5890365 -0.56143463
0.86832124 2.706336 -0.56228364
0.90783322 2.8294847 -0.56224787
0.94938517 2.9589915 -0.56127179
1.0021849 3.1235547 -0.56437522
1.0511627 3.2762063 -0.56255579
1.1076307 3.4522026 -0.56187969
1.1723007 3.6537623 -0.5620693
1.2430511 3.8742733 -0.56149071
1.3228656 4.123035 -0.5609116
1.4169885 4.4163918 -0.56166732
1.5193285 4.7353592 -0.56033593
1.6372299 5.1028285 -0.55875486
1.7852261 5.5640945 -0.56021094
1.9565418 6.098042 -0.56029677
2.1634548 6.7429371 -0.56028688
2.4153452 7.5280156 -0.55944413
2.7340527 8.5213451 -0.5585556
3.1491742 9.8151731 -0.55740142
3.7172656 11.58577 -0.55657566
4.5309262 14.121742 -0.5549289
5.7970963 18.068071 -0.55212367
8.0535555 25.10088 -0.5478043
13.16652 41.036686 -0.53730392
0.61889267 2.0137165 -0.5644812
0.63620287 2.0700393 -0.56102121
0.65945232 2.1456871 -0.56165725
0.68138558 2.2170522 -0.55989641
0.71104306 2.31355 -0.56302029
0.74068934 2.4100113 -0.56444865
0.76710802 2.495971 -0.56183356
0.79972392 2.6020947 -0.56209135
0.83446139 2.7151213 -0.56193459
0.86963153 2.8295557 -0.56009477
0.91887051 2.9897666 -0.56492341
0.95895076 3.1201775 -0.56159198
1.0159857 3.3057544 -0.56544161
1.0650744 3.4654763 -0.56186604
1.1251261 3.6608689 -0.56099182
1.1975894 3.8966458 -0.56255633
1.273728 4.144381 -0.56164241
1.3614531 4.4298158 -0.561203
1.4656827 4.7689524 -0.56213588
1.5814534 5.1456399 -0.56127089
1.7183726 5.5911398 -0.56076413
1.8808542 6.1198125 -0.5601297
2.0799992 6.7677789 -0.56018353
2.3243227 7.5627441 -0.55985868
2.6269107 8.547287 -0.55809653
3.0279403 9.8521338 -0.55734384
3.5728836 11.625237 -0.55631906
4.35639 14.174565 -0.55485767
5.5757947 18.142191 -0.55225176
7.7489119 25.212952 -0.54812926
12.686973 41.280125 -0.53840804
0.59492493 2.0240273 -0.56527811
0.61534595 2.0935032 -0.56528693
0.63034892 2.1445456 -0.55928725
0.66030014 2.2464442 -0.5652259
0.68146592 2.3184536 -0.56213182
0.70656782 2.4038541 -0.5609293
0.73990804 2.5172827 -0.56454009
0.76884675 2.6157367 -0.56295347
0.80692816 2.7452958 -0.56608325
0.83656883 2.8461378 -0.56129843
0.87919879 2.9911716 -0.5631035
0.91527826 3.1139195 -0.55839771
0.96758962 3.2918911 -0.56099278
1.0230309 3.4805107 -0.56222153
1.0832804 3.6854894 -0.5626809
1.1511409 3.9163613 -0.56331652
1.218197 4.1444964 -0.55958575
1.3052728 4.440742 -0.56051147
1.4037398 4.7757421 -0.56085914
1.5124576 5.145617 -0.55919755
1.6501139 5.6139455 -0.56097394
1.8106004 6.1599455 -0.5617227
1.9939612 6.7837677 -0.55943513
2.2302923 7.5878034 -0.55964124
2.5253155 8.5915184 -0.55891478
2.9112597 9.9045601 -0.55824226
3.4296548 11.668221 -0.55631584
4.1835208 14.232991 -0.55508906
5.3590136 18.232201 -0.55294389
7.4456706 25.331335 -0.54867101
12.198174 41.500095 -0.53927994
0.56575245 2.0160766 -0.56107223
0.5887081 2.0978796 -0.5644713
0.60839099 2.1680202 -0.56341577
0.63334167 2.2569327 -0.56586266
0.65209907 2.3237755 -0.56143558
0.67812473 2.4165187 -0.56189626
0.70697284 2.5193198 -0.56300479
0.73171932 2.6075046 -0.55920303
0.76640195 2.7310972 -0.56116986
0.80181807 2.8573036 -0.5615136
0.84009659 2.9937105 -0.56159431
0.88225013 3.1439259 -0.5617907
0.93206036 3.3214262 -0.56403029
0.97886962 3.4882326 -0.56148207
1.0341402 3.6851912 -0.56065154
1.1011569 3.9240074 -0.56242621
1.1706496 4.1716466 -0.56126553
1.2526391 4.4638181 -0.56143755
1.3475473 4.8020272 -0.5619576
1.4537787 5.1805859 -0.56101269
1.581392 5.6353402 -0.56112629
1.7287259 6.1603684 -0.55978054
1.9114821 6.811626 -0.55975193
2.1348307 7.6075363 -0.55911821
2.4167964 8.6123304 -0.55829316
2.7904456 9.94384 -0.55848008
3.2907789 11.726794 -0.55713701
4.0136433 14.302744 -0.55584258
5.1404738 18.318239 -0.55359441
7.1446385 25.460142 -0.5495165
11.70897 41.725281 -0.54029435
0.53945529 2.0173993 -0.55955201
0.5608936 2.0975721 -0.56249028
0.57945806 2.1669977 -0.56125581
0.5995214 2.2420285 -0.56023508
0.62691134 2.3444583 -0.56452751
0.65196723 2.4381599 -0.56502157
0.67728955 2.5328577 -0.56412637
0.70312649 2.6294799 -0.56201917
0.73630011 2.7535393 -0.56387818
0.76656276 2.8667126 -0.56146777
0.80408084 3.0070188 -0.56219351
0.84419423 3.1570306 -0.56223494
0.88790232 3.3204856 -0.56197399
0.93829864 3.5089526 -0.56291753
0.99174011 3.7088075 -0.56234664
1.0531183 3.9383435 -0.56258237
1.1221819 4.19662 -0.56272644
1.1998587 4.4871078 -0.56246859
1.287696 4.8155928 -0.56164974
1.3886582 5.193161 -0.56048292
1.5106212 5.6492658 -0.56062096
1.6533703 6.1831036 -0.55995673
1.8279872 6.8361182 -0.55987513
2.0423412 7.6377378 -0.55944985
2.311985 8.6461239 -0.5585987
2.6682134 9.9783096 -0.55853105
3.1489711 11.776197 -0.55760241
3.8413637 14.365537 -0.55640513
4.9195004 18.39744 -0.55411792
6.837975 25.571955 -0.55007344
11.218308 41.953075 -0.54141688
0.5168305 2.0326147 -0.56196702
0.53957295 2.1220572 -0.56723416
0.55180413 2.1701605 -0.56027532
0.57331181 2.2547469 -0.56160915
0.59561706 2.3424699 -0.56224263
0.61875701 2.433476 -0.56213033
0.64795917 2.5483234 -0.56575358
0.67334998 2.6481817 -0.56420404
0.6988734 2.7485611 -0.56105649
0.73565346 2.8932116 -0.56484342
0.76609778 3.0129442 -0.56149769
0.80640662 3.1714728 -0.56299847
0.84581941 3.3264771 -0.56118536
0.89284456 3.5114198 -0.56150961
0.94475013 3.7155564 -0.56156605
1.002254 3.9417102 -0.5612604
1.0684165 4.2019172 -0.56163263
1.1428946 4.4948282 -0.56163228
1.2279825 4.8294659 -0.56146419
1.3274965 5.220839 -0.56166595
1.4425343 5.673265 -0.5611999
1.5805789 6.2161732 -0.561149
1.746469 6.8685932 -0.56073356
1.9487967 7.6643167 -0.55959916
2.2119288 8.6991749 -0.56022656
2.5456874 10.011796 -0.55861104
3.0033395 11.81167 -0.55749124
3.6657007 14.416635 -0.55659634
4.6942296 18.461679 -0.55427229
6.5281444 25.674183 -0.55050409
10.720969 42.163918 -0.54239553
0.4920105 2.0396912 -0.56220829
0.51179814 2.1217232 -0.56541991
0.52741092 2.1864481 -0.56276345
0.54474205 2.2582963 -0.56078243
0.56868041 2.3575358 -0.5641377
0.59166163 2.4528074 -0.56487262
0.6099534 2.5286381 -0.55967581
0.63986439 2.652638 -0.56343454
0.67187345 2.7853355 -0.56683379
0.69357842 2.8753161 -0.55964231
0.72857946 3.0204172 -0.56117833
0.76557612 3.1737914 -0.56169647
0.80414051 3.3336651 -0.56068742
0.84739143 3.5129671 -0.56004846
0.89678973 3.7177539 -0.56018919
0.9549486 3.958859 -0.5619877
1.0160388 4.2121158 -0.56128341
1.0878628 4.5098715 -0.56179798
1.1690928 4.8466201 -0.56174475
1.2632738 5.2370596 -0.5616973
1.3752705 5.7013559 -0.56226331
1.499501 6.2163687 -0.55945987
1.6631824 6.8949308 -0.56117171
1.8540938 7.6863775 -0.55950302
2.1023877 8.7157106 -0.55958432
2.4200623 10.032671 -0.55807322
2.8637123 11.871878 -0.55862868
3.4896595 14.466821 -0.55683511
4.4739261 18.54722 -0.55514681
6.2197804 25.784878 -0.55119598
10.221785 42.375687 -0.5434618
0.47001475 2.0592585 -0.56596583
0.48456264 2.1229966 -0.5641287
0.49919209 2.1870921 -0.56130683
0.51885527 2.2732418 -0.56286681
0.53632045 2.349761 -0.56065685
0.55848461 2.4468682 -0.56188083
0.5818041 2.549037 -0.56256479
0.60498369 2.6505928 -0.56137758
0.63149947 2.7667656 -0.561432
0.66292793 2.9044619 -0.56368595
0.69107777 3.0277936 -0.56092757
0.72830898 3.1909134 -0.56309921
0.76384252 3.3465953 -0.56124002
0.80746293 3.5377076 -0.56236726
0.85312182 3.7377515 -0.56157923
0.90649527 3.9715943 -0.56217074
0.96693116 4.2363801 -0.56288981
1.0312032 4.5179725 -0.56118518
1.1076396 4.8528605 -0.56084698
1.1976506 5.2472224 -0.56116539
1.303987 5.7131104 -0.56179869
1.4265231 6.2499733 -0.56086314
1.5791085 6.9184899 -0.56146634
1.7621434 7.7204142 -0.56036097
1.996058 8.7452555 -0.55986303
2.2975893 10.066343 -0.5583325
2.7168837 11.903382 -0.55849689
3.3132353 14.516156 -0.55712384
4.2477999 18.610729 -0.55544233
5.9147801 25.914209 -0.55236417
9.7164469 42.570312 -0.54438436
0.4418233 2.0517111 -0.56235588
0.45721519 2.1231871 -0.56264287
0.47277099 2.1954241 -0.56191075
0.49200609 2.2847466 -0.56417489
0.50780296 2.3581033 -0.56111503
0.52988058 2.4606259 -0.56350124
0.54981065 2.5531759 -0.56194365
0.57383305 2.6647298 -0.56283474
0.59871 2.7802515 -0.56263214
0.62449235 2.8999782 -0.56128299
0.6564908 3.0485706 -0.56323862
0.68640542 3.1874862 -0.5609625
0.72442693 3.364048 -0.56263047
0.7630263 3.5432935 -0.56172127
0.80715376 3.7482097 -0.5616169
0.85760033 3.9824703 -0.56217504
0.91195405 4.2348747 -0.56115735
0.97646207 4.5344329 -0.56169581
1.0463659 4.8590479 -0.56003273
1.132012 5.2567658 -0.560655
1.2325523 5.7236485 -0.56130219
1.3525089 6.2806954 -0.56208515
1.4927008 6.9317098 -0.5610072
1.6662714 7.7377262 -0.56008798
1.8877705 8.7663097 -0.55968249
2.1806126 10.12619 -0.56012237
2.5724411 11.94574 -0.55895782
3.1380584 14.572317 -0.55775613
4.0223217 18.678602 -0.55594987
5.5960956 25.986795 -0.55240285
9.215353 42.793674 -0.54575032
0.4161579 2.0549881 -0.561809
0.43076801 2.1271327 -0.56224233
0.44516051 2.1982031 -0.56117857
0.46336237 2.2880838 -0.56354934
0.481208 2.3762054 -0.56397182
0.5013594 2.4757133 -0.56550175
0.5191232 2.563431 -0.56275326
0.54053426 2.6691585 -0.56232375
0.5651018 2.7904732 -0.56325191
0.59134686 2.9200714 -0.56372201
0.62090868 3.0660477 -0.5650143
0.64791745 3.1994169 -0.56161761
0.68231052 3.3692501 -0.56205481
0.72161949 3.5633578 -0.56345278
0.76417845 3.773514 -0.56395781
0.80932176 3.9964316 -0.56269848
0.86165464 4.2548513 -0.56235796
0.92149854 4.5503607 -0.56222272
0.98983091 4.8877859 -0.56189966
1.0684611 5.2760615 -0.56126928
1.1630957 5.7433677 -0.56179094
1.274313 6.2925587 -0.56170207
1.4077402 6.9514222 -0.56115919
1.574632 7.7755346 -0.56138074
1.782185 8.8004313 -0.5604195
2.0514393 10.13001 -0.55889601
2.426137 11.980267 -0.5591352
2.9570563 14.601947 -0.55745631
3.7950342 18.739882 -0.55634278
5.2875733 26.110043 -0.55359876
8.7031937 42.976379 -0.54667425
0.3927134 2.0697217 -0.56447411
0.40484247 2.1336455 -0.56260538
0.4241043 2.2351615 -0.56923932
0.4331834 2.283011 -0.56094557
0.45011187 2.3722293 -0.56167197
0.46776477 2.4652655 -0.561759
0.48498094 2.5560002 -0.55977046
0.50754446 2.674917 -0.56217963
0.5301441 2.794024 -0.56261027
0.55350327 2.917134 -0.56179851
0.58152848 3.0648355 -0.56343055
0.61036968 3.2168379 -0.56331557
0.64112771 3.3789423 -0.56231403
0.67749894 3.5706298 -0.56324279
0.71473795 3.766891 -0.56161201
0.76102954 4.0108619 -0.56337005
0.8088097 4.2626781 -0.5620355
0.86469728 4.5572233 -0.56171447
0.93076342 4.9054122 -0.56256771
1.0061394 5.3026671 -0.56274092
1.0916818 5.7535024 -0.56142682
1.1952933 6.2995672 -0.56097323
1.3214259 6.9643245 -0.56084663
1.4788661 7.7940836 -0.56136459
1.673646 8.8206339 -0.5603531
1.930487 10.174266 -0.55998576
2.278476 12.008277 -0.55909258
2.7820077 14.662045 -0.55840248
3.5643101 18.785021 -0.55633962
4.9724541 26.206377 -0.55430299
8.1875954 43.151169 -0.54757559
0.36627597 2.0689743 -0.56299937
0.37781972 2.1341813 -0.56147927
0.39357105 2.2231555 -0.56490648
0.40602764 2.2935188 -0.56225812
0.42219701 2.3848543 -0.56338942
0.43897772 2.4796431 -0.56376255
0.45545179 2.5726998 -0.5621587
0.47372726 2.6759319 -0.56112623
0.49441788 2.7928064 -0.56109846
0.51891106 2.9311607 -0.56322843
0.54090637 3.0554051 -0.56043178
0.57199752 3.231029 -0.56452632
0.59887457 3.3828485 -0.56169611
0.63414454 3.5820773 -0.5637759
0.66784525 3.7724419 -0.56117284
0.71211267 4.0224943 -0.56373137
0.75474393 4.2633042 -0.56085193
0.80972761 4.5738893 -0.56249887
0.8699823 4.9142485 -0.56231177
0.93843365 5.3009081 -0.56128716
1.0228419 5.7777028 -0.56251848
1.1203573 6.3285356 -0.56228358
1.2362766 6.9833264 -0.56111026
1.3835938 7.8154736 -0.5616374
1.5665964 8.8491964 -0.5609014
1.8046173 10.193699 -0.55979162
2.131798 12.041838 -0.55939239
2.6010518 14.692499 -0.55830204
3.3415415 18.875286 -0.55775386
4.6522918 26.279291 -0.55459332
7.6753116 43.35535 -0.54892743
0.34168664 2.07866 -0.56444901
0.35390785 2.153008 -0.56524467
0.36434379 2.2164955 -0.56203324
0.37918535 2.3067844 -0.5643245
0.39379409 2.3956571 -0.56475484
0.40890321 2.4875739 -0.56437987
0.42252421 2.5704374 -0.56048673
0.44199181 2.6888692 -0.56265688
0.46233711 2.8126404 -0.5638985
0.48392808 2.9439895 -0.56450742
0.50469613 3.0703328 -0.56198907
0.53008318 3.2247756 -0.56225234
0.55760294 3.3921928 -0.56206667
0.5878759 3.5763593 -0.56169575
0.62344074 3.7927189 -0.56300622
0.65943843 4.0117116 -0.56104147
0.70363313 4.2805715 -0.56194282
0.75109708 4.5693197 -0.56075871
0.81136954 4.9359889 -0.56361514
0.87474459 5.3215327 -0.5622896
0.94950211 5.7763219 -0.56120485
1.0426221 6.3428202 -0.56237113
1.1507518 7.0006299 -0.5613212
1.2876971 7.8337407 -0.56176972
1.4597394 8.8803654 -0.56169683
1.6802447 10.221815 -0.56015867
1.984134 12.070533 -0.55954975
2.4246144 14.750209 -0.55931973
3.1116121 18.929577 -0.55818528
4.3363132 26.380079 -0.55555308
7.1552973 43.529446 -0.54997611
0.31658408 2.0858767 -0.56530887
0.32619786 2.149219 -0.56315428
0.33625397 2.2154756 -0.56068379
0.3509576 2.3123534 -0.56458849
0.36334315 2.3939581 -0.56325847
0.37815094 2.4915221 -0.56417799
0.3931005 2.5900202 -0.56366014
0.4082219 2.6896505 -0.56172752
0.42619354 2.8080602 -0.56188703
0.44556034 2.9356623 -0.56181765
0.46620673 3.0716951 -0.56114668
0.49089953 3.2343884 -0.56283337
0.51707447 3.406847 -0.56339872
0.54466581 3.5886381 -0.5625298
0.57611334 3.7958364 -0.56237489
0.61143994 4.0285926 -0.56230831
0.65111518 4.2900009 -0.56208712
0.69818681 4.600142 -0.56344509
0.74940675 4.937614 -0.56270599
0.80691749 5.316535 -0.56067073
0.88022679 5.7995481 -0.56236732
0.9643417 6.3537555 -0.56224686
1.0687456 7.0416412 -0.56351316
1.1909925 7.8470888 -0.5616343
1.3480456 8.8818645 -0.56070083
1.5574712 10.261706 -0.56125277
1.835001 12.090265 -0.55937618
2.2439618 14.784785 -0.5595423
2.8779881 18.962193 -0.5580613
4.0177112 26.471483 -0.55639547
6.6343279 43.711578 -0.55120486
0.29019219 2.0844328 -0.56390786
0.30072665 2.1601014 -0.5649941
0.31041291 2.229677 -0.56326926
0.32331926 2.3223825 -0.56602371
0.33415058 2.4001834 -0.56371379
0.34682104 2.4911945 -0.56309557
0.36418855 2.6159441 -0.56828439
0.3769595 2.7076771 -0.56448162
0.39293611 2.8224361 -0.56375414
0.41038114 2.9477427 -0.56312126
0.42951712 3.0851953 -0.56260556
0.44944081 3.2283058 -0.56077081
0.47593975 3.4186463 -0.56433952
0.50041902 3.5944793 -0.56243837
0.5302301 3.8086104 -0.56325889
0.56131029 4.0318575 -0.56175816
0.59921587 4.304131 -0.56293046
0.64091021 4.6036191 -0.56286317
0.68963021 4.9535718 -0.56351554
0.74427372 5.3460732 -0.56277806
0.8097809 5.816607 -0.56301337
0.88722426 6.3728776 -0.562931
0.97857016 7.0290098 -0.56149697
1.0963049 7.874691 -0.56260246
1.24177 8.9195585 -0.56207395
1.4313798 10.281514 -0.56133109
1.6908014 12.144923 -0.56090069
2.0641 14.826305 -0.56011075
2.6446764 18.99655 -0.55807322
3.695034 26.541204 -0.55686384
6.106452 43.86227 -0.55211657
0.26293969 2.0752051 -0.56049436
0.27446741 2.1661856 -0.56566
0.28380567 2.239886 -0.564924
0.29340199 2.3156233 -0.56345439
0.30473304 2.4050517 -0.56393445
0.31626597 2.4960735 -0.56327677
0.33002985 2.6047025 -0.56491792
0.34226274 2.7012484 -0.56222147
0.35832602 2.8280249 -0.56394774
0.37295389 2.9434729 -0.56138706
0.39349127 3.1055605 -0.56539422
0.41109034 3.244458 -0.56265593
0.4314481 3.405128 -0.56118977
0.45571896 3.5966814 -0.5618636
0.48362225 3.8169031 -0.56356317
0.51528156 4.0667686 -0.56569672
0.54469913 4.2989416 -0.56133336
0.58403504 4.6093936 -0.56264859
0.62873548 4.9621835 -0.56357312
0.67807412 5.3515806 -0.56243753
0.7378245 5.8231497 -0.5627259
0.80895513 6.3845358 -0.56303954
0.89288282 7.0469198 -0.56200814
0.99728048 7.8708606 -0.56141025
1.1306232 8.9232445 -0.56138772
1.3032278 10.285495 -0.5606311
1.5422425 12.171877 -0.56122726
1.8804966 14.841488 -0.55976838
2.4151936 19.061489 -0.55906624
3.3722017 26.614508 -0.55748963
5.578155 44.024605 -0.55325472
0.23744145 2.0786088 -0.5605827
0.24714275 2.1635358 -0.5641318
0.25621 2.2429123 -0.56484997
0.26425794 2.3133652 -0.5620718
0.27585876 2.4149213 -0.56541061
0.28696907 2.512183 -0.566073
0.29735622 2.6031144 -0.56373787
0.30871478 2.7025492 -0.56165963
0.32241881 2.8225172 -0.56201637
0.33995411 2.9760244 -0.56675524
0.35238037 3.0848062 -0.56078446
0.37153739 3.2525105 -0.56321752
0.38934797 3.408428 -0.56090218
0.41140011 3.6014767 -0.56177998
0.43654916 3.8216362 -0.56342685
0.46353757 4.0578985 -0.56362736
0.4921374 4.3082666 -0.56171829
0.52832007 4.6250167 -0.56372005
0.56733972 4.9666023 -0.56324005
0.6133818 5.3696637 -0.56350279
0.66452515 5.8173823 -0.56133652
0.73140615 6.4028721 -0.56382084
0.80567783 7.053061 -0.5616653
0.90258855 7.9014359 -0.5627569
1.0215217 8.9426003 -0.5617727
1.1808658 10.337529 -0.56263334
1.3947113 12.209574 -0.56213218
1.700413 14.885746 -0.56060666
2.1837482 19.116957 -0.55986321
3.0481584 26.684172 -0.55812162
5.0462012 44.17543 -0.55432838
0.21384819 2.1008451 -0.56582773
0.22001556 2.1614335 -0.56283563
0.22811244 2.2409773 -0.56361365
0.23730129 2.3312485 -0.56566507
0.24515367 2.4083903 -0.56313312
0.25552475 2.5102761 -0.56489259
0.26568705 2.6101103 -0.56450272
0.27655646 2.7168915 -0.56389099
0.28806472 2.8299484 -0.56274819
0.30288574 2.9755504 -0.5659129
0.31595954 3.1039877 -0.56352252
0.33142397 3.2559102 -0.56305796
0.34788841 3.4176569 -0.56167448
0.36812034 3.6164153 -0.56336153
0.38941672 3.8256309 -0.56326723
0.41359529 4.0631614 -0.56360936
0.44072458 4.3296795 -0.563761
0.47010222 4.6182857 -0.5621525
0.50516897 4.9627814 -0.56205976
0.54601425 5.3640456 -0.56216609
0.59444797 5.8398585 -0.56275743
0.65068686 6.3923497 -0.5621472
0.71972281 7.0705585 -0.56231147
0.80369729 7.8955245 -0.5615896
0.91149861 8.954565 -0.56177777
1.0522445 10.337254 -0.56187165
1.2424039 12.205379 -0.56119323
1.5185118 14.917864 -0.56107062
1.9470841 19.12816 -0.55944782
2.7227466 26.74827 -0.55871975
4.5131187 44.336895 -0.55561614
0.18787271 2.1018806 -0.56544167
0.1935551 2.1654539 -0.56322026
0.19966315 2.2337897 -0.56114602
0.2079448 2.326443 -0.56383598
0.21583661 2.4147348 -0.5639534
0.22472602 2.5141876 -0.5651083
0.23304801 2.6072924 -0.56323093
0.24366339 2.7260549 -0.56512827
0.25380266 2.8394911 -0.56398255
0.26397723 2.9533219 -0.56102562
0.2786527 3.1175082 -0.56531239
0.29109228 3.2566793 -0.56252944
0.30812833 3.4472754 -0.56587666
0.3231 3.6147752 -0.56244457
0.34176105 3.8235512 -0.56229979
0.36291817 4.0602527 -0.56254435
0.38631651 4.3220282 -0.56210369
0.41568583 4.6506062 -0.56542176
0.44451645 4.9731569 -0.56257331
0.48060414 5.3768988 -0.56285125
0.52233392 5.8437624 -0.56247222
0.57332945 6.41429 -0.56341404
0.63259792 7.077373 -0.56219226
0.70587277 7.8971567 -0.56104589
0.80182743 8.9706774 -0.56212759
0.92567468 10.356255 -0.56224322
1.094561 12.245719 -0.56238663
1.3349863 14.935548 -0.56107593
1.7167413 19.206543 -0.56108046
2.3972485 26.819914 -0.55955821
3.9750237 44.471737 -0.55665129
0.16190338 2.1025856 -0.56505299
0.16713473 2.1705232 -0.56396151
0.17279607 2.2440453 -0.563146
0.1796594 2.3331769 -0.56488991
0.18808042 2.4425378 -0.5698635
0.19285366 2.5045264 -0.56236124
0.20106401 2.6111515 -0.56348789
0.20962487 2.7223284 -0.56377876
0.21804301 2.8316522 -0.56185061
0.22896039 2.9734325 -0.56426841
0.23955962 3.1110811 -0.56357014
0.25244638 3.2784374 -0.56570876
0.26436058 3.4331627 -0.56298387
0.2801317 3.6379771 -0.565476
0.29554641 3.8381629 -0.5638715
0.31313035 4.0665197 -0.56283665
0.33392477 4.3365698 -0.56341827
0.35759678 4.6439905 -0.56404018
0.38419434 4.9894042 -0.56383419
0.41456369 5.383801 -0.56299758
0.45099765 5.8569565 -0.56316578
0.49572268 6.4377856 -0.56489974
0.54641563 7.096118 -0.56310499
0.61139762 7.9400177 -0.56351417
0.69174099 8.9834099 -0.56234992
0.79812032 10.364923 -0.56213856
0.94274735 12.243147 -0.56169367
1.1520038 14.96069 -0.56144583
1.4803095 19.224287 -0.56102473
2.0699952 26.882339 -0.56028724
3.4354541 44.615101 -0.55787486
0.13539287 2.0944264 -0.56237036
0.14006644 2.166723 -0.56248415
0.14462104 2.2371793 -0.56093431
0.15022492 2.3238673 -0.56214619
0.15536408 2.4033661 -0.56023628
0.16254023 2.5143757 -0.56408137
0.16848889 2.6063969 -0.56197232
0.17611648 2.72439 -0.56371462
0.18373035 2.8421712 -0.56344688
0.19227087 2.9742866 -0.56393915
0.20220409 3.1279459 -0.56613201
0.21053328 3.2567923 -0.56148463
0.22288281 3.4478302 -0.56489694
0.23466678 3.6301193 -0.5637635
0.24808021 3.837615 -0.56330031
0.26359183 4.0775685 -0.5638746
0.28021273 4.334681 -0.56268269
0.30058694 4.6498551 -0.5642609
0.32305044 4.9973488 -0.5642404
0.34808317 5.3845863 -0.56258959
0.37921262 5.8661356 -0.56355739
0.41523635 6.4233956 -0.56314647
0.45870781 7.0958667 -0.56259489
0.51318723 7.938622 -0.56292474
0.58108658 8.9889746 -0.56220847
0.6706928 10.375115 -0.56220156
0.7935527 12.275666 -0.56269544
0.96932429 14.994721 -0.56223315
1.2455208 19.267275 -0.56178981
1.7409878 26.931778 -0.56082904
2.8925061 44.744904 -0.55901092
0.10966506 2.0965929 -0.5625475
0.11391024 2.177753 -0.56494123
0.11731525 2.2428503 -0.56195205
0.12255627 2.343049 -0.56637889
0.12672631 2.4227726 -0.56435418
0.13125294 2.5093133 -0.56254101
0.1374134 2.6270897 -0.56602681
0.1427083 2.7283187 -0.56412172
0.14859641 2.8408883 -0.56278771
0.15522075 2.9675333 -0.56225437
0.16397123 3.1348264 -0.56696951
0.17172886 3.2831378 -0.56561995
0.18024857 3.4460192 -0.56419444
0.18989901 3.6305177 -0.56342012
0.201226 3.8470685 -0.56428206
0.21314822 4.0749993 -0.56311435
0.2276119 4.3515182 -0.5644623
0.24314433 4.6484694 -0.56368732
0.26123583 4.9943457 -0.56349605
0.28148884 5.3815455 -0.56186777
0.30722257 5.8735266 -0.56386191
0.33647752 6.432827 -0.563568
0.37270933 7.1255121 -0.56453931
0.41641349 7.9610553 -0.56410974
0.47148982 9.0140123 -0.56336921
0.54343045 10.389384 -0.56257015
0.64254141 12.284202 -0.56268197
0.78516096 15.010824 -0.56243241
1.0090045 19.290298 -0.56205684
1.4110643 26.976936 -0.56136566
2.347369 44.87735 -0.56026268
0.084225811 2.1064811 -0.56488001
0.086966425 2.1750236 -0.56391311
0.08936625 2.235043 -0.55967826
0.093269773 2.3326697 -0.56355011
0.096786492 2.4206226 -0.56353348
0.10074514 2.519628 -0.56453305
0.10446404 2.6126375 -0.56259364
0.1092167 2.7315011 -0.56445944
0.1134168 2.8365452 -0.56160867
0.11902034 2.9766896 -0.5636692
0.12417591 3.1056299 -0.56137037
0.13067919 3.2682765 -0.56274021
0.13789359 3.4487078 -0.56431437
0.14526042 3.632952 -0.56347805
0.15349174 3.8388164 -0.56275225
0.16294444 4.0752277 -0.56282645
0.17340076 4.3367395 -0.56222618
0.18568277 4.6439114 -0.56281519
0.19910701 4.9796505 -0.56151938
0.21619603 5.4070458 -0.56420994
0.23527855 5.8842983 -0.56457555
0.25751948 6.4405417 -0.56392378
0.28409407 7.1051707 -0.56260836
0.31799841 7.9531155 -0.56322747
0.36024958 9.0098133 -0.56278741
0.41645095 10.415405 -0.56365925
0.49214792 12.308581 -0.56347889
0.60092682 15.029134 -0.56279898
0.77298981 19.332415 -0.56296444
1.0808862 27.032883 -0.5622108
1.7991337 44.996193 -0.56142771
0.057738245 2.0863674 -0.55925363
0.060123891 2.1725726 -0.56304342
0.062320244 2.2519376 -0.56367433
0.064243264 2.3214257 -0.56060046
0.066863172 2.416096 -0.56224579
0.069390789 2.5074313 -0.56156665
0.072540827 2.6212575 -0.56421512
0.075036742 2.7114475 -0.56008238
0.07904245 2.8561935 -0.56526363
0.082771122 2.9909289 -0.56613004
0.085938744 3.1053905 -0.56109369
0.090776451 3.2802007 -0.56455845
0.095639378 3.4559224 -0.5652597
0.10045847 3.6300595 -0.56279534
0.1066862 3.8550985 -0.56490415
0.11286612 4.0784092 -0.56303161
0.1203215 4.3478093 -0.56342691
0.1285855 4.6464281 -0.562886
0.13788112 4.9823246 -0.56158721
0.1495239 5.4030356 -0.56355709
0.16242842 5.8693399 -0.56290621
0.17803858 6.4334116 -0.56306523
0.19696991 7.1174941 -0.56334984
0.21994598 7.9477329 -0.56261224
0.24966812 9.02174 -0.56329805
0.28801373 10.407355 -0.56298935
0.34068364 12.310579 -0.56333601
0.41668659 15.056942 -0.56360584
0.53537291 19.345663 -0.56311601
0.74935061 27.077732 -0.56290936
1.2483428 45.10878 -0.56259841
0.032336853 2.1035724 -0.56371623
0.033399086 2.1726727 -0.56292033
0.03455678 2.2479825 -0.56253546
0.036070768 2.3464704 -0.56649858
0.036952309 2.4038165 -0.55924022
0.038728233 2.5193434 -0.56408519
0.040081743 2.6073916 -0.56108207
0.041953113 2.7291279 -0.56358528
0.043816049 2.8503153 -0.56395108
0.045667794 2.9707749 -0.56216645
0.047894493 3.1156256 -0.56279403
0.050443541 3.281446 -0.56462336
0.053186622 3.4598885 -0.56575871
0.055776574 3.6283698 -0.56238449
0.059042528 3.840826 -0.56266379
0.062908061 4.0922861 -0.56479782
0.067067795 4.3628845 -0.56523091
0.07151369 4.6520982 -0.56342375
0.077122778 5.0169802 -0.5653438
0.083130822 5.4078145 -0.56390619
0.090234064 5.8698936 -0.5628103
0.098906711 6.4340653 -0.56297344
0.10956557 7.1274438 -0.56398809
0.12251496 7.9698253 -0.56402683
0.13877337 9.0274649 -0.56350631
0.16020633 10.42172 -0.56361717
0.18945931 12.324679 -0.56383198
0.23177885 15.077643 -0.56423146
0.29754651 19.355953 -0.5632664
0.41692895 27.122002 -0.56368047
0.69485199 45.201412 -0.56360453
0.0064817588 2.1076839 -0.56475401
0.0066480222 2.1617479 -0.56002635
0.0069107371 2.2471755 -0.56226969
0.0071787331 2.3343201 -0.56350124
0.0074763275 2.4310894 -0.565521
0.0077818888 2.5304494 -0.56650758
0.0080692666 2.6238961 -0.56456959
0.0083609279 2.7187362 -0.56137568
0.0088017499 2.8620791 -0.56621438
0.0091457451 2.9739366 -0.56270099
0.0095541114 3.1067257 -0.56112272
0.010063941 3.2725077 -0.56302154
0.010617265 3.4524329 -0.56447554
0.011203099 3.6429296 -0.56457716
0.011833224 3.8478284 -0.56362569
0.01254717 4.0799832 -0.56303602
0.013373344 4.3486319 -0.56332046
0.014312008 4.6538587 -0.56357306
0.015387358 5.0035319 -0.56376451
0.016578665 5.3909111 -0.56207991
0.01807105 5.8761921 -0.56335032
0.019817816 6.444191 -0.56379551
0.021890767 7.1182556 -0.56319714
0.024464952 7.955308 -0.56293559
0.027802534 9.0405951 -0.56426191
0.0320265 10.414108 -0.5631417
0.037932977 12.334727 -0.56422764
0.046364039 15.076269 -0.564116
0.059628174 19.389389 -0.56417543
0.083525822 27.160225 -0.56441087
0.1393299 45.306126 -0.5648461
-0.019370412 2.1007249 -0.56291062
-0.020037998 2.1731248 -0.5629949
-0.02071346 2.2463787 -0.56209159
-0.021516712 2.3334916 -0.56332254
-0.022366898 2.4256942 -0.56428736
-0.023067415 2.5016654 -0.5600847
-0.024087932 2.6123409 -0.56210452
-0.025159333 2.7285345 -0.56342012
-0.026237084 2.8454165 -0.56293923
-0.02748465 2.9807155 -0.5640049
-0.028790204 3.122303 -0.56395757
-0.030254159 3.2810693 -0.56451589
-0.031758729 3.4442403 -0.56315732
-0.033499297 3.6330051 -0.56306034
-0.035539947 3.8543141 -0.56459701
