# .PCD v0.7 - Point Cloud Data file format
VERSION 0.7
FIELDS x y z
SIZE 4 4 4
TYPE F F F
COUNT 1 1 1
WIDTH 1407
HEIGHT 1
VIEWPOINT 0 0 0 1 0 0 0
POINTS 1407
DATA ascii
-1.563459 -5.2007885 -0.56622678
-1.7051711 -5.6721888 -0.56783032
-1.8721803 -6.2277389 -0.56894314
-2.0671673 -6.8763556 -0.56810749
-2.3146791 -7.6996942 -0.56893224
-2.631366 -8.7531424 -0.57047027
-3.0418248 -10.118518 -0.5713442
-3.6033938 -11.986556 -0.57253832
-4.4198198 -14.702367 -0.57444328
-5.7156768 -19.012987 -0.57767785
-8.0759993 -26.864511 -0.58294326
-13.784565 -45.853848 -0.59694505
-0.57979894 -2.0183682 -0.56269097
-0.59869373 -2.0841436 -0.56175476
-0.62205297 -2.1654606 -0.56373334
-0.64928216 -2.2602496 -0.56768388
-0.67648548 -2.3549485 -0.56996077
-0.69572169 -2.4219127 -0.564134
-0.73025876 -2.5421414 -0.56909698
-0.75842428 -2.6401901 -0.56720155
-0.79186881 -2.7566156 -0.56740242
-0.82474434 -2.8710601 -0.56520236
-0.86430579 -3.0087795 -0.5654068
-0.91071332 -3.1703312 -0.56749845
-0.95398319 -3.3209603 -0.56493604
-1.0064265 -3.5035233 -0.56492823
-1.064288 -3.7049479 -0.56464165
-1.1321758 -3.9412756 -0.56588781
-1.2079955 -4.2052155 -0.56677008
-1.2888938 -4.486835 -0.56531805
-1.3872957 -4.8293867 -0.56614637
-1.500595 -5.2237988 -0.56668013
-1.636817 -5.6980081 -0.56835723
-1.792495 -6.2399468 -0.56800193
-1.9843043 -6.9076643 -0.56863528
-2.2184541 -7.7227755 -0.56857902
-2.5203898 -8.773859 -0.56975758
-2.915622 -10.149723 -0.57103866
-3.4528265 -12.019813 -0.57205558
-4.2368779 -14.749215 -0.57419467
-5.4742999 -19.056868 -0.57692224
-7.7381625 -26.937717 -0.58242297
-13.18527 -45.899925 -0.59538919
-0.55592853 -2.0289588 -0.56369507
-0.57934582 -2.1144245 -0.56795347
-0.59586972 -2.1747313 -0.56419665
-0.61689794 -2.2514775 -0.56353289
-0.64647341 -2.3594184 -0.56907564
-0.67061567 -2.4475298 -0.56813723
-0.69626981 -2.5411589 -0.56691754
-0.72712499 -2.6537704 -0.56815529
-0.75318605 -2.7488849 -0.5638622
-0.79022306 -2.884058 -0.56580549
-0.82955217 -3.0275965 -0.5669831
-0.86814517 -3.1684482 -0.56520778
-0.91180778 -3.3278027 -0.56415004
-0.96569723 -3.5244818 -0.56635016
-1.0203979 -3.7241216 -0.56560874
-1.0834914 -3.9543924 -0.56581539
-1.1587605 -4.2291002 -0.56802583
-1.2373079 -4.5157728 -0.56700426
-1.3304012 -4.8555326 -0.56725079
-1.4394114 -5.2533846 -0.56792665
-1.5653584 -5.7130504 -0.5678947
-1.7152437 -6.2600832 -0.56787205
-1.8984323 -6.9286618 -0.56839913
-2.1213028 -7.7420678 -0.56803602
-2.4098253 -8.7950811 -0.56916839
-2.7880459 -10.175464 -0.57051492
-3.3033834 -12.056278 -0.5718146
-4.0513859 -14.786244 -0.57365346
-5.2362213 -19.11051 -0.57655334
-7.3959031 -26.992647 -0.58160037
-12.593626 -45.96265 -0.59414917
-0.53203189 -2.0398297 -0.56485504
-0.55132657 -2.1138062 -0.56592363
-0.57005918 -2.1856279 -0.5651623
-0.58987981 -2.2616208 -0.56421357
-0.6118347 -2.3457966 -0.56393296
-0.63509959 -2.4349949 -0.56337219
-0.6626007 -2.5404353 -0.56489569
-0.69174814 -2.6521878 -0.5659526
-0.72020674 -2.7612991 -0.56454939
-0.75281131 -2.886306 -0.5643878
-0.78957433 -3.0272567 -0.56505859
-0.82914072 -3.1789558 -0.56522071
-0.87111312 -3.3398795 -0.56433886
-0.92038596 -3.5287933 -0.56518161
-0.97713405 -3.7463677 -0.56711972
-1.035496 -3.9701295 -0.56620246
-1.104713 -4.2355103 -0.56701934
-1.1812309 -4.5288825 -0.56678367
-1.2705033 -4.8711557 -0.56720799
-1.369692 -5.2514496 -0.56585389
-1.4933367 -5.7255073 -0.5672648
-1.6347561 -6.267715 -0.56669801
-1.8159717 -6.9625025 -0.56930035
-2.0292842 -7.7803497 -0.56897098
-2.2994509 -8.8161793 -0.56866091
-2.6633782 -10.21149 -0.57065547
-3.1533258 -12.089967 -0.57153016
-3.8666117 -14.824731 -0.57325864
-4.9938788 -19.146715 -0.57574952
-7.055191 -27.049862 -0.58091998
-11.997974 -46.000671 -0.59268874
-0.50778359 -2.0497401 -0.56582755
-0.52411687 -2.1156716 -0.56465489
-0.54269153 -2.1906509 -0.56469291
-0.56275427 -2.271637 -0.56494331
-0.58060861 -2.3437085 -0.56167215
-0.60725492 -2.4512701 -0.56536734
-0.63480955 -2.5624981 -0.56802297
-0.66302282 -2.6763849 -0.56933326
-0.68676919 -2.7722409 -0.56501716
-0.71741951 -2.8959649 -0.5645088
-0.7513535 -3.0329444 -0.56435305
-0.78977978 -3.1880574 -0.56506956
-0.83421797 -3.3674383 -0.56721932
-0.87984943 -3.5516362 -0.56706452
-0.9326691 -3.7648504 -0.56813854
-0.98537022 -3.9775858 -0.56549507
-1.0480511 -4.2306061 -0.56459492
-1.1260291 -4.5453753 -0.56707203
-1.2118627 -4.8918543 -0.56784004
-1.3090632 -5.2842183 -0.5676074
-1.4213297 -5.7373977 -0.56666839
-1.5628724 -6.3087549 -0.56862807
-1.7249804 -6.9631267 -0.56757414
-1.9314498 -7.7965693 -0.56837732
-2.1912146 -8.8451471 -0.56874847
-2.5339372 -10.228595 -0.56982702
-3.0015879 -12.116332 -0.5709886
-3.6786804 -14.849512 -0.57242447
-4.7542601 -19.191242 -0.57528704
-6.7097754 -27.084953 -0.57985789
-11.407486 -46.047928 -0.59144557
-0.47844541 -2.0383732 -0.56102324
-0.49682319 -2.1166701 -0.56324828
-0.51594716 -2.1981459 -0.56494683
-0.53586042 -2.2829847 -0.56608391
-0.55447233 -2.3622789 -0.56444597
-0.57766026 -2.4610689 -0.56594628
-0.60187674 -2.5642412 -0.56672591
-0.62455559 -2.6608622 -0.56435484
-0.65256512 -2.7801945 -0.56496006
-0.68194199 -2.9053519 -0.56466132
-0.71585786 -3.0498471 -0.56581753
-0.75132322 -3.2009442 -0.56567341
-0.792373 -3.375833 -0.56694925
-0.83428389 -3.5543907 -0.56582361
-0.88312334 -3.7624667 -0.56609732
-0.93767774 -3.9948907 -0.56627327
-0.99697614 -4.2475262 -0.56517416
-1.0713227 -4.5642724 -0.56774324
-1.1515986 -4.906281 -0.567828
-1.2419527 -5.2912264 -0.56667697
-1.3513988 -5.7575116 -0.56697088
-1.4817011 -6.3126526 -0.5672943
-1.640716 -6.9901209 -0.56808704
-1.8308251 -7.8000636 -0.566948
-2.085391 -8.8846188 -0.56959462
-2.4075084 -10.25697 -0.5697155
-2.8511565 -12.147093 -0.57074291
-3.4986701 -14.905766 -0.57289124
-4.5131779 -19.227983 -0.5746814
-6.3686128 -27.132895 -0.57916391
-10.813867 -46.071495 -0.58999574
-0.45538691 -2.0533025 -0.56354851
-0.47347668 -2.1348679 -0.5664987
-0.4883393 -2.2018821 -0.5643211
-0.50670028 -2.2846704 -0.56491423
-0.52610362 -2.3721585 -0.56521809
-0.54491061 -2.4569576 -0.56341738
-0.56840396 -2.5628872 -0.56483924
-0.59514374 -2.6834545 -0.56755149
-0.61800051 -2.786514 -0.56465739
-0.64724737 -2.9183857 -0.56560493
-0.67667121 -3.0510554 -0.56445533
-0.71026045 -3.2025068 -0.56436348
-0.74734527 -3.369719 -0.56433642
-0.789105 -3.5580103 -0.56481242
-0.83337396 -3.7576156 -0.56378293
-0.8877942 -4.0029917 -0.56583136
-0.94531852 -4.2623644 -0.56555909
-1.0138958 -4.5715733 -0.56705767
-1.0885128 -4.9080153 -0.56643683
-1.1784378 -5.3134799 -0.56746548
-1.2823131 -5.7818456 -0.56777149
-1.4015963 -6.319684 -0.56633455
-1.552608 -7.0005832 -0.56734288
-1.73785 -7.835824 -0.56795108
-1.9708085 -8.8862152 -0.56810039
-2.281059 -10.28511 -0.56967747
-2.6976619 -12.163538 -0.56991386
-3.3075416 -14.913437 -0.57157969
-4.2703233 -19.254541 -0.57386231
-6.0272899 -27.176559 -0.57847017
-10.227278 -46.113964 -0.58888465
-0.4304612 -2.0604467 -0.5640139
-0.44438934 -2.1271152 -0.56294888
-0.46204159 -2.2116094 -0.56531525
-0.47980696 -2.2966452 -0.56637353
-0.49919921 -2.3894682 -0.567837
-0.5156588 -2.4682539 -0.56451106
-0.53588897 -2.5650876 -0.56382924
-0.56226695 -2.6913483 -0.56771582
-0.58281308 -2.7896945 -0.56380701
-0.61053038 -2.9223664 -0.5648787
-0.6391452 -3.059334 -0.5644902
-0.67218584 -3.2174864 -0.5655039
-0.70687467 -3.383528 -0.56515068
-0.74818838 -3.5812802 -0.56700307
-0.78901649 -3.7767084 -0.56514919
-0.83871466 -4.0145936 -0.56597072
-0.89385539 -4.2785306 -0.56620294
-0.95575088 -4.5747995 -0.56595731
-1.0276951 -4.9191675 -0.56622261
-1.1080363 -5.3037291 -0.56492627
-1.209745 -5.7905688 -0.56712443
-1.325372 -6.3440289 -0.56701285
-1.4668167 -7.0210681 -0.56749839
-1.6431193 -7.8649592 -0.56855536
-1.8611939 -8.9087954 -0.56803787
-2.1527941 -10.30457 -0.56924605
-2.5485888 -12.199081 -0.57006776
-3.1235957 -14.951411 -0.57151985
-4.0318866 -19.29904 -0.57366759
-5.6845489 -27.209677 -0.57764357
-9.633708 -46.112728 -0.58731169
-0.40578124 -2.0690861 -0.56497025
-0.41830835 -2.132962 -0.56309241
-0.43807381 -2.2337465 -0.56955379
-0.45137194 -2.301554 -0.56617254
-0.46865982 -2.3897052 -0.56648099
-0.48378426 -2.466825 -0.56278121
-0.50534302 -2.5767536 -0.56498498
-0.52674431 -2.685879 -0.56515306
-0.54906231 -2.799679 -0.56441772
-0.57370037 -2.9253089 -0.56404126
-0.6025393 -3.0723591 -0.56548369
-0.63172543 -3.2211797 -0.56474507
-0.66386539 -3.385062 -0.56400073
-0.70278007 -3.5834887 -0.56594175
-0.74099666 -3.7783558 -0.56398958
-0.78938019 -4.0250645 -0.56603569
-0.84335941 -4.3003054 -0.56766921
-0.89968777 -4.5875249 -0.56612015
-0.96675986 -4.9295268 -0.56600386
-1.0443925 -5.3253765 -0.56582135
-1.1370363 -5.7977695 -0.56641757
-1.2466332 -6.356606 -0.56672406
-1.3784703 -7.0288458 -0.56671411
-1.5428951 -7.8672509 -0.56730664
-1.7508628 -8.9276829 -0.56782645
-2.0241492 -10.321175 -0.56874543
-2.3974638 -12.224713 -0.56984484
-2.9363813 -14.972664 -0.57090884
-3.7894599 -19.322527 -0.57293731
-5.3437986 -27.248129 -0.5770213
-9.0469761 -46.130703 -0.58607942
-0.38152805 -2.0805612 -0.56677961
-0.39389732 -2.1480138 -0.56574452
-0.40807357 -2.2253201 -0.56608301
-0.42140988 -2.2980459 -0.5639922
-0.43548664 -2.37481 -0.56163818
-0.45655245 -2.4896867 -0.56667322
-0.47399706 -2.584816 -0.56543207
-0.49384454 -2.6930492 -0.56534129
-0.51826024 -2.8261936 -0.56843537
-0.54144216 -2.95261 -0.56797862
-0.56449866 -3.0783424 -0.56526464
-0.59336734 -3.2357702 -0.56598109
-0.62264895 -3.3954494 -0.56441307
-0.66004318 -3.5993688 -0.56712502
-0.69835854 -3.8083112 -0.56713629
-0.73945498 -4.0324202 -0.56574857
-0.78657556 -4.2893796 -0.56490749
-0.84195864 -4.5913963 -0.56527758
-0.90500396 -4.9351969 -0.56533444
-0.97752243 -5.330657 -0.56506258
-1.0647932 -5.8065648 -0.56595486
-1.1666695 -6.3621197 -0.56589383
-1.2925149 -7.0483842 -0.56696516
-1.4450883 -7.8804026 -0.56693077
-1.6399455 -8.9430037 -0.56747544
-1.8982162 -10.351415 -0.5690825
-2.245528 -12.245387 -0.56947839
-2.7501135 -14.997008 -0.57050455
-3.5495613 -19.356583 -0.57260966
-5.0006299 -27.269596 -0.57613021
-8.457737 -46.122009 -0.58460343
-0.35310015 -2.0685894 -0.56229305
-0.36682671 -2.1490045 -0.56477481
-0.37912738 -2.2210665 -0.56377244
-0.39488927 -2.3134053 -0.56652719
-0.40651464 -2.381511 -0.56199831
-0.42409387 -2.4844966 -0.56426233
-0.44141811 -2.5859883 -0.56445843
-0.46064222 -2.6986101 -0.56527692
-0.48070991 -2.816174 -0.56518847
-0.5019477 -2.9405928 -0.56443691
-0.52802855 -3.0933838 -0.56679153
-0.55411071 -3.2461824 -0.56656772
-0.58299202 -3.4153798 -0.5664916
-0.61582756 -3.6077423 -0.56720835
-0.64890647 -3.8015308 -0.56489557
-0.68854779 -4.0337639 -0.56470662
-0.73199123 -4.2882714 -0.56353354
-0.78744966 -4.6131673 -0.56672299
-0.84515697 -4.9512377 -0.56593865
-0.91377133 -5.3532057 -0.56621891
-0.9934265 -5.8198547 -0.56601673
-1.0888965 -6.3791528 -0.5661751
-1.2051008 -7.0599194 -0.5666582
-1.349351 -7.9049907 -0.56746316
-1.5287983 -8.9562578 -0.56708074
-1.7668056 -10.350592 -0.56779993
-2.0931072 -12.262185 -0.56901962
-2.564101 -15.021439 -0.57019138
-3.3086045 -19.383011 -0.57214469
-4.6585107 -27.291254 -0.57533401
-7.8735995 -46.126419 -0.58338809
-0.32842076 -2.0777202 -0.56363463
-0.33948839 -2.1477382 -0.56330234
-0.35168755 -2.224915 -0.563609
-0.3646619 -2.3069961 -0.56381696
-0.37832579 -2.3934391 -0.56367272
-0.39372003 -2.4908292 -0.56455833
-0.40997821 -2.5936849 -0.56499535
-0.42718542 -2.7025447 -0.56495804
-0.44495094 -2.8149364 -0.56379944
-0.46834698 -2.962949 -0.56757981
-0.48634994 -3.0768428 -0.56262243
-0.51377732 -3.2503591 -0.56615126
-0.5377571 -3.402065 -0.56314379
-0.5697701 -3.6045918 -0.5655688
-0.60077852 -3.8007634 -0.56364119
-0.63915819 -4.0435686 -0.56493622
-0.68313926 -4.3218102 -0.56679416
-0.72977948 -4.6168747 -0.56603324
-0.78382879 -4.9588122 -0.56566006
-0.84666687 -5.3563509 -0.56540763
-0.91962224 -5.8178954 -0.56468374
-1.0123225 -6.4043546 -0.5672642
-1.1194844 -7.0823026 -0.567307
-1.2512857 -7.9161301 -0.56711537
-1.4201601 -8.9844961 -0.56772006
-1.6420013 -10.387952 -0.56869882
-1.9411116 -12.280242 -0.56870693
-2.3775444 -15.041289 -0.56979209
-3.0670097 -19.403122 -0.57158184
-4.3164487 -27.307568 -0.57451558
-7.2903371 -46.121567 -0.58214891
-0.30314574 -2.0836391 -0.56418645
-0.31382298 -2.1570282 -0.56468403
-0.3239269 -2.2264762 -0.56295294
-0.33642298 -2.3123667 -0.56407583
-0.34934151 -2.4011607 -0.56443691
-0.3638249 -2.5007107 -0.5657413
-0.37812057 -2.5989707 -0.56509119
-0.39417806 -2.7093399 -0.56532258
-0.41058901 -2.8221388 -0.56418812
-0.42943174 -2.9516523 -0.56436163
-0.44930077 -3.0882199 -0.56364995
-0.47063848 -3.2348824 -0.56240493
-0.49561706 -3.4065697 -0.56283808
-0.52674258 -3.6205077 -0.56700689
-0.55387419 -3.8069937 -0.5635125
-0.59193265 -4.0685844 -0.56737143
-0.62950653 -4.3268442 -0.56639642
-0.67314422 -4.6267834 -0.56619042
-0.72241533 -4.9654431 -0.56536037
-0.77955478 -5.3581848 -0.5645467
-0.85238969 -5.8588076 -0.56759441
-0.9326039 -6.410151 -0.566719
-1.0289382 -7.0722942 -0.56544906
-1.1521963 -7.9194956 -0.56629872
-1.3061824 -8.9779024 -0.56624573
-1.5113763 -10.38828 -0.5676564
-1.7890434 -12.296795 -0.56841177
-2.1916363 -15.063973 -0.56958741
-2.8237598 -19.408804 -0.5706833
-3.9744155 -27.317711 -0.57365739
-6.7046461 -46.083656 -0.5805859
-0.27666587 -2.0809097 -0.56248373
-0.2862809 -2.1532283 -0.56272519
-0.29801074 -2.2414527 -0.56577039
-0.30868074 -2.3217061 -0.5653854
-0.31960189 -2.4038482 -0.56410217
-0.33251077 -2.5009408 -0.56482559
-0.34571898 -2.6002851 -0.56440997
-0.36066389 -2.7126913 -0.56505376
-0.37672001 -2.8334556 -0.56548166
-0.39395574 -2.9630919 -0.56557989
-0.41173208 -3.0967946 -0.56424826
-0.43296632 -3.2565055 -0.56519598
-0.45473924 -3.4202681 -0.56413484
-0.48151568 -3.6216636 -0.56621784
-0.50898075 -3.828239 -0.56568807
-0.54046857 -4.0650711 -0.56591189
-0.57616526 -4.3335595 -0.56630522
-0.61619508 -4.6346388 -0.56618172
-0.66382658 -4.9928937 -0.56751359
-0.71481991 -5.3764343 -0.56550062
-0.7770232 -5.8442888 -0.56521952
-0.85279948 -6.4142313 -0.56610984
-0.94281912 -7.0913038 -0.56599921
-1.0553724 -7.9378595 -0.56664103
-1.1978706 -9.0096436 -0.56727576
-1.3819751 -10.394363 -0.56701744
-1.6357776 -12.30331 -0.5677402
-2.0025146 -15.06168 -0.56852669
-2.5852647 -19.444765 -0.57076275
-3.6335053 -27.328985 -0.57291263
-6.1252289 -46.07019 -0.57942355
-0.25265256 -2.097383 -0.56605399
-0.26001534 -2.1585047 -0.56322598
-0.27076307 -2.2477264 -0.56647068
-0.27903098 -2.3163621 -0.5632059
-0.29118341 -2.4172449 -0.56636286
-0.30022267 -2.4922838 -0.56199425
-0.3145608 -2.6113112 -0.56592095
-0.3249898 -2.6978869 -0.56109518
-0.34126151 -2.8329659 -0.56450379
-0.35619324 -2.9569209 -0.56352335
-0.37340623 -3.0998135 -0.56391913
-0.39100897 -3.2459421 -0.56248558
-0.41270861 -3.4260805 -0.56421381
-0.43528584 -3.6135042 -0.56406271
-0.46064195 -3.8239968 -0.56418157
-0.49119025 -4.0775919 -0.56677133
-0.52259547 -4.3383012 -0.5660423
-0.55739981 -4.6272273 -0.56439626
-0.59999013 -4.9807887 -0.56525636
-0.64744753 -5.374754 -0.56444383
-0.70490271 -5.8517156 -0.56505674
-0.77338684 -6.4202332 -0.56575745
-0.85612231 -7.1070576 -0.56637359
-0.9573012 -7.9469895 -0.56640965
-1.0857482 -9.0132866 -0.56662166
-1.2532959 -10.404175 -0.56666911
-1.4823724 -12.305842 -0.56697309
-1.8182559 -15.094163 -0.56886584
-2.3418982 -19.441154 -0.56976843
-3.2938945 -27.344105 -0.57233721
-5.5434709 -46.018856 -0.57787693
-0.22643667 -2.0965502 -0.5650351
-0.23438811 -2.1701717 -0.56547546
-0.24123156 -2.2335343 -0.56210399
-0.2511428 -2.3253014 -0.56458586
-0.26010904 -2.4083188 -0.56347948
-0.2703985 -2.5035875 -0.5637508
-0.28229478 -2.6137338 -0.56565094
-0.29278946 -2.7109027 -0.56301081
-0.30649021 -2.8377564 -0.56466472
-0.31960618 -2.9591956 -0.56316537
-0.33560178 -3.1072969 -0.5644871
-0.35265464 -3.2651873 -0.56502634
-0.37253004 -3.4492114 -0.56722581
-0.3908475 -3.6188104 -0.56409818
-0.41466969 -3.8393774 -0.56565571
-0.43926156 -4.0670705 -0.56451541
-0.46776164 -4.3309493 -0.56428993
-0.50113159 -4.6399179 -0.56514984
-0.53845346 -4.9854765 -0.56499422
-0.58320647 -5.3998394 -0.56628233
-0.63197398 -5.8513722 -0.56423056
-0.69337755 -6.4199004 -0.56493407
-0.76844835 -7.1149716 -0.56620842
-0.85853368 -7.9490614 -0.5657621
-0.97519714 -9.0292339 -0.56682754
-1.1254133 -10.420067 -0.56673813
-1.3323413 -12.33599 -0.56756437
-1.6289413 -15.082173 -0.56761622
-2.1013157 -19.455833 -0.56939834
-2.9529314 -27.340841 -0.57146567
-4.967464 -45.99316 -0.5767436
-0.20062646 -2.0990202 -0.5649932
-0.20806488 -2.1768434 -0.56650448
-0.21324703 -2.2310607 -0.56077915
-0.22331105 -2.336354 -0.56655991
-0.22991881 -2.4054866 -0.56211287
-0.23954813 -2.5062318 -0.5636403
-0.25151163 -2.6313977 -0.56876141
-0.26050991 -2.7255406 -0.56534284
-0.27173716 -2.8430037 -0.56500131
-0.28227282 -2.9532313 -0.56132728
-0.29649028 -3.101979 -0.56281614
-0.31202444 -3.2645028 -0.5642013
-0.32990187 -3.4515424 -0.56689918
-0.34725395 -3.6330855 -0.565615
-0.36688161 -3.8384366 -0.56480974
-0.38973218 -4.077507 -0.56525606
-0.41456959 -4.3373637 -0.56441885
-0.44348302 -4.6398659 -0.56443667
-0.47682029 -4.9886513 -0.56464684
-0.51624054 -5.4010787 -0.56570381
-0.56121367 -5.8716025 -0.56547314
-0.61574626 -6.4421406 -0.56618208
-0.67853189 -7.0990248 -0.56423277
-0.7605257 -7.9568706 -0.56560957
-0.86373556 -9.0366869 -0.56658578
-0.99681473 -10.429005 -0.56651473
-1.1791511 -12.336668 -0.56688559
-1.4428142 -15.095199 -0.56739581
-1.8586822 -19.446146 -0.56840295
-2.6136208 -27.344563 -0.57082862
-4.3904271 -45.934093 -0.57528245
-0.17510898 -2.1050103 -0.56598312
-0.18102457 -2.1761222 -0.56569469
-0.1861496 -2.237731 -0.56183791
-0.19479021 -2.3416011 -0.56720859
-0.20117237 -2.4183218 -0.56449151
-0.209071 -2.5132725 -0.56460285
-0.21852908 -2.6269693 -0.56718051
-0.22709084 -2.7298915 -0.56562334
-0.23683178 -2.8469889 -0.56517178
-0.24607944 -2.9581563 -0.56164581
-0.25881755 -3.1112831 -0.5638842
-0.27168918 -3.2660143 -0.56384259
-0.28689277 -3.4487793 -0.56582314
-0.30101219 -3.6185105 -0.56272709
-0.31873024 -3.831502 -0.56317008
-0.33776224 -4.0602884 -0.56225085
-0.3616657 -4.3476353 -0.56513399
-0.38588524 -4.638782 -0.56368494
-0.41483966 -4.9868469 -0.56382263
-0.44851378 -5.3916488 -0.5640958
-0.48832026 -5.8701677 -0.56471395
-0.53632414 -6.4472299 -0.56600696
-0.59168488 -7.1127286 -0.56470096
-0.66360974 -7.9773479 -0.56644231
-0.75066841 -9.0238924 -0.56516218
-0.86797518 -10.434054 -0.56616646
-1.0258899 -12.33237 -0.56606561
-1.2568474 -15.108743 -0.56728113
-1.6195346 -19.468657 -0.56843591
-2.2739573 -27.335566 -0.570014
-3.8178635 -45.895084 -0.57416254
-0.14817938 -2.0924015 -0.56206059
-0.15345863 -2.1669483 -0.5627768
-0.15957513 -2.2533178 -0.56521595
-0.16527073 -2.3337438 -0.5647704
-0.17196585 -2.4282842 -0.56628048
-0.17743792 -2.5055535 -0.56233615
-0.18545765 -2.618798 -0.56488121
-0.19207905 -2.712297 -0.56144601
-0.20119752 -2.8410566 -0.56346035
-0.21066178 -2.974699 -0.56425214
-0.22109096 -3.1219666 -0.56528503
-0.23154004 -3.2695153 -0.56391281
-0.24383119 -3.4430752 -0.56435275
-0.25780997 -3.6404657 -0.56560564
-0.27329415 -3.8591139 -0.56669182
-0.28873187 -4.0771055 -0.56404537
-0.30759311 -4.3434401 -0.56405443
-0.33109385 -4.6752882 -0.56758338
-0.35401011 -4.9988828 -0.56464857
-0.38226432 -5.3978529 -0.56421047
-0.41705292 -5.8890934 -0.56599849
-0.45540649 -6.4306736 -0.56401926
-0.50456625 -7.124846 -0.56512767
-0.56360865 -7.9585671 -0.564574
-0.64029676 -9.04146 -0.56572652
-0.73797089 -10.420691 -0.56490624
-0.87432855 -12.346161 -0.56616235
-1.0692372 -15.098414 -0.56635684
-1.3781288 -19.46019 -0.56765097
-1.9354136 -27.32946 -0.56934732
-3.2460268 -45.836277 -0.5728842
-0.12300408 -2.1036959 -0.56464547
-0.12664175 -2.16591 -0.56206024
-0.13161573 -2.250978 -0.56418043
-0.13609171 -2.3275292 -0.56281888
-0.14208163 -2.4299726 -0.56622404
-0.14691022 -2.5125544 -0.5634594
-0.1530278 -2.6171813 -0.56408393
-0.15994956 -2.7355616 -0.56581193
-0.1662904 -2.844007 -0.56359738
-0.17483425 -2.9901295 -0.56672847
-0.18194112 -3.1116757 -0.56297404
-0.19112293 -3.2687089 -0.56332582
-0.20122477 -3.4414773 -0.56364268
-0.2129216 -3.6415243 -0.56532061
-0.22458029 -3.8409188 -0.56357181
-0.23896436 -4.0869246 -0.56495452
-0.25512406 -4.3632984 -0.56618303
-0.27251583 -4.6607432 -0.56536806
-0.29213777 -4.9963307 -0.56391191
-0.31665632 -5.4156632 -0.56562233
-0.34423405 -5.8873153 -0.56537807
-0.37638128 -6.4371181 -0.56413591
-0.41708848 -7.1333189 -0.56535023
-0.46688253 -7.9849291 -0.56599402
-0.52806073 -9.0312386 -0.56463802
-0.61043698 -10.440091 -0.56550825
-0.72173303 -12.34355 -0.56559289
-0.88309908 -15.103336 -0.5660913
-1.1384125 -19.469873 -0.56748217
-1.5969193 -27.311556 -0.56852227
-2.6763215 -45.772198 -0.57162875
-0.096879117 -2.0996404 -0.56319457
-0.10039105 -2.1757536 -0.56425166
-0.10366829 -2.2467806 -0.56276637
-0.10825399 -2.3461654 -0.56696057
-0.11192533 -2.4257336 -0.56487286
-0.11613411 -2.5169497 -0.56408215
-0.12135707 -2.6301455 -0.56651366
-0.12554362 -2.7208798 -0.56241339
-0.13143156 -2.8484881 -0.5641225
-0.13761756 -2.9825556 -0.56492954
-0.14314443 -3.1023383 -0.56092381
-0.15112281 -3.2752521 -0.56409055
-0.15945606 -3.4558568 -0.56563383
-0.16767605 -3.634007 -0.56379086
-0.17750092 -3.8469391 -0.56409228
-0.18858266 -4.0871115 -0.5646171
-0.19974621 -4.3290567 -0.56137866
-0.21467023 -4.6525016 -0.56400543
-0.23110242 -5.0086327 -0.56493694
-0.24944384 -5.4061427 -0.56426501
-0.27139813 -5.8819532 -0.56449991
-0.29753345 -6.4483786 -0.56475943
-0.329216 -7.1350274 -0.56512207
-0.36861086 -7.9888234 -0.56590599
-0.41759667 -9.0504827 -0.56547737
-0.48162344 -10.438121 -0.56503808
-0.56982124 -12.349613 -0.56550694
-0.69683433 -15.10234 -0.56569004
-0.89746916 -19.450655 -0.56655759
-1.2590044 -27.286131 -0.56762785
-2.1084731 -45.696484 -0.57031631
-0.070507519 -2.08447 -0.55885059
-0.07335116 -2.1685386 -0.56210417
-0.075884566 -2.2434359 -0.56165242
-0.079341985 -2.3456502 -0.56655747
-0.082383215 -2.4355605 -0.56688249
-0.08510524 -2.5160339 -0.56359977
-0.088435531 -2.61449 -0.56286478
-0.092609793 -2.7378969 -0.56565273
-0.096323051 -2.8476751 -0.56368428
-0.10034603 -2.9666095 -0.56163293
-0.10508199 -3.1066225 -0.56142235
-0.1105067 -3.2669976 -0.56239235
-0.11702266 -3.4596341 -0.56597376
-0.12288021 -3.6328053 -0.56332743
-0.13038357 -3.8546333 -0.56494272
-0.13828416 -4.0882049 -0.56449056
-0.14747569 -4.359941 -0.56510586
-0.1576886 -4.6618733 -0.5648638
-0.16937089 -5.0072465 -0.56450301
-0.18310405 -5.4132509 -0.56472921
-0.19865496 -5.8729949 -0.56336319
-0.21839419 -6.4565611 -0.56519812
-0.24128072 -7.1331739 -0.56469756
-0.26973572 -7.9744124 -0.5646075
-0.30622679 -9.0532265 -0.5653708
-0.35279834 -10.430058 -0.56432408
-0.41760409 -12.345963 -0.56506187
-0.51097345 -15.106316 -0.56556088
-0.6574167 -19.435732 -0.56584466
-0.92226219 -27.265572 -0.56692141
-1.5428234 -45.611717 -0.56897855
-0.044867825 -2.0849619 -0.55879235
-0.047067676 -2.1871867 -0.56674504
-0.048410479 -2.2495854 -0.56300038
-0.049947381 -2.3210037 -0.56041372
-0.052119654 -2.421947 -0.5635221
-0.054336317 -2.5249531 -0.56540531
-0.056576438 -2.6290493 -0.56580663
-0.058819551 -2.7332842 -0.5645076
-0.061447904 -2.8554211 -0.56502533
-0.06435059 -2.9903059 -0.56592655
-0.067284822 -3.1266565 -0.56485063
-0.070432983 -3.2729487 -0.56322509
-0.07411392 -3.4439981 -0.56322414
-0.078160174 -3.6320231 -0.56301457
-0.083138019 -3.8633385 -0.56602591
-0.087925725 -4.0858183 -0.56396914
-0.093518943 -4.3457294 -0.5630722
-0.10057899 -4.6738024 -0.56611657
-0.10786576 -5.0124116 -0.56489307
-0.11640003 -5.4089899 -0.56409276
-0.12643977 -5.8755269 -0.56341428
-0.13877876 -6.4489069 -0.56433606
-0.15333875 -7.1254945 -0.56389773
-0.17158382 -7.9733243 -0.56433845
-0.19475117 -9.0498877 -0.56497002
-0.22480558 -10.446485 -0.56502056
-0.26564717 -12.344352 -0.56479597
-0.32492104 -15.098748 -0.56508523
-0.41797453 -19.422848 -0.56527716
-0.58647209 -27.252756 -0.56646216
-0.97936243 -45.509968 -0.56751621
-0.019514585 -2.1163604 -0.56710029
-0.020044992 -2.1738832 -0.56319135
-0.020964928 -2.2736504 -0.56891555
-0.021469396 -2.3283601 -0.56208372
-0.022396237 -2.4288762 -0.56502753
-0.023219261 -2.5181332 -0.56377161
-0.024123907 -2.6162424 -0.56294405
-0.025228867 -2.7360754 -0.56497729
-0.026253272 -2.8471725 -0.5632866
-0.027461126 -2.9781642 -0.56352216
-0.028886989 -3.1327994 -0.56585342
-0.030208176 -3.2760823 -0.56365782
-0.031748444 -3.4431248 -0.56297493
-0.033565767 -3.6402135 -0.56417757
-0.035451189 -3.8446882 -0.563187
-0.037790745 -4.0984135 -0.56560075
-0.040190972 -4.3587184 -0.56464845
-0.042876653 -4.6499815 -0.56312478
-0.046283074 -5.0194082 -0.56557465
-0.050036449 -5.4264622 -0.56580794
-0.054447256 -5.9048152 -0.56611586
-0.059499875 -6.4527726 -0.56456763
-0.065766551 -7.1323953 -0.56433719
-0.073458999 -7.9666424 -0.56375897
-0.083272241 -9.0308905 -0.56367749
-0.096204169 -10.433361 -0.5642041
-0.11374407 -12.335567 -0.5642873
-0.13915733 -15.091639 -0.56471241
-0.17888448 -19.400055 -0.56450713
-0.25084391 -27.204069 -0.56534332
-0.4188934 -45.429066 -0.56640029
0.0064654523 -2.1023815 -0.56333321
0.0067229969 -2.1861277 -0.56634218
0.0068977932 -2.2429664 -0.56121659
0.0071196696 -2.3151145 -0.55886501
0.0074801007 -2.4323163 -0.56580645
0.0077518495 -2.5206814 -0.56432074
0.0080694035 -2.6239409 -0.56457925
0.0083967047 -2.7303698 -0.5637778
0.0087659033 -2.8504229 -0.5639084
0.0091376742 -2.971312 -0.56220436
0.0095997294 -3.1215594 -0.56380194
0.010127004 -3.293014 -0.5665496
0.010605955 -3.4487553 -0.56387424
0.011213671 -3.6463675 -0.56510997
0.011814252 -3.8416591 -0.56272203
0.012593702 -4.0951142 -0.56512409
0.013354198 -4.3424063 -0.56251401
0.014318169 -4.6558619 -0.56381565
0.015441105 -5.021009 -0.56573367
0.016603379 -5.3989472 -0.56291777
0.01808897 -5.882019 -0.56390899
0.019835683 -6.4500008 -0.56430376
0.021935932 -7.1329422 -0.56435913
0.024534151 -7.977809 -0.56452781
0.027769376 -9.0298128 -0.56358892
0.032108508 -10.440775 -0.56458372
0.037894804 -12.322314 -0.56365985
0.046332054 -15.065867 -0.56372684
0.059635349 -19.391722 -0.56424332
0.083571106 -27.174952 -0.56471688
0.13935156 -45.313171 -0.56493402
0.032303713 -2.1014166 -0.56313854
0.03325215 -2.1631141 -0.56044376
0.034730781 -2.2593019 -0.565368
0.035777174 -2.3273716 -0.56188762
0.037180923 -2.4186881 -0.56270003
0.038569774 -2.5090353 -0.56177717
0.040320616 -2.6229308 -0.56442589
0.042108152 -2.7392135 -0.56566805
0.043763954 -2.8469265 -0.56328052
0.045714829 -2.9738345 -0.56274551
0.048102342 -3.1291466 -0.56523639
0.050322555 -3.2735755 -0.56326914
0.052899238 -3.4411936 -0.5627017
0.055939589 -3.638974 -0.56402814
0.059033263 -3.8402236 -0.56257552
0.062868066 -4.0896845 -0.56443876
0.066822052 -4.3468986 -0.56315982
0.071518987 -4.6524429 -0.56346548
0.076784797 -4.9949937 -0.56286627
0.083110623 -5.4065003 -0.56376922
0.090380438 -5.879415 -0.56372327
0.098996311 -6.4398937 -0.56348342
0.10933186 -7.1122403 -0.56278503
0.12260926 -7.9759593 -0.56446093
0.13916215 -9.0527563 -0.56508505
0.16011111 -10.415525 -0.56328225
0.18933117 -12.316344 -0.56345063
0.2314139 -15.053905 -0.56334305
0.29780307 -19.372643 -0.56375211
0.41685581 -27.117245 -0.56358159
0.6951052 -45.217884 -0.56380993
0.058182813 -2.1024318 -0.56355971
0.060131934 -2.1728632 -0.56311876
0.062251784 -2.2494638 -0.56305516
0.064685658 -2.3374119 -0.56446093
0.067167573 -2.4270957 -0.56480551
0.06941162 -2.508184 -0.56173521
0.072223753 -2.6098003 -0.56174898
0.075534746 -2.7294428 -0.5637995
0.079019718 -2.8553722 -0.56510109
0.082498886 -2.9810915 -0.56426805
0.086576462 -3.1284344 -0.56525731
0.090535432 -3.2714915 -0.56305951
0.09519624 -3.4399095 -0.56264061
0.10107985 -3.6525133 -0.56627649
0.10654653 -3.8500514 -0.56416458
0.11279713 -4.0759163 -0.56268746
0.12013312 -4.341002 -0.56254476
0.12875815 -4.6526666 -0.56364179
0.13881367 -5.0160222 -0.56538552
0.14943825 -5.3999405 -0.56323421
0.16274436 -5.8807559 -0.56400102
0.17853528 -6.4513602 -0.56463611
0.19709231 -7.1219168 -0.56369984
0.22040774 -7.9644184 -0.56379336
0.24974987 -9.0246935 -0.56348246
0.28824687 -10.415781 -0.56344509
0.34070379 -12.311308 -0.56336927
0.4162612 -15.041569 -0.56303042
0.53506011 -19.334358 -0.56278694
0.74981773 -27.09461 -0.56326026
1.2484108 -45.111237 -0.56262904
0.084402829 -2.1109083 -0.56606722
0.086671114 -2.1676378 -0.56199819
0.089935556 -2.2492812 -0.56324363
0.093131766 -2.3292181 -0.56271625
0.097106606 -2.4286287 -0.56539738
0.10043576 -2.5118906 -0.56279939
0.10522296 -2.631618 -0.56668085
0.10918961 -2.7308235 -0.56431943
0.11430264 -2.8587 -0.5659951
0.11885786 -2.9726257 -0.56289971
0.12451355 -3.1140742 -0.56289679
0.13077271 -3.2706151 -0.5631429
0.13823517 -3.4572508 -0.56571227
0.14509623 -3.6288452 -0.56284112
0.15317449 -3.8308821 -0.56158912
0.163039 -4.0775928 -0.56315309
0.17382881 -4.347445 -0.56361407
0.18586074 -4.6483626 -0.56335461
0.1997481 -4.9956846 -0.56332737
0.21560369 -5.3922315 -0.56266415
0.23507833 -5.8792906 -0.56409514
0.25790587 -6.4502053 -0.56476992
0.28455922 -7.1168036 -0.56352955
0.31814054 -7.9566698 -0.56347919
0.3605794 -9.0180635 -0.5633027
0.41647157 -10.415921 -0.56368715
0.49138701 -12.289551 -0.56260765
0.60083699 -15.026887 -0.56271487
0.77289343 -19.330004 -0.56289428
1.0812545 -27.042089 -0.56240225
1.7985661 -44.981998 -0.56125057
0.11018007 -2.1064389 -0.5651893
0.11386298 -2.1768494 -0.5647068
0.11727187 -2.2420211 -0.56174427
0.12246379 -2.3412812 -0.56595153
0.12668465 -2.4219759 -0.56416857
0.13260084 -2.5350828 -0.56831807
0.13792579 -2.6368859 -0.56813747
0.14270915 -2.7283349 -0.56412512
0.14964519 -2.8609393 -0.56675988
0.15531985 -2.9694281 -0.56261331
0.16308853 -3.1179507 -0.56391734
0.17148182 -3.278415 -0.56480622
0.18053029 -3.4514053 -0.56507623
0.19036001 -3.6393311 -0.56478786
0.2007824 -3.838588 -0.56303811
0.2127611 -4.0675983 -0.56209165
0.22766519 -4.3525372 -0.56459445
0.24337707 -4.6529193 -0.56422687
0.2611419 -4.9925499 -0.56329346
0.28156164 -5.3829374 -0.56201309
0.30694914 -5.8682995 -0.5633601
0.33671558 -6.4373789 -0.56396675
0.3714371 -7.1011896 -0.5626123
0.41556931 -7.9449158 -0.56296611
0.47074279 -8.9997311 -0.56247663
0.54370892 -10.394708 -0.56285834
0.64292628 -12.29156 -0.56301898
0.78578293 -15.022716 -0.56287795
1.0087106 -19.284679 -0.56189311
1.4120722 -26.996206 -0.56176668
2.3460951 -44.852997 -0.55995864
0.1360144 -2.1040411 -0.56495196
0.14018524 -2.1685607 -0.56296116
0.14532711 -2.2481015 -0.56367284
0.15083276 -2.3332698 -0.5644207
0.156141 -2.4153843 -0.56303787
0.16303706 -2.5220613 -0.56580555
0.16838934 -2.604857 -0.56164026
0.17673771 -2.7340002 -0.56570309
0.18372908 -2.8421514 -0.56344295
0.19253972 -2.9784453 -0.56472772
0.20076501 -3.1056845 -0.56210285
0.21005026 -3.2493203 -0.5601964
0.22292966 -3.448555 -0.56501573
0.23368829 -3.6149831 -0.56141275
0.24798825 -3.8361926 -0.56309152
0.26282376 -4.0656872 -0.5622316
0.2811003 -4.3484116 -0.56446505
0.29943925 -4.6321011 -0.56210643
0.32132974 -4.9707308 -0.56123501
0.34826443 -5.3873901 -0.56288254
0.37927353 -5.8670778 -0.56364793
0.4155896 -6.4288602 -0.56362557
0.4595134 -7.1083283 -0.56358296
0.51159674 -7.9140186 -0.56118011
0.58148825 -8.9951878 -0.56259704
0.67155534 -10.388459 -0.56292456
0.79304326 -12.267786 -0.56233418
0.96879363 -14.986512 -0.56192535
1.2448102 -19.256283 -0.56146926
1.7406647 -26.926781 -0.56072503
2.892168 -44.739674 -0.5589456
0.16130131 -2.0947666 -0.56295174
0.16882546 -2.1924801 -0.56966656
0.17323558 -2.2497528 -0.56457829
0.17888694 -2.3231452 -0.56246108
0.18592222 -2.41451 -0.56332433
0.19224894 -2.4966731 -0.56059784
0.20168233 -2.6191814 -0.56522077
0.20959458 -2.721935 -0.56369728
0.21810989 -2.8325207 -0.56202292
0.22889359 -2.9725649 -0.56410378
0.24004754 -3.1174176 -0.56471801
0.25084966 -3.2577012 -0.56213063
0.26517439 -3.4437315 -0.56471699
0.28002495 -3.636591 -0.56526059
0.29498768 -3.8309069 -0.56280553
0.31320959 -4.0675488 -0.56297904
0.33393323 -4.3366799 -0.56343257
0.35667136 -4.6319723 -0.56258053
0.38379437 -4.98421 -0.5632472
0.41479942 -5.3868618 -0.56331772
0.45105654 -5.8577213 -0.56323934
0.49384737 -6.4134316 -0.56276274
0.54709738 -7.1049719 -0.56380755
0.61029214 -7.9256611 -0.56249529
0.69228148 -8.9904299 -0.56278932
0.79828066 -10.367005 -0.56225151
0.94392478 -12.258437 -0.56239522
1.1529847 -14.97343 -0.56192392
1.479274 -19.21084 -0.56063223
2.0692551 -26.872728 -0.56008697
3.4337456 -44.592915 -0.55759746
0.18699862 -2.0921013 -0.5628109
0.19302875 -2.1595652 -0.5616886
0.19946711 -2.2315962 -0.56059504
0.20778175 -2.3246188 -0.56339389
0.21623714 -2.4192159 -0.56499994
0.22444372 -2.5110295 -0.56439841
0.23262914 -2.6026061 -0.56221861
0.24282153 -2.7166364 -0.5631758
0.2543956 -2.8461246 -0.56530011
0.26434061 -2.9573874 -0.56179786
0.27777395 -3.1076767 -0.56352961
0.2921128 -3.2680969 -0.56450158
0.30500641 -3.412348 -0.56014323
0.32441926 -3.6295347 -0.56474113
0.34190667 -3.8251801 -0.56253934
0.36504883 -4.0840898 -0.56584698
0.3862527 -4.3213143 -0.56201082
0.41341677 -4.6252203 -0.56233537
0.44510111 -4.9796982 -0.56331325
0.47991219 -5.3691568 -0.56204087
0.52287626 -5.8498302 -0.56305623
0.57259154 -6.406034 -0.56268889
0.63380092 -7.0908318 -0.56326139
0.7068308 -7.9078751 -0.56180739
0.80256677 -8.9789486 -0.56264585
0.92533487 -10.352453 -0.56203687
1.0924606 -12.222221 -0.56130749
1.3348491 -14.934012 -0.56101823
1.7148472 -19.185352 -0.5604614
2.3961875 -26.808044 -0.55931062
3.9725285 -44.443817 -0.55630183
0.21405895 -2.1029158 -0.56638539
0.21946333 -2.1560085 -0.56142294
0.22666137 -2.226722 -0.56002837
0.2366716 -2.3250625 -0.5641641
0.24511865 -2.4080462 -0.56305265
0.25438491 -2.499078 -0.56237274
0.26383474 -2.5919132 -0.5605672
0.27538708 -2.7054033 -0.56150663
0.28825197 -2.8317881 -0.56311405
0.30210465 -2.9678771 -0.56445354
0.31630304 -3.107362 -0.56413513
0.33129615 -3.2546542 -0.56284076
0.34961906 -3.4346588 -0.56446862
0.36673015 -3.6027579 -0.561234
0.38966268 -3.8280473 -0.56362301
0.4126707 -4.0540781 -0.56234944
0.43859848 -4.3087931 -0.56104136
0.47002065 -4.6174841 -0.56205499
0.50547177 -4.9657559 -0.56239671
0.54739368 -5.3775969 -0.56358635
0.59486604 -5.8439655 -0.56315327
0.65174615 -6.4027562 -0.56306237
0.72097719 -7.0828819 -0.56329149
0.80476588 -7.9060221 -0.56233627
0.91331983 -8.9724569 -0.56290025
1.0524263 -10.339039 -0.56196868
1.2424507 -12.205839 -0.56121439
1.5188791 -14.921473 -0.56120634
1.9494829 -19.151726 -0.56013703
2.7228136 -26.748928 -0.55873352
4.50845 -44.291023 -0.55504131
0.23939319 -2.0956945 -0.56519061
0.24626109 -2.1558175 -0.56211931
0.25446191 -2.2276092 -0.56099606
0.262909 -2.3015566 -0.55920267
0.27561769 -2.412811 -0.56491649
0.28599244 -2.5036335 -0.56414658
0.29724744 -2.6021621 -0.56353164
0.31006837 -2.7143989 -0.56412232
0.32556942 -2.8500981 -0.56750822
0.338929 -2.9670506 -0.56504625
0.35443419 -3.1027858 -0.56405294
0.37126726 -3.2501459 -0.56280804
0.39100114 -3.4229 -0.56328374
0.41042477 -3.5929382 -0.56044811
0.43775362 -3.8321805 -0.5649814
0.46242949 -4.0481977 -0.56228
0.49170297 -4.3044634 -0.56122249
0.52630138 -4.6073446 -0.56156605
0.5667237 -4.9612093 -0.56262845
0.61092639 -5.3481688 -0.56124705
0.66468239 -5.818759 -0.56146938
0.73093539 -6.3987508 -0.56345791
0.8076725 -7.0705223 -0.56305581
0.89940542 -7.87357 -0.56077224
1.0217273 -8.9443998 -0.56188577
1.1782588 -10.314706 -0.56139117
1.3934985 -12.198958 -0.56164336
1.69999 -14.882044 -0.56046724
2.1835778 -19.115465 -0.55981952
3.0458167 -26.663671 -0.55769283
5.0425034 -44.143059 -0.55392218
0.26403689 -2.0838647 -0.56283325
0.27344763 -2.1581371 -0.56355822
0.2809419 -2.2172844 -0.55922365
0.29384065 -2.3190854 -0.56429684
0.30493513 -2.4066467 -0.56430846
0.31621563 -2.495676 -0.56318712
0.32937217 -2.5995116 -0.56379211
0.34288481 -2.7061579 -0.56324333
0.3581835 -2.8269 -0.56372344
0.37432167 -2.9542677 -0.56344587
0.39225876 -3.0958331 -0.56362325
0.41260552 -3.2564163 -0.56472975
0.43258747 -3.4141204 -0.56267172
0.45647347 -3.6026363 -0.56279391
0.48315668 -3.8132288 -0.56302065
0.51315224 -4.0499635 -0.56335908
0.5457713 -4.3074036 -0.56243831
0.58231157 -4.5957913 -0.56098819
0.6273253 -4.9510541 -0.56230909
0.67874032 -5.3568382 -0.56299013
0.73604667 -5.8091183 -0.56137002
0.80879825 -6.3832974 -0.56293035
0.89218783 -7.0414352 -0.5615707
0.99783099 -7.8752046 -0.56172007
1.1312202 -8.9279556 -0.56168413
1.3032718 -10.285843 -0.56065005
1.5408205 -12.160653 -0.56070977
1.8812261 -14.847244 -0.55998552
2.4134996 -19.04812 -0.5586741
3.3704755 -26.600883 -0.55720431
5.5727854 -43.982224 -0.5527221
0.29082498 -2.0889781 -0.56513751
0.30147243 -2.165458 -0.56639516
0.3110131 -2.233988 -0.56435835
0.32096118 -2.3054447 -0.56189549
0.3338595 -2.3980925 -0.56322271
0.3478097 -2.498296 -0.56470072
0.361698 -2.5980546 -0.56439811
0.37607363 -2.701314 -0.56315506
0.39328551 -2.8249459 -0.56425548
0.40802616 -2.9308271 -0.55988979
0.42998093 -3.088527 -0.56321311
0.45248851 -3.2501974 -0.56457347
0.47385979 -3.4037061 -0.5618732
0.50034463 -3.5939453 -0.5623548
0.53034103 -3.8094075 -0.56337672
0.56281704 -4.0426807 -0.5632661
0.59824359 -4.2971473 -0.56201714
0.64083821 -4.6031017 -0.56279993
0.6879245 -4.9413199 -0.56212175
0.74356294 -5.3409672 -0.56224054
0.80871141 -5.8089252 -0.56226981
0.88592625 -6.3635545 -0.56210744
0.97806966 -7.0254149 -0.5612098
1.0945328 -7.8619633 -0.56169313
1.2390929 -8.9003296 -0.56086224
1.4292451 -10.266181 -0.56049389
1.6889359 -12.131524 -0.56028187
2.0624833 -14.814692 -0.55967206
2.6478777 -19.019545 -0.55874872
3.692096 -26.5201 -0.55642104
6.102169 -43.831509 -0.55172932
0.314329 -2.0710185 -0.56128204
0.32706544 -2.1549351 -0.56465209
0.33612144 -2.2146022 -0.56046283
0.35109049 -2.3132291 -0.56480229
0.36114594 -2.3794813 -0.5598523
0.3778643 -2.4896333 -0.56375033
0.3916187 -2.5802569 -0.56153542
0.40998465 -2.7012649 -0.56415313
0.4262484 -2.8084216 -0.56195933
0.44554007 -2.9355285 -0.56179208
0.46812561 -3.0843379 -0.5634563
0.49201715 -3.2417519 -0.56411475
0.51619947 -3.401082 -0.56244534
0.54722452 -3.6054966 -0.56517243
0.57684714 -3.8006711 -0.56309116
0.61370236 -4.043499 -0.56438893
0.65229946 -4.2978039 -0.56310946
0.69695532 -4.5920277 -0.56245124
0.74699378 -4.9217157 -0.56089413
0.80828917 -5.3255725 -0.56162381
0.87946892 -5.7945547 -0.56188309
0.96287251 -6.3440752 -0.56139022
1.0650927 -7.0175729 -0.5615871
1.1897068 -7.8386178 -0.561028
1.3482493 -8.8832073 -0.56078559
1.5558451 -10.250993 -0.56066686
1.835609 -12.094272 -0.55956155
2.2427738 -14.776958 -0.55924606
2.8746996 -18.940525 -0.55742365
4.0126204 -26.437941 -0.55569047
6.6241755 -43.644688 -0.55036139
0.3414714 -2.0773506 -0.56409347
0.35230118 -2.1432338 -0.56267858
0.36596712 -2.226371 -0.56453741
0.37597704 -2.2872665 -0.55954969
0.39347067 -2.3936896 -0.564291
0.4086037 -2.4857519 -0.56396645
0.42389601 -2.5787828 -0.56230646
0.4405801 -2.6802809 -0.56085974
0.46248505 -2.8135405 -0.56407893
0.48243874 -2.9349294 -0.56277013
0.50747502 -3.0872383 -0.56508338
0.52875024 -3.2166665 -0.56083846
0.55847341 -3.3974881 -0.56294411
0.58661741 -3.5687029 -0.56049329
0.62114161 -3.7787318 -0.56092995
0.66243106 -4.0299172 -0.56358755
0.70347703 -4.2796216 -0.56181806
0.75306576 -4.5812964 -0.5622285
0.81074429 -4.9321852 -0.5631808
0.8751722 -5.3241339 -0.56256443
0.95371115 -5.801928 -0.56369263
1.0422688 -6.3406706 -0.56218058
1.1494534 -6.9927316 -0.56068784
1.288141 -7.836441 -0.56196338
1.4578943 -8.8691397 -0.56098682
1.6814746 -10.229296 -0.56056863
1.9864792 -12.084801 -0.56021112
2.4237878 -14.74518 -0.55912906
3.1049409 -18.888992 -0.5569886
4.3309031 -26.347166 -0.55485994
7.1449594 -43.466557 -0.54918152
0.3667151 -2.071455 -0.56367439
0.38050556 -2.1493528 -0.56547064
0.39432356 -2.2274063 -0.56598657
0.40670165 -2.2973258 -0.56319147
0.42271081 -2.3877566 -0.56407505
0.43923771 -2.4811115 -0.56409645
0.45677486 -2.5801735 -0.56379175
0.47602624 -2.6889184 -0.56384939
0.4963716 -2.8038425 -0.56331569
0.52002561 -2.9374564 -0.56443816
0.54021424 -3.0514956 -0.55971467
0.56943828 -3.2165728 -0.56200051
0.60088784 -3.3942208 -0.56358439
0.63486934 -3.5861714 -0.56442022
0.66648483 -3.7647572 -0.56002969
0.70819736 -4.0003777 -0.56063187
0.75514126 -4.2655487 -0.56114721
0.80866951 -4.5679126 -0.56176388
0.86826402 -4.9045424 -0.5612011
0.9383437 -5.3003998 -0.56123334
1.0228089 -5.7775168 -0.56250036
1.1196694 -6.3246498 -0.56193835
1.2367468 -6.9859824 -0.56132364
1.3835872 -7.8154364 -0.56163472
1.56378 -8.8332863 -0.55989301
1.8054935 -10.198648 -0.56006342
2.1318803 -12.042302 -0.55941397
2.6009538 -14.691946 -0.558281
3.3372953 -18.851301 -0.5570451
4.648428 -26.257467 -0.55413276
7.6616673 -43.278278 -0.54795164
0.39321432 -2.0723615 -0.56519407
0.40366352 -2.1274321 -0.56096703
0.42227101 -2.2254994 -0.5667786
0.43468943 -2.2909484 -0.56289583
0.44981903 -2.3706861 -0.5613066
0.4662089 -2.4570658 -0.55989051
0.48883787 -2.5763273 -0.56422216
0.50907153 -2.682965 -0.56387103
0.52783018 -2.7818291 -0.56015468
0.55498761 -2.924957 -0.56330514
0.58006293 -3.0571117 -0.56201065
0.60918218 -3.2105792 -0.56221956
0.63922679 -3.3689237 -0.56064677
0.67761868 -3.5712609 -0.56334233
0.71475023 -3.7669559 -0.56162167
0.75863308 -3.9982319 -0.56159604
0.80708748 -4.2536016 -0.5608387
0.86413962 -4.5542841 -0.56135219
0.93166 -4.9101377 -0.56310964
1.0034653 -5.2885737 -0.56124526
1.0909356 -5.7495694 -0.56104302
1.1979136 -6.3133769 -0.56220299
1.3217155 -6.9658513 -0.56096959
1.4782794 -7.7909913 -0.56114191
1.6736817 -8.8208227 -0.56036508
1.9321834 -10.183207 -0.56047779
2.278703 -12.009472 -0.55914825
2.7804325 -14.653743 -0.55808634
3.5632064 -18.779205 -0.55616736
4.9672837 -26.179127 -0.55372661
8.1756964 -43.088459 -0.54677981
0.41844648 -2.0662889 -0.56489855
0.42923662 -2.1195707 -0.56024355
0.44623622 -2.2035148 -0.56253457
0.4626205 -2.2844205 -0.56264704
0.48219624 -2.3810854 -0.56513
0.49785975 -2.458432 -0.56155437
0.51932102 -2.5644078 -0.56296772
0.5390873 -2.6620135 -0.56081849
0.56333536 -2.7817507 -0.56149125
0.58939457 -2.9104309 -0.56186086
0.61792284 -3.0513036 -0.56229722
0.64714873 -3.195621 -0.56095129
0.68276048 -3.3714719 -0.56242543
0.72082883 -3.5594535 -0.5628354
0.76000375 -3.7528992 -0.56087685
0.80860281 -3.9928813 -0.56219858
0.8593747 -4.2435932 -0.56086999
0.92049867 -4.545423 -0.56161267
0.99178112 -4.8974161 -0.5630067
1.0673559 -5.2706046 -0.56068873
1.1628112 -5.7419624 -0.56165349
1.2722218 -6.2822328 -0.56078029
1.4048332 -6.9370675 -0.56000036
1.5716575 -7.7608461 -0.56032026
1.7826529 -8.802742 -0.5605666
2.0547807 -10.146509 -0.55980635
2.4245648 -11.972504 -0.55877292
2.9576905 -14.605079 -0.55757588
3.7896276 -18.713184 -0.55555016
5.2785325 -26.065399 -0.55265224
8.6880922 -42.901806 -0.54572564
0.44041449 -2.0451689 -0.56056273
0.4573949 -2.1240215 -0.56286407
0.47109097 -2.1876225 -0.55991399
0.4909189 -2.2796981 -0.56292826
0.50598329 -2.3496532 -0.55910432
0.52787101 -2.4512942 -0.56136417
0.54986376 -2.5534225 -0.56199795
0.56948102 -2.64452 -0.55856609
0.59850836 -2.7793152 -0.56244266
0.62500632 -2.9023647 -0.56174493
0.65351719 -3.0347619 -0.56068736
0.68900925 -3.1995776 -0.56309044
0.72338599 -3.3592141 -0.561822
0.76573676 -3.5558801 -0.56371665
0.8073855 -3.7492857 -0.56177813
0.8567999 -3.9787533 -0.56165034
0.91223961 -4.2362008 -0.56133306
0.97416687 -4.5237746 -0.56037557
1.0495951 -4.8740435 -0.56176108
1.1367245 -5.2786489 -0.56298894
1.232866 -5.7251053 -0.56144506
1.3473669 -6.2568173 -0.55994821
1.4900825 -6.9195509 -0.56002313
1.6604924 -7.7108898 -0.55814546
1.8873603 -8.7644053 -0.55956089
2.1768894 -10.108901 -0.55916601
2.5733244 -11.949841 -0.55914974
3.1336565 -14.551876 -0.55697376
4.0168791 -18.65333 -0.5551976
5.5915265 -25.965576 -0.55195183
9.1913528 -42.682224 -0.54432899
0.4672296 -2.047056 -0.56261212
0.48426619 -2.1216977 -0.56378359
0.49913746 -2.1868527 -0.56124538
0.51914245 -2.2744997 -0.5631783
0.54048586 -2.3680108 -0.5650112
0.55898643 -2.4490666 -0.56238568
0.58376014 -2.5576069 -0.56445616
0.60296774 -2.6417603 -0.55950695
0.6342802 -2.7789485 -0.56390417
0.66116714 -2.8967474 -0.56218874
0.69451404 -3.0428491 -0.56371671
0.72599339 -3.1807683 -0.56130886
0.76706529 -3.3607152 -0.56360799
0.80873144 -3.5432653 -0.56325072
0.85233623 -3.7343094 -0.5610621
0.90964794 -3.9854074 -0.56412596
0.96435374 -4.2250876 -0.56138933
1.0319483 -4.5212374 -0.56159073
1.1050549 -4.841536 -0.55953825
1.1935638 -5.2293177 -0.55925059
1.3005314 -5.6979704 -0.56030995
1.4281209 -6.2569737 -0.56149131
1.5754968 -6.9026661 -0.56018215
1.760641 -7.7138319 -0.55988318
1.9932039 -8.7327509 -0.55906248
2.2954085 -10.056788 -0.55780256
2.7150691 -11.895432 -0.55812383
3.3119879 -14.510692 -0.55691409
4.2438016 -18.593212 -0.5549196
5.9034715 -25.864662 -0.5513081
9.697958 -42.489307 -0.54334849
0.49575198 -2.0552018 -0.56648356
0.51104355 -2.1185951 -0.56458628
0.52700073 -2.1847475 -0.56232572
0.54610336 -2.2639396 -0.5621838
0.56984913 -2.362381 -0.56529707
0.58857894 -2.4400275 -0.56192946
0.61197001 -2.5369983 -0.56152618
0.64013243 -2.6537492 -0.56367058
0.66745925 -2.7670357 -0.5631097
0.69904554 -2.8979807 -0.56405365
0.73199916 -3.0345941 -0.56381232
0.76557249 -3.1737764 -0.56169385
0.80534816 -3.3386714 -0.56152946
0.84996939 -3.5236542 -0.56175226
0.89927411 -3.7280531 -0.56174105
0.95604414 -3.9634006 -0.56263244
1.0161037 -4.2123852 -0.56131935
1.0877746 -4.5095057 -0.56175244
1.1636863 -4.8242068 -0.55914694
1.2621167 -5.2322626 -0.56118286
1.3736678 -5.6947117 -0.56160802
1.5038743 -6.234499 -0.56109154
1.6595029 -6.8796768 -0.55993021
1.8528851 -7.6813674 -0.5591383
2.0988522 -8.7010536 -0.55864328
2.4229724 -10.044736 -0.55874431
2.8589191 -11.852007 -0.55769366
3.4839692 -14.443231 -0.55592716
4.465724 -18.513218 -0.55412906
6.2086744 -25.738836 -0.55021179
10.196125 -42.26931 -0.54209751
0.51930523 -2.0423472 -0.56465781
0.53148299 -2.0902407 -0.55872947
0.55493134 -2.1824594 -0.56345052
0.57522959 -2.262289 -0.56348777
0.59620601 -2.3447864 -0.56279862
0.62265027 -2.4487872 -0.56566727
0.64669061 -2.5433342 -0.56464595
0.6684283 -2.6288254 -0.56008017
0.70013505 -2.7535231 -0.56206936
0.73554963 -2.8928032 -0.56476367
0.76478785 -3.0077925 -0.56053758
0.80311328 -3.1585207 -0.56069922
0.84740961 -3.3327312 -0.56224042
0.89784652 -3.5310919 -0.56465536
0.94500273 -3.7165499 -0.56171626
1.0035269 -3.9467165 -0.56197327
1.0704361 -4.2098603 -0.56269431
1.1442811 -4.5002809 -0.56231362
1.2268991 -4.8252053 -0.56096882
1.3231285 -5.20366 -0.55981779
1.4415501 -5.669394 -0.56081694
1.5812321 -6.2187419 -0.56138092
1.7435049 -6.8569355 -0.55978191
1.9485756 -7.6634474 -0.55953568
2.2055106 -8.673933 -0.55860096
2.5455995 -10.01145 -0.55859172
3.0032933 -11.811488 -0.55748266
3.6635575 -14.408206 -0.55627096
4.6884565 -18.438976 -0.55359071
6.5240641 -25.658136 -0.55016005
10.69232 -42.051247 -0.54094613
0.54524404 -2.0390475 -0.56555641
0.56256181 -2.1038108 -0.56416327
0.5772745 -2.1588316 -0.55914086
0.60437799 -2.2601905 -0.56477338
0.62505323 -2.3375099 -0.56285435
0.64783537 -2.422708 -0.56144071
0.67132491 -2.5105519 -0.55915833
0.70193321 -2.6250176 -0.56106538
0.73052549 -2.7319441 -0.55945581
0.7704702 -2.881325 -0.56432974
0.80128568 -2.9965656 -0.5602392
0.8471539 -3.1680989 -0.56420612
0.88658458 -3.3155577 -0.56113994
0.93455619 -3.494957 -0.56067228
0.98926598 -3.6995549 -0.56094372
1.0536028 -3.940155 -0.56284118
1.1214929 -4.1940432 -0.56238091
1.1943406 -4.4664721 -0.55988187
1.2846584 -4.8042336 -0.56032485
1.3881074 -5.1911011 -0.56026059
1.5127465 -5.6572137 -0.56140965
1.6535691 -6.1838474 -0.56002408
1.8299512 -6.8434629 -0.56047666
2.0413165 -7.6339054 -0.55916917
2.3115122 -8.6443548 -0.55848444
2.6663907 -9.9714937 -0.55814952
3.1499901 -11.780008 -0.55778283
3.8345957 -14.340226 -0.55542481
4.9101863 -18.36261 -0.55306882
6.8227186 -25.5149 -0.54884613
11.18463 -41.827129 -0.53979152
