# .PCD v0.7 - Point Cloud Data file format
VERSION 0.7
FIELDS x y z
SIZE 4 4 4
TYPE F F F
COUNT 1 1 1
WIDTH 1456
HEIGHT 1
VIEWPOINT 0 0 0 1 0 0 0
POINTS 1456
DATA ascii
-1.5287327 8.9558735 -0.56705636
-1.7658266 10.344855 -0.56748533
-2.0874639 12.229124 -0.56748545
-2.5566564 14.977824 -0.56853586
-3.2995439 19.329931 -0.57057786
-4.6399951 27.182785 -0.57304734
-7.8186603 45.804562 -0.57931739
-0.37890029 2.0662315 -0.56287599
-0.39208516 2.1381316 -0.56314176
-0.40736699 2.221467 -0.56510288
-0.42200127 2.301271 -0.56478369
-0.43618014 2.3785918 -0.5625326
-0.45383438 2.4748645 -0.5632996
-0.4728331 2.5784688 -0.56404358
-0.49216864 2.6839101 -0.5634228
-0.51647496 2.816458 -0.56647724
-0.53784239 2.9329796 -0.56420237
-0.56330198 3.0718164 -0.56406629
-0.59402066 3.2393327 -0.56660426
-0.6226989 3.3957219 -0.56445837
-0.65772748 3.586741 -0.56513536
-0.69511926 3.790647 -0.5645057
-0.73645955 4.0160851 -0.56345683
-0.7866866 4.2899852 -0.56498718
-0.84200525 4.59165 -0.56530881
-0.90439528 4.9318776 -0.56495422
-0.97919029 5.3397522 -0.56602669
-1.065147 5.8084941 -0.56614292
-1.1644977 6.3502769 -0.56484044
-1.2903218 7.0364251 -0.56600314
-1.4442393 7.8757725 -0.5665977
-1.6408724 8.9480581 -0.56779617
-1.8980767 10.350654 -0.56904066
-2.242408 12.228373 -0.56868714
-2.7442524 14.965047 -0.56928873
-3.5373416 19.289946 -0.57063836
-4.9785242 27.14905 -0.57358336
-8.4014177 45.814888 -0.58071065
-0.40601009 2.0702531 -0.56528884
-0.41922116 2.1376164 -0.56432116
-0.43347573 2.2103009 -0.56357569
-0.44858342 2.2873352 -0.56267476
-0.47037709 2.3984616 -0.56855667
-0.48527071 2.4744043 -0.56451035
-0.50357264 2.5677264 -0.56300563
-0.52584279 2.6812823 -0.56418586
-0.55028617 2.8059196 -0.56567585
-0.57612956 2.9376953 -0.5664295
-0.60139531 3.0665259 -0.56441009
-0.63192403 3.2221923 -0.56492257
-0.66481751 3.3899169 -0.56480962
-0.7026931 3.5830452 -0.56587172
-0.74310642 3.7891135 -0.56559539
-0.78680068 4.0119114 -0.56418598
-0.84103668 4.2884617 -0.56610578
-0.89973843 4.5877833 -0.56615204
-0.96474099 4.9192324 -0.5648219
-1.0426832 5.3166618 -0.56489539
-1.1358256 5.7915959 -0.56581444
-1.2461898 6.3543448 -0.56652248
-1.3772341 7.0225425 -0.56620592
-1.5414361 7.8598118 -0.5667702
-1.7474656 8.9103594 -0.56672466
-2.0197809 10.298901 -0.567518
-2.389812 12.185696 -0.56802613
-2.9302607 14.941453 -0.56971878
-3.7797894 19.273218 -0.57147527
-5.3221269 27.137623 -0.57468116
-8.98104 45.794491 -0.58180791
-0.43075886 2.0618715 -0.56440389
-0.44662005 2.1377926 -0.56577474
-0.46496245 2.2255905 -0.56888902
-0.4759832 2.2783425 -0.56185991
-0.49475917 2.3682156 -0.56278646
-0.51581359 2.4689946 -0.56468052
-0.53660023 2.5684919 -0.56457758
-0.55841118 2.6728923 -0.56382269
-0.58360314 2.7934763 -0.56457132
-0.61397606 2.9388592 -0.56806672
-0.63958508 3.0614395 -0.5648787
-0.67237222 3.2183785 -0.56566072
-0.70630294 3.3807914 -0.56469357
-0.74499732 3.5660059 -0.56458479
-0.78997964 3.7813184 -0.56583905
-0.84159505 4.0283809 -0.56791443
-0.89126164 4.2661152 -0.56455994
-0.95445549 4.5685992 -0.56519026
-1.0284765 4.9229078 -0.56665313
-1.1134259 5.3295274 -0.56767416
-1.2092462 5.7881808 -0.5668906
-1.3262578 6.3482695 -0.56739187
-1.4660232 7.0172701 -0.56719142
-1.6395129 7.8476968 -0.56730747
-1.8590714 8.8986359 -0.56739002
-2.1484952 10.283992 -0.56810933
-2.5470934 12.191923 -0.56973326
-3.1118026 14.894962 -0.56936204
-4.0184488 19.234718 -0.57175565
-5.6624985 27.10413 -0.57540286
-9.5644159 45.781059 -0.58308738
-0.45525965 2.0527289 -0.56339103
-0.47296044 2.1325402 -0.56588101
-0.48789418 2.1998751 -0.56380677
-0.50987041 2.2989643 -0.5684486
-0.52621806 2.3726745 -0.56534106
-0.5463317 2.4633651 -0.56488675
-0.56789529 2.5605938 -0.5643338
-0.59137619 2.666467 -0.56395864
-0.61886096 2.7903938 -0.56544358
-0.64931244 2.9276972 -0.56740952
-0.67758721 3.0551856 -0.5652194
-0.71081805 3.2050207 -0.56480652
-0.74733084 3.3696542 -0.56432557
-0.79251516 3.5733864 -0.56725329
-0.83732128 3.7754135 -0.56645334
-0.88956559 4.0109787 -0.56696033
-0.94805604 4.2747078 -0.56719685
-1.0121249 4.5635891 -0.56606728
-1.0900151 4.9147892 -0.56721854
-1.1769887 5.3069468 -0.56676769
-1.2801878 5.7722626 -0.56683046
-1.4013216 6.3184452 -0.56622356
-1.550225 6.9898391 -0.56647211
-1.7325299 7.8118362 -0.56621236
-1.9680604 8.8738241 -0.56730819
-2.2776282 10.26964 -0.56882066
-2.6927085 12.141204 -0.56886744
-3.2993329 14.876424 -0.5701611
-4.2567468 19.193325 -0.57203788
-6.0005879 27.056164 -0.57590747
-10.145706 45.746162 -0.58418769
-0.4832862 2.0589969 -0.56669956
-0.49569544 2.1118653 -0.56196976
-0.51552308 2.1963394 -0.56448251
-0.53508747 2.2796917 -0.56526738
-0.55374473 2.359179 -0.56370527
-0.57890987 2.466393 -0.56717056
-0.60467482 2.5761619 -0.56936055
-0.6260615 2.6672781 -0.56571555
-0.65483409 2.7898612 -0.56692445
-0.68435818 2.9156456 -0.56666195
-0.71543503 3.0480459 -0.56548333
-0.74882627 3.1903062 -0.56379348
-0.78873593 3.3603377 -0.56434691
-0.83650124 3.5638375 -0.56732744
-0.88357216 3.764379 -0.56638503
-0.93938458 4.0021625 -0.56730402
-0.99759662 4.2501698 -0.56552595
-1.0696834 4.5572891 -0.5668745
-1.1503298 4.9008756 -0.56720239
-1.2446953 5.3029108 -0.56792831
-1.3484257 5.7448454 -0.56572354
-1.4767987 6.2917666 -0.56541735
-1.6353623 6.9673123 -0.5662334
-1.832521 7.8072886 -0.56747311
-2.0799756 8.8615475 -0.56811547
-2.4024465 10.235405 -0.56851768
-2.8445933 12.11913 -0.56942904
-3.4888308 14.863847 -0.57128012
-4.4980173 19.163395 -0.57275099
-6.3402061 27.011871 -0.57658058
-10.730012 45.714237 -0.58542073
-0.50983512 2.0580215 -0.56811363
-0.5242216 2.1160944 -0.56476772
-0.54247165 2.1897633 -0.56446409
-0.56379884 2.2758534 -0.56599188
-0.58520609 2.362267 -0.56611967
-0.60466081 2.4407985 -0.5629521
-0.63203371 2.5512931 -0.56553912
-0.65981579 2.6634395 -0.56657946
-0.68603688 2.7692847 -0.56441468
-0.71749502 2.89627 -0.56456822
-0.75379521 3.0428007 -0.56618702
-0.78873765 3.1838508 -0.56432396
-0.83069104 3.3532014 -0.56482118
-0.88021934 3.5531294 -0.56730294
-0.9280203 3.7460847 -0.56530672
-0.98929816 3.9934416 -0.56774926
-1.0526041 4.2489848 -0.5670476
-1.1231087 4.533587 -0.56560135
-1.2063017 4.8694067 -0.56523436
-1.3080784 5.2802429 -0.5671804
-1.4228438 5.7435098 -0.56727207
-1.5590473 6.2933145 -0.56723642
-1.7229035 6.9547429 -0.56689078
-1.9289546 7.7864971 -0.56764305
-2.1899962 8.840229 -0.56843221
-2.5278542 10.204041 -0.56845909
-2.9967101 12.096642 -0.57006073
-3.6659386 14.798078 -0.57044178
-4.7398558 19.133095 -0.57354403
-6.6790214 26.960812 -0.57720011
-11.312297 45.663681 -0.58651024
-0.53220671 2.0405002 -0.56504071
-0.55187148 2.1158955 -0.56648296
-0.57359183 2.1991723 -0.56866461
-0.58774394 2.2534318 -0.56217062
-0.61354172 2.3523414 -0.56550628
-0.63636643 2.4398522 -0.56449598
-0.66543084 2.5512862 -0.56730849
-0.6889984 2.641645 -0.56370282
-0.72030765 2.7616861 -0.56462848
-0.75686586 2.9018514 -0.56742752
-0.79347694 3.0422196 -0.56785148
-0.83146417 3.1878641 -0.56680459
-0.87172782 3.3422363 -0.56473708
-0.92103338 3.5312757 -0.56557924
-0.97448879 3.7362256 -0.56558442
-1.036014 3.9721155 -0.56648564
-1.103352 4.2302918 -0.56632078
-1.175459 4.506753 -0.5640142
-1.2676259 4.8601246 -0.56592345
-1.3736457 5.2666078 -0.56748724
-1.4892167 5.7097111 -0.56569976
-1.6316386 6.2557621 -0.56561732
-1.810234 6.9405031 -0.5675016
-2.0311754 7.7876005 -0.56950116
-2.2973268 8.8080349 -0.56813562
-2.6556973 10.182041 -0.56900972
-3.1489546 12.073207 -0.5707379
-3.8543277 14.777634 -0.57143748
-4.9788971 19.089275 -0.57402223
-7.0177808 26.906427 -0.57783961
-11.898434 45.61903 -0.58777153
-0.5578832 2.0360928 -0.56567711
-0.57883042 2.1125433 -0.5674482
-0.59646559 2.1769059 -0.56476086
-0.61718518 2.2525258 -0.56379527
-0.64046538 2.337491 -0.56378692
-0.66824955 2.438894 -0.56613266
-0.69385654 2.5323513 -0.56495261
-0.72353458 2.6406667 -0.56534988
-0.75353211 2.7501481 -0.56412131
-0.78836155 2.877264 -0.56447262
-0.82776505 3.0210741 -0.56576163
-0.86955416 3.1735907 -0.56612509
-0.91233373 3.3297224 -0.56447548
-0.96500927 3.521971 -0.5659467
-1.0160331 3.7081909 -0.56318927
-1.0857695 3.9627066 -0.56700504
-1.1556053 4.2175851 -0.56647915
-1.234817 4.5066819 -0.56586277
-1.3306953 4.8566065 -0.56737626
-1.4383368 5.2494631 -0.56750274
-1.5631515 5.7049961 -0.56709409
-1.7160445 6.2630057 -0.56813717
-1.8952101 6.9169025 -0.56743443
-2.1192727 7.7346582 -0.56749237
-2.4077592 8.7875404 -0.56868041
-2.7845964 10.162874 -0.56980902
-3.2977293 12.035643 -0.57083589
-4.0409842 14.748282 -0.57218069
-5.2131886 19.026447 -0.57401729
-7.3572989 26.851755 -0.57856464
-12.486515 45.571732 -0.58909583
-0.58481205 2.0358195 -0.56755614
-0.60753542 2.114923 -0.5700509
-0.62621051 2.1799338 -0.56750113
-0.64528245 2.246326 -0.56418687
-0.67319 2.3434765 -0.56718421
-0.69591266 2.4225776 -0.56428885
-0.72207755 2.5136616 -0.56272131
-0.75103325 2.6144607 -0.56167406
-0.79211694 2.7574794 -0.56758016
-0.82268405 2.8638878 -0.56379044
-0.86428034 3.0086908 -0.56539017
-0.90510082 3.1507933 -0.56400108
-0.9546175 3.3231683 -0.56531161
-1.0075021 3.5072677 -0.56553197
-1.0698746 3.7243958 -0.56760556
-1.1315095 3.9389563 -0.56555474
-1.2036197 4.1899824 -0.56471699
-1.2906696 4.4930167 -0.5660969
-1.3874942 4.8300776 -0.56622738
-1.5030297 5.2322745 -0.56759959
-1.6345488 5.6901126 -0.56756961
-1.7921728 6.2388253 -0.56789982
-1.9819001 6.8992949 -0.56794631
-2.2140913 7.7075877 -0.56746083
-2.5145042 8.7533703 -0.56842709
-2.907871 10.122741 -0.56952059
-3.4460239 11.996132 -0.57092857
-4.2246919 14.706794 -0.5725432
-5.4539132 18.985901 -0.57477379
-7.6999469 26.804682 -0.57954663
-13.071836 45.505043 -0.59026694
-0.60961586 2.0278647 -0.56738538
-0.62740064 2.0870249 -0.5645681
-0.64596212 2.1487691 -0.56141341
-0.6739108 2.2417393 -0.56507343
-0.70092958 2.3316164 -0.56635702
-0.7262311 2.4157808 -0.5647431
-0.75615472 2.5153205 -0.56513149
-0.78352976 2.6063826 -0.561966
-0.82269454 2.7366629 -0.56533504
-0.85606998 2.8476851 -0.56263047
-0.89839023 2.988462 -0.56362212
-0.94715428 3.1506739 -0.56602168
-0.99499357 3.3098094 -0.56507772
-1.0519098 3.4991393 -0.56626415
-1.1109735 3.6956124 -0.56525815
-1.1821709 3.9324479 -0.56666464
-1.2559476 4.1778631 -0.56512231
-1.3448462 4.4735813 -0.56568891
-1.4525048 4.8317037 -0.56846881
-1.5644799 5.2041845 -0.56659651
-1.7077298 5.6806998 -0.56868237
-1.8677598 6.2130337 -0.56759977
-2.0690815 6.8827229 -0.56863356
-2.3145473 7.6992559 -0.56889981
-2.6250627 8.7321739 -0.56910372
-3.0364184 10.100534 -0.57032877
-3.5902734 11.942912 -0.57045364
-4.404624 14.651819 -0.57246828
-5.6908011 18.930239 -0.57516372
-8.0351887 26.728758 -0.57999742
-13.658105 45.433182 -0.59146863
-0.63367635 2.0175824 -0.56664574
-0.65298295 2.0790532 -0.56454104
-0.67967385 2.1640351 -0.56754273
-0.69801778 2.222441 -0.56232995
-0.72590423 2.3112295 -0.5635305
-0.75510961 2.4042175 -0.56416792
-0.78683674 2.5052345 -0.56499648
-0.8191362 2.6080739 -0.56445968
-0.8556574 2.7243547 -0.56492323
-0.89477968 2.8489175 -0.56500506
-0.93755692 2.9851172 -0.56512284
-0.98368889 3.1319985 -0.56479698
-1.0371237 3.3021309 -0.56590128
-1.0962778 3.4904737 -0.56700051
-1.1564434 3.6820369 -0.56531399
-1.2319229 3.9223583 -0.56735069
-1.3139589 4.1835556 -0.56803483
-1.3996534 4.4564009 -0.56565005
-1.507666 4.8003054 -0.56691301
-1.6246687 5.1728344 -0.5653156
-1.7698836 5.6351886 -0.56626219
-1.9487621 6.2047257 -0.56898695
-2.15518 6.8619461 -0.56906343
-2.4112587 7.6772833 -0.56942403
-2.7311003 8.6956367 -0.56886816
-3.1590528 10.058208 -0.5700891
-3.7437766 11.91993 -0.57151157
-4.5880971 14.608188 -0.57292455
-5.9282022 18.874992 -0.57565641
-8.3743191 26.66326 -0.5807668
-14.244703 45.354164 -0.59267545
-0.65999627 2.0144014 -0.56798869
-0.67977124 2.0747573 -0.56560153
-0.70293748 2.1454639 -0.5648964
-0.72785449 2.2215142 -0.56431741
-0.75904822 2.3167219 -0.56710255
-0.78344744 2.3911917 -0.56332928
-0.81665039 2.4925318 -0.56435376
-0.85431081 2.6074767 -0.56656116
-0.89272732 2.7247293 -0.56723428
-0.93154991 2.8432212 -0.56610435
-0.97245902 2.9680817 -0.56411892
-1.0254071 3.1296864 -0.56661099
-1.0739985 3.2779944 -0.56398553
-1.1413503 3.4835615 -0.56811452
-1.2055658 3.6795564 -0.56716627
-1.2787856 3.9030333 -0.56678706
-1.3618962 4.1566987 -0.56661922
-1.4556463 4.4428368 -0.56615752
-1.5639836 4.7734976 -0.56597549
-1.6931663 5.1677814 -0.5669958
-1.840139 5.616363 -0.56660134
-2.0254288 6.1818938 -0.56913406
-2.2355213 6.8231254 -0.56808072
-2.498827 7.626771 -0.56791359
-2.8444188 8.6815662 -0.57019269
-3.2816272 10.015987 -0.56994015
-3.8931239 11.882361 -0.57196236
-4.7742443 14.571666 -0.57375121
-6.1663895 18.820686 -0.57626915
-8.7113237 26.588184 -0.58142078
-14.830983 45.266247 -0.5938648
-0.67763251 1.9853846 -0.562114
-0.70684284 2.0709674 -0.56689495
-0.73218131 2.1452062 -0.5671562
-0.75777894 2.2202044 -0.56630886
-0.78518182 2.3004916 -0.56545025
-0.81849831 2.3981051 -0.56728619
-0.84751201 2.4831119 -0.56453782
-0.88711745 2.5991511 -0.56707954
-0.92390805 2.7069433 -0.56585389
-0.96523696 2.8280323 -0.56540054
-1.0122319 2.9657223 -0.56599337
-1.0663117 3.1241698 -0.56794316
-1.1195701 3.2802105 -0.56669253
-1.1792183 3.4549727 -0.56577408
-1.2428665 3.6414547 -0.56360638
-1.3255879 3.8838186 -0.56632102
-1.413121 4.1402802 -0.56670702
-1.5150994 4.4390655 -0.56800807
-1.6267054 4.766058 -0.56742209
-1.7552935 5.1428065 -0.56658095
-1.9139081 5.6075287 -0.56804144
-2.0938716 6.1348009 -0.56712604
-2.3224447 6.8044939 -0.56886417
-2.5966098 7.6077657 -0.56883293
-2.9473965 8.6355295 -0.56950641
-3.4104939 9.9923515 -0.57093835
-4.0414186 11.840888 -0.5723148
-4.9565396 14.522085 -0.57415539
-6.4041009 18.763271 -0.57687873
-9.0485735 26.511271 -0.58212793
-15.41271 45.157452 -0.59487891
-0.70084167 1.9736613 -0.56119233
-0.72825652 2.0508652 -0.56380093
-0.75871843 2.1366498 -0.56731772
-0.78474045 2.2099311 -0.56610698
-0.81358963 2.2911744 -0.56557637
-0.84571242 2.3816361 -0.56580758
-0.88406813 2.489651 -0.56845301
-0.91626447 2.5803199 -0.56538641
-0.95622921 2.6928658 -0.56532639
-1.0019869 2.8217254 -0.56656009
-1.0499249 2.9567251 -0.56669736
-1.0988553 3.0945194 -0.56496662
-1.1579651 3.2609801 -0.56578743
-1.223495 3.4455211 -0.56664717
-1.2961334 3.6500802 -0.56736529
-1.3713586 3.8619244 -0.56554455
-1.4662825 4.1292419 -0.56762111
-1.5666909 4.4120054 -0.56696773
-1.685438 4.7464128 -0.5675078
-1.8198397 5.1249056 -0.56703126
-1.9830462 5.584516 -0.56813747
-2.1767192 6.1299248 -0.56910658
-2.4034929 6.768549 -0.56828696
-2.690105 7.5756855 -0.56886458
-3.0562699 8.6068535 -0.5700506
-3.5288062 9.9375772 -0.57024491
-4.1874046 11.792275 -0.57241064
-5.1348867 14.460509 -0.57417387
-6.6343431 18.683174 -0.57688063
-9.3818493 26.420509 -0.58262414
-16.002008 45.06374 -0.59619141
-0.72921604 1.9761688 -0.56441224
-0.75369006 2.0424931 -0.56400448
-0.77797741 2.1083117 -0.56229097
-0.81228405 2.2012823 -0.5664072
-0.84176528 2.2811763 -0.56562066
-0.87480384 2.3707104 -0.56572473
-0.91485077 2.4792373 -0.56860089
-0.94727099 2.5670955 -0.56499833
-0.98757792 2.676327 -0.56436104
-1.0334797 2.8007205 -0.56485152
-1.0777255 2.9206262 -0.56227595
-1.1423131 3.0956583 -0.56769609
-1.2006289 3.2536933 -0.56704181
-1.2657487 3.4301674 -0.56663901
-1.338532 3.6274095 -0.56635696
-1.4202461 3.8488538 -0.56614518
-1.5179189 4.1135464 -0.56798631
-1.6203115 4.3910294 -0.56678969
-1.7403693 4.7163849 -0.56643337
-1.8809335 5.0973125 -0.56649452
-2.0491626 5.5532117 -0.56747323
-2.2506502 6.0992413 -0.5687843
-2.4920685 6.7534828 -0.56955177
-2.7886999 7.5573506 -0.57001972
-3.1639011 8.5741425 -0.57041776
-3.6553276 9.9059038 -0.57096344
-4.3357034 11.749717 -0.57288939
-5.3169041 14.408761 -0.57467169
-6.8742762 18.629225 -0.5777812
-9.7198601 26.340731 -0.5834564
-16.588736 44.955322 -0.59741062
-0.7565313 1.9750742 -0.56671375
-0.77627778 2.0266261 -0.56221646
-0.81027919 2.1153936 -0.56679422
-0.84369814 2.2026403 -0.56938308
-0.87050569 2.2726269 -0.5661121
-0.9037205 2.3593407 -0.5656206
-0.94306856 2.4620667 -0.56727958
-0.98147428 2.5623322 -0.56656331
-1.0219339 2.6679602 -0.56520379
-1.0655431 2.7818103 -0.56363761
-1.1258005 2.9391243 -0.56845933
-1.1777402 3.074723 -0.56646985
-1.2373996 3.2304757 -0.56560451
-1.3065579 3.4110272 -0.56608832
-1.3840063 3.6132214 -0.56675601
-1.4701908 3.838223 -0.56719774
-1.5658017 4.0878344 -0.56705177
-1.6735266 4.3690715 -0.56656879
-1.8015865 4.7033968 -0.56749123
-1.9497924 5.0903177 -0.56833869
-2.1207416 5.5366139 -0.56839901
-2.3250587 6.0700245 -0.56868285
-2.5678215 6.7038045 -0.5679822
-2.8835247 7.5280099 -0.57043791
-3.2622712 8.5168018 -0.56922871
-3.7820446 9.8737736 -0.57174879
-4.4829273 11.703566 -0.57328355
-5.4961457 14.348773 -0.57493109
-7.109499 18.560749 -0.57832509
-10.057873 26.25806 -0.58432049
-17.17613 44.841675 -0.59866184
-0.77375919 1.948001 -0.56163311
-0.80697918 2.031635 -0.56631595
-0.82911748 2.0873699 -0.56197482
-0.8661353 2.1805654 -0.566387
-0.89775807 2.2601781 -0.56571829
-0.92495424 2.3286467 -0.5609464
-0.97249824 2.4483426 -0.56682986
-1.009526 2.5415628 -0.56467307
-1.0600982 2.6688824 -0.5681178
-1.1037462 2.7787697 -0.56572872
-1.1572034 2.9133527 -0.56618416
-1.2161748 3.0618181 -0.56680465
-1.2792158 3.2205286 -0.56657416
-1.3488761 3.3959043 -0.56628841
-1.4232326 3.5831025 -0.5647341
-1.5148144 3.8136673 -0.56627876
-1.6098543 4.052938 -0.56491429
-1.7292963 4.3536425 -0.56728268
-1.8659769 4.6977472 -0.5695349
-2.0082963 5.0560474 -0.56722677
-2.1921163 5.5188289 -0.56929743
-2.3943679 6.0280142 -0.5674625
-2.6561818 6.6871514 -0.56929547
-2.9677937 7.4716597 -0.56889027
-3.3707712 8.4861879 -0.56990969
-3.8979249 9.8133392 -0.57098162
-4.6297688 11.655815 -0.57368982
-5.6749768 14.28721 -0.57521695
-7.3392415 18.477131 -0.57848787
-10.388818 26.154684 -0.5848186
-17.754707 44.698906 -0.59962517
-0.80052096 1.9453107 -0.56365287
-0.83136964 2.0202746 -0.56595606
-0.86272442 2.0964687 -0.56723756
-0.89145821 2.1662934 -0.5654844
-0.92798549 2.2550566 -0.5672496
-0.96227235 2.3383756 -0.56609756
-1.00298 2.4372976 -0.56708521
-1.0461682 2.5422471 -0.5676403
-1.0868207 2.6410351 -0.56499207
-1.1411012 2.7729397 -0.56735557
-1.1925391 2.8979366 -0.56599522
-1.2514217 3.0410249 -0.56576127
-1.3189567 3.2051387 -0.56667703
-1.3925655 3.384012 -0.56711793
-1.4685404 3.5686352 -0.56525731
-1.5652275 3.8035903 -0.56759751
-1.6718911 4.062789 -0.5691098
-1.7817165 4.3296704 -0.56697094
-1.9110416 4.6439381 -0.56581748
-2.0726893 5.0367508 -0.56787825
-2.2556322 5.4813128 -0.56824559
-2.4770284 6.0193176 -0.56946802
-2.7347898 6.6456923 -0.56858581
-3.0675635 7.4543509 -0.57040125
-3.4810343 8.4591084 -0.57092255
-4.02601 9.7834291 -0.57207853
-4.7702065 11.591868 -0.57338613
-5.8557882 14.229893 -0.57576478
-7.5755396 18.408985 -0.57922703
-10.724414 26.060925 -0.58562654
-18.345478 44.580536 -0.60101795
-0.82441628 1.9354081 -0.56367832
-0.8549614 2.0071161 -0.5651722
-0.89147264 2.0928304 -0.56917614
-0.91629851 2.1511118 -0.56441998
-0.95401251 2.2396495 -0.56628209
-0.98945665 2.3228586 -0.56524378
-1.0317122 2.4220579 -0.56644833
-1.0748751 2.5233879 -0.5663377
-1.1249521 2.6409488 -0.56788993
-1.172948 2.7536249 -0.56631184
-1.2296165 2.8866601 -0.56670308
-1.2900524 3.0285401 -0.566347
-1.3549072 3.1807938 -0.56527573
-1.4333696 3.3649931 -0.56684154
-1.5124749 3.5507016 -0.56531978
-1.6164563 3.7948093 -0.56921023
-1.7242451 4.0478554 -0.5699448
-1.8382031 4.3153844 -0.56801713
-1.9766016 4.6402903 -0.56829143
-2.1367524 5.0162621 -0.56848758
-2.3199775 5.446403 -0.56754106
-2.5427697 5.9694324 -0.56766373
-2.8223143 6.6256938 -0.56980091
-3.1620898 7.4233546 -0.57096153
-3.5852425 8.4167519 -0.57099617
-4.1461968 9.733654 -0.57210594
-4.9214511 11.553649 -0.57444561
-6.0327878 14.162635 -0.57600141
-7.8093843 18.333391 -0.57982612
-11.061458 25.967991 -0.5865503
-18.93022 44.440777 -0.60222644
-0.85050207 1.930462 -0.56524092
-0.8749156 1.9858755 -0.56217808
-0.91199982 2.070049 -0.56598753
-0.94214928 2.1384819 -0.56410319
-0.98814642 2.2428858 -0.57012951
-1.0192363 2.3134532 -0.56596208
-1.0641736 2.4154515 -0.56792068
-1.1070787 2.5128372 -0.56698209
-1.1485779 2.6070318 -0.56359106
-1.2091933 2.744616 -0.56747419
-1.2622154 2.864965 -0.56544816
-1.3327247 3.0250065 -0.56870776
-1.393991 3.1640682 -0.56530684
-1.4795808 3.3583391 -0.56874239
-1.5614011 3.5440543 -0.5672754
-1.6511877 3.7478509 -0.56516933
-1.7646182 4.0053144 -0.56696737
-1.8893874 4.2885146 -0.56749552
-2.0284834 4.6042333 -0.5668875
-2.1957495 4.9838924 -0.56783617
-2.3945417 5.4351091 -0.5693894
-2.6246722 5.9574575 -0.56955105
-2.9079583 6.6004572 -0.57066256
-3.2514353 7.3800783 -0.57066494
-3.6939125 8.3844099 -0.57184029
-4.2628698 9.6758232 -0.57174456
-5.0553365 11.474557 -0.57356054
-6.2083712 14.091705 -0.57617795
-8.040102 18.249352 -0.58025116
-11.383368 25.837868 -0.58672851
-19.508751 44.280785 -0.6032635
-0.88000017 1.9326544 -0.56900823
-0.90554643 1.9887589 -0.56610376
-0.93287253 2.0487726 -0.56326395
-0.97111225 2.1327546 -0.56569958
-1.0079559 2.2136705 -0.56581092
-1.047606 2.30075 -0.56596297
-1.0872056 2.3877184 -0.56450069
-1.1371055 2.4973083 -0.56659037
-1.1824541 2.5969028 -0.564502
-1.2350222 2.712353 -0.56390071
-1.2987807 2.8523791 -0.56607336
-1.3567262 2.9796388 -0.56327236
-1.4382974 3.1587856 -0.56747997
-1.5164912 3.3305144 -0.56714535
-1.606686 3.5286002 -0.56792116
-1.7049915 3.7444983 -0.5677824
-1.8161378 3.9885976 -0.56771928
-1.9354384 4.2506051 -0.56558555
-2.0896032 4.5891814 -0.56815493
-2.2605128 4.9645333 -0.56875443
-2.4680614 5.4203506 -0.57097948
-2.6958361 5.920589 -0.56915241
-2.986095 6.5580549 -0.57012802
-3.3409455 7.3373766 -0.57049656
-3.7883637 8.3199959 -0.57058102
-4.3910913 9.6437044 -0.57299393
-5.2021704 11.424994 -0.57423717
-6.3865943 14.026223 -0.57666796
-8.2694149 18.16127 -0.58063978
-11.716693 25.732174 -0.58755565
-20.094515 44.131531 -0.60455072
-0.89612502 1.9055872 -0.56424075
-0.93098909 1.9797248 -0.56674802
-0.96189648 2.0454485 -0.56555921
-0.99623829 2.1184754 -0.56511873
-1.0367444 2.2046106 -0.56671083
-1.0767694 2.2897229 -0.5664646
-1.1217383 2.3853483 -0.56715846
-1.164782 2.4768796 -0.5651623
-1.2189622 2.5920923 -0.56667167
-1.2788682 2.719481 -0.56860906
-1.3354067 2.8397086 -0.56677479
-1.4006757 2.9785016 -0.56627047
-1.4745761 3.135649 -0.5665381
-1.5569059 3.3107212 -0.56699198
-1.6487406 3.5060053 -0.56750464
-1.7530987 3.7279201 -0.56849438
-1.8680484 3.9723577 -0.56863427
-1.9983338 4.2494063 -0.56865269
-2.1475406 4.5666909 -0.56859684
-2.3194973 4.9323525 -0.56829226
-2.5333371 5.3870778 -0.5707128
-2.769336 5.8889232 -0.56933892
-3.0670066 6.5219121 -0.57022148
-3.4308596 7.2956362 -0.57048821
-3.8991652 8.2914762 -0.57187009
-4.5113525 9.593277 -0.57325041
-5.3413758 11.3583 -0.57414281
-6.5665679 13.96364 -0.57737106
-8.4922724 18.058601 -0.58065206
-12.045951 25.61541 -0.58822715
-20.672506 43.95956 -0.60563141
-0.92771405 1.9113741 -0.56928897
-0.9516111 1.9606093 -0.56458282
-0.9850657 2.029536 -0.56446588
-1.0261422 2.114166 -0.56729221
-1.0541809 2.1719344 -0.56160086
-1.1026651 2.2718265 -0.5653488
-1.150208 2.3697796 -0.56677675
-1.1945603 2.4611588 -0.56488413
-1.2444817 2.5640121 -0.56383568
-1.3051956 2.689101 -0.56556994
-1.3737071 2.8302555 -0.5682165
-1.4433782 2.9737995 -0.56870788
-1.5130109 3.117264 -0.56653494
-1.5989085 3.2942395 -0.56749356
-1.6931479 3.4884014 -0.56798226
-1.8015743 3.7117929 -0.56937027
-1.909469 3.9340887 -0.56647438
-2.0458689 4.2151141 -0.56738728
-2.2018504 4.5364838 -0.56816393
-2.3879392 4.9198837 -0.57019567
-2.5978703 5.352406 -0.57038075
-2.8437147 5.8589201 -0.56977582
-3.147295 6.4843879 -0.57028127
-3.5246296 7.2618127 -0.57118922
-4.0035572 8.2485504 -0.57226157
-4.630218 9.5396614 -0.57340544
-5.4883814 11.30774 -0.57495505
-6.7391815 13.88477 -0.57749265
-8.7233858 17.972837 -0.58129948
-12.370881 25.487789 -0.58874524
-21.259518 43.801094 -0.60700381
-0.9405393 1.8786383 -0.56294096
-0.97667444 1.9508148 -0.56517804
-1.0103971 2.0181725 -0.56471825
-1.0541199 2.1055048 -0.56840324
-1.0855945 2.1683724 -0.56408888
-1.1381099 2.273267 -0.56914687
-1.1831586 2.3632474 -0.56865108
-1.2263722 2.4495628 -0.56564105
-1.2882278 2.5731132 -0.56927741
-1.3427317 2.6819797 -0.56750184
-1.4057952 2.8079431 -0.56716454
-1.4828087 2.9617701 -0.56985122
-1.552073 3.1001191 -0.5668447
-1.6333663 3.2624948 -0.56544214
-1.7365475 3.4685895 -0.56819028
-1.8371804 3.669594 -0.56631964
-1.9673353 3.9295664 -0.56926352
-2.1029935 4.2005305 -0.56886214
-2.257194 4.5085316 -0.56809634
-2.4463592 4.8863711 -0.56975502
-2.6601775 5.3134527 -0.56967247
-2.9094086 5.8112688 -0.56857789
-3.220335 6.4323149 -0.56914115
-3.6106639 7.2119598 -0.57071704
-4.1073837 8.2041101 -0.57263917
-4.7416649 9.4710274 -0.57274133
-5.6276007 11.2406 -0.57501626
-6.9089918 13.800058 -0.57745916
-8.959837 17.896427 -0.58234751
-12.695987 25.359034 -0.5893327
-21.832365 43.608082 -0.6080035
-0.96969742 1.8788095 -0.56652242
-1.0025223 1.9424087 -0.56627125
-1.043156 2.0211372 -0.56909406
-1.074437 2.0817447 -0.56551284
-1.1202496 2.1705077 -0.56818491
-1.1571765 2.2420542 -0.56485206
-1.2058915 2.3364406 -0.56572598
-1.2594118 2.4401374 -0.56699777
-1.3035487 2.5256536 -0.56228119
-1.3679589 2.6504495 -0.56434679
-1.439441 2.7889478 -0.56686008
-1.5079788 2.9217412 -0.56567454
-1.5924448 3.0853958 -0.56769007
-1.6753854 3.2460949 -0.56612754
-1.7812845 3.4512768 -0.56889933
-1.8890316 3.6600394 -0.56838691
-2.0142217 3.9025977 -0.56890172
-2.1461272 4.1581674 -0.56665605
-2.3169985 4.489234 -0.56921166
-2.5028675 4.849359 -0.56898493
-2.720876 5.2717552 -0.56874603
-2.990911 5.7949543 -0.57053691
-3.2970457 6.3880968 -0.56877285
-3.7029676 7.1745791 -0.57131898
-4.2070818 8.1513109 -0.57252139
-4.8686547 9.4331236 -0.57402611
-5.7721896 11.183741 -0.57569498
-7.0891113 13.735305 -0.57835352
-9.1797571 17.785976 -0.5823825
-13.029959 25.245825 -0.59038061
-22.412092 43.423908 -0.60923195
-1.0009909 1.8822877 -0.57123953
-1.0252221 1.9278527 -0.56566024
-1.0580137 1.9895148 -0.56381065
-1.0989044 2.0664067 -0.56497425
-1.1432364 2.1497695 -0.56639338
-1.1858901 2.2299767 -0.56544036
-1.2347006 2.3217611 -0.56580502
-1.2890027 2.423872 -0.56685841
-1.3436745 2.5266786 -0.56614494
-1.4082057 2.6480246 -0.56747448
-1.4707882 2.7657061 -0.56576931
-1.553591 2.9214106 -0.56926608
-1.630821 3.0666356 -0.5678851
-1.7167684 3.2282534 -0.56665474
-1.8176316 3.4179189 -0.56704199
-1.9348956 3.6384251 -0.56868219
-2.0619807 3.877399 -0.56888151
-2.2072899 4.1506419 -0.56928623
-2.3671868 4.4513159 -0.5680517
-2.5593076 4.8125844 -0.56831956
-2.7923837 5.2508664 -0.57015371
-3.0585501 5.7513723 -0.56990582
-3.3838377 6.3630514 -0.57020456
-3.7836237 7.1148186 -0.57022196
-4.3126774 8.109664 -0.57327759
-4.9831262 9.3703918 -0.57389408
-5.9079642 11.109481 -0.57556844
-7.2570357 13.646307 -0.57831985
-9.4040718 17.683645 -0.5827741
-13.347251 25.098497 -0.59072876
-22.987988 43.227177 -0.6103915
-1.0103394 1.844787 -0.56358647
-1.0484113 1.9143028 -0.56542432
-1.0903554 1.9908888 -0.56795669
-1.1313024 2.0656543 -0.56852895
-1.171203 2.1385093 -0.56717813
-1.2218968 2.2310715 -0.56948465
-1.272489 2.3234482 -0.56998616
-1.3197728 2.4097843 -0.56731617
-1.3742671 2.5092857 -0.5659914
-1.4468647 2.6418421 -0.56991923
-1.5044373 2.7469647 -0.56567699
-1.5853158 2.8946414 -0.56780547
-1.6661358 3.0422111 -0.56711316
-1.7567801 3.2077193 -0.5667994
-1.8610995 3.3981969 -0.56752384
-1.9665951 3.5908222 -0.56497884
-2.1037984 3.8413429 -0.56734401
-2.2526405 4.1131148 -0.56789541
-2.4191854 4.4172106 -0.56745267
-2.6208758 4.7854791 -0.56888145
-2.8481076 5.2003832 -0.56843185
-3.1276329 5.7107706 -0.56965041
-3.465174 6.3270898 -0.57075715
-3.8840322 7.0918865 -0.57216853
-4.4072013 8.0471458 -0.57264578
-5.0989957 9.310298 -0.57401031
-6.0461049 11.039633 -0.57575792
-7.429317 13.565251 -0.57871252
-9.6433277 17.607832 -0.58413929
-13.682684 24.983326 -0.59193325
-23.570454 43.037483 -0.61175936
-1.0420506 1.8483752 -0.56855428
-1.0678943 1.8942164 -0.56332743
-1.1132603 1.9746859 -0.56719667
-1.1401734 2.0224242 -0.5604471
-1.1928947 2.1159403 -0.56504005
-1.240685 2.2007103 -0.56558627
-1.2899768 2.2881432 -0.5651738
-1.3447062 2.3852215 -0.56538355
-1.4018046 2.4865017 -0.56469762
-1.4618967 2.5930922 -0.56323791
-1.5404524 2.7324333 -0.56654245
-1.6105357 2.8567462 -0.56421411
-1.7066246 3.0271873 -0.56818157
-1.7957151 3.185215 -0.56668174
-1.8953065 3.3618686 -0.56530625
-2.0191119 3.5814731 -0.56737137
-2.1567771 3.8256617 -0.56890196
-2.3055902 4.0896244 -0.56852347
-2.479861 4.3987436 -0.56895459
-2.6753151 4.7454376 -0.56798917
-2.9129014 5.1668649 -0.56864029
-3.2038529 5.6829505 -0.57076198
-3.54369 6.285749 -0.57091552
-3.9641068 7.0314784 -0.5711844
-4.5065846 7.9937181 -0.57274395
-5.2151365 9.2505379 -0.57423615
-6.1902623 10.980203 -0.5765847
-7.5976787 13.476659 -0.57887489
-9.8524647 17.476168 -0.58374631
-14.005766 24.843235 -0.59264976
-24.135706 42.811584 -0.61272061
-1.0604887 1.8281654 -0.56630611
-1.0973923 1.8917831 -0.56657404
-1.1359226 1.9582051 -0.56643206
-1.1770452 2.0290959 -0.56626403
-1.2245854 2.1110501 -0.56771231
-1.2758451 2.1994159 -0.5692426
-1.3255649 2.2851274 -0.56841195
-1.3714285 2.3641913 -0.56435329
-1.4416785 2.4852946 -0.56840652
-1.5014758 2.5883784 -0.56618148
-1.5723454 2.7105498 -0.56597114
-1.6577631 2.8578005 -0.56840539
-1.7412089 3.001652 -0.56736445
-1.8377253 3.1680355 -0.56760281
-1.9397137 3.3438523 -0.5662446
-2.0609591 3.552866 -0.56681138
-2.1986156 3.7901702 -0.5676015
-2.3584993 4.0657926 -0.56919909
-2.5333722 4.3672538 -0.56886786
-2.7384315 4.7207532 -0.56902206
-2.9839795 5.1440511 -0.57012463
-3.2774029 5.6498809 -0.57144493
-3.6153762 6.2325091 -0.57007462
-4.0552483 6.9908004 -0.57188743
-4.6097484 7.9466972 -0.57339293
-5.3292279 9.1870003 -0.57431644
-6.3234653 10.900956 -0.57646286
-7.7687397 13.392449 -0.57931733
-10.070427 17.360304 -0.58396834
-14.316497 24.680059 -0.59291184
-24.701267 42.582256 -0.61373919
-1.0769088 1.8049685 -0.56317991
-1.1209661 1.8788112 -0.56677443
-1.1640452 1.9510148 -0.56844956
-1.2015418 2.0138612 -0.56609285
-1.2488116 2.0930886 -0.56696874
-1.292042 2.1655455 -0.56454563
-1.34645 2.2567368 -0.56542557
-1.4062585 2.3569796 -0.56671673
-1.4694124 2.4628298 -0.5673582
-1.5337014 2.5705822 -0.56637114
-1.6174371 2.7109287 -0.57015997
-1.6899775 2.8325112 -0.56746572
-1.7819664 2.9866903 -0.56863523
-1.8746884 3.1420982 -0.56704295
-1.9874401 3.3310773 -0.56817681
-2.1084013 3.5338161 -0.56786543
-2.2486188 3.7688298 -0.56850344
-2.4109607 4.040925 -0.56982499
-2.5864975 4.3351359 -0.56878406
-2.8050067 4.7013717 -0.57080019
-3.0372407 5.090611 -0.56829804
-3.3443274 5.6053076 -0.57105285
-3.7082448 6.2152567 -0.57262409
-4.1433477 6.9445176 -0.57222587
-4.7030749 7.8826566 -0.57290155
-5.4466352 9.1289101 -0.57482845
-6.4648447 10.835496 -0.57716137
-7.9408879 13.309439 -0.57990646
-10.294744 17.254654 -0.58462852
-14.634551 24.528448 -0.59354788
-25.281624 42.373627 -0.61516631
-1.1076356 1.8056351 -0.56759465
-1.1449647 1.8664876 -0.56726104
-1.1749908 1.9154353 -0.56225026
-1.2246168 1.9963342 -0.56535625
-1.2707745 2.071579 -0.56533235
-1.3219336 2.1549773 -0.56598538
-1.3802574 2.2500551 -0.56796092
-1.4288172 2.3292155 -0.56422281
-1.5047988 2.4530785 -0.56933147
-1.5659777 2.5528107 -0.5666554
-1.6378242 2.6699326 -0.56573069
-1.7214974 2.8063345 -0.56641954
-1.8211334 2.9687579 -0.5694415
-1.9094034 3.1126533 -0.56592351
-2.0342968 3.3162508 -0.56987143
-2.1525738 3.5090623 -0.56809813
-2.290307 3.7335911 -0.56739318
-2.4566455 4.0047512 -0.56894076
-2.6429577 4.3084722 -0.56950659
-2.8516648 4.6486998 -0.56861961
-3.1063447 5.0638719 -0.56953412
-3.4086142 5.5566225 -0.57031989
-3.7839527 6.1684885 -0.57255876
-4.2294126 6.8946638 -0.57235998
-4.8062153 7.8349504 -0.57368624
-5.5584202 9.0611725 -0.57482344
-6.5929341 10.747607 -0.57675457
-8.1074991 13.216606 -0.58016157
-10.51059 17.134054 -0.58487713
-14.953113 24.376123 -0.5942663
-25.843832 42.129852 -0.61619425
-1.1237986 1.7824351 -0.56460297
-1.163705 1.8457298 -0.56525856
-1.2090538 1.9176565 -0.56722343
-1.2468022 1.9775287 -0.56432962
-1.2935086 2.051609 -0.56418043
-1.3480874 2.1381752 -0.56588346
-1.4094296 2.2354689 -0.56861079
-1.4693428 2.3304961 -0.56886667
-1.524766 2.4184017 -0.56559205
-1.5986047 2.5355158 -0.56713688
-1.6727971 2.6531909 -0.56649894
-1.7634006 2.7968953 -0.56884789
-1.8572085 2.9456823 -0.56935269
-1.9511166 3.0946281 -0.56696546
-2.069247 3.2819922 -0.5683139
-2.1853511 3.4661429 -0.56545734
-2.3440869 3.7179108 -0.56934756
-2.5025458 3.9692392 -0.56822449
-2.6950784 4.2746115 -0.5693683
-2.9120109 4.6186838 -0.56928498
-3.1678596 5.0244803 -0.56944185
-3.4778426 5.5161386 -0.57051092
-3.856586 6.1168561 -0.57212478
-4.3115225 6.8384218 -0.57204896
-4.9005775 7.7727103 -0.57349789
-5.6713514 8.9952202 -0.57502013
-6.739975 10.690143 -0.57807469
-8.2738409 13.122978 -0.58047378
-10.742537 17.03853 -0.58608121
-15.268321 24.216787 -0.5949139
-26.410404 41.88903 -0.6173752
-1.1457368 1.768648 -0.56465578
-1.186911 1.8322077 -0.56554431
-1.2287574 1.8968049 -0.5654822
-1.2813044 1.9779207 -0.56889468
-1.3305197 2.0538933 -0.56926471
-1.3796771 2.1297762 -0.5681076
-1.4365156 2.2175167 -0.5684945
-1.4927518 2.3043272 -0.56691664
-1.5531285 2.3975294 -0.56513441
-1.6307536 2.5173576 -0.5675177
-1.7097694 2.6393325 -0.56798595
-1.793672 2.768851 -0.56758702
-1.8912792 2.9195249 -0.56874895
-2.000561 3.0882208 -0.5702554
-2.1105793 3.2580538 -0.56861967
-2.2367332 3.4527946 -0.56772375
-2.3842337 3.6804879 -0.56806344
-2.5578408 3.9484813 -0.5697124
-2.7568755 4.2557268 -0.57132506
-2.9712288 4.5866189 -0.56979293
-3.2329218 4.9905882 -0.57006305
-3.5405993 5.4655433 -0.56973785
-3.9286084 6.0645041 -0.57170331
-4.4026656 6.7962952 -0.57301039
-4.9974327 7.7144237 -0.57368797
-5.779129 8.9211111 -0.57478189
-6.8690228 10.603556 -0.5779162
-8.443203 13.033582 -0.58106792
-10.953081 16.908024 -0.58618063
-15.566222 24.029226 -0.59496349
-26.968853 41.63121 -0.61841613
-1.1711668 1.7600929 -0.56647938
-1.2006087 1.8043399 -0.56145686
-1.2563199 1.8880655 -0.56743938
-1.2986333 1.9516565 -0.56589067
-1.3430489 2.0184066 -0.56396371
-1.3958542 2.0977654 -0.56410462
-1.4605629 2.195013 -0.56728673
-1.518993 2.2828248 -0.56617904
-1.5796676 2.3740101 -0.56412649
-1.6654897 2.5029879 -0.56885213
-1.7473541 2.6260183 -0.56970155
-1.827705 2.746774 -0.56762558
-1.9208214 2.8867145 -0.56691557
-2.0402458 3.0661919 -0.57077712
-2.1537077 3.2367086 -0.56947333
-2.2831771 3.4312823 -0.56875986
-2.4318883 3.6547732 -0.56866699
-2.6013961 3.9095187 -0.56866306
-2.798619 4.2059159 -0.56921494
-3.0289559 4.5520792 -0.57008594
-3.2950943 4.9520459 -0.57024556
-3.6161373 5.4345269 -0.57109666
-4.0006967 6.0124636 -0.57139182
-4.4828148 6.7370167 -0.5726167
-5.0913734 7.6515918 -0.57362783
-5.8956842 8.8603535 -0.57549471
-7.001204 10.521789 -0.57810807
-8.6023684 12.928104 -0.5810374
-11.160284 16.77228 -0.58618784
-15.890191 23.880638 -0.59607732
-27.531647 41.376049 -0.61960787
-1.191645 1.743987 -0.56596899
-1.2328588 1.8043039 -0.56612015
-1.2840785 1.8792646 -0.56949669
-1.3172734 1.9278457 -0.56364065
-1.3796889 2.0191915 -0.56888032
-1.4346535 2.099633 -0.56930768
-1.4900591 2.1807196 -0.56828511
-1.5534298 2.2734635 -0.56855184
-1.6181713 2.3682134 -0.56743437
-1.6873969 2.4695258 -0.56592005
-1.7695253 2.5897219 -0.5665049
-1.8598861 2.721966 -0.56718218
-1.9593822 2.8675799 -0.56784648
-2.0634587 3.019897 -0.56683969
-2.1927755 3.2091537 -0.56932616
-2.3149371 3.3879387 -0.56625092
-2.4791999 3.6283393 -0.56925434
-2.6546936 3.8851767 -0.56982744
-2.8446937 4.1632438 -0.56813097
-3.0802815 4.5080295 -0.56926984
-3.3592384 4.9162865 -0.57084125
-3.6890686 5.3989968 -0.57208663
-4.082551 5.9748631 -0.57254601
-4.5675912 6.6847258 -0.57290268
-5.1885366 7.5934868 -0.57401145
-6.0119553 8.7985706 -0.57623982
-7.1334558 10.439899 -0.57838458
-8.7712173 12.836784 -0.58173656
-11.381182 16.6565 -0.58698815
-16.193272 23.699051 -0.59646988
-28.091543 41.112316 -0.62078434
-1.2035037 1.7156683 -0.56153899
-1.2524732 1.7854774 -0.56500268
-1.3057476 1.8614233 -0.56891268
-1.3485698 1.9224688 -0.56687397
-1.4040127 2.0015061 -0.56871873
-1.4517332 2.0695348 -0.56594414
-1.5085125 2.1504769 -0.56519514
-1.5808808 2.2536423 -0.56841338
-1.6427001 2.3417697 -0.56589544
-1.71687 2.4475033 -0.56566852
-1.7981821 2.5634189 -0.56554514
-1.898276 2.7061088 -0.56869882
-1.9880134 2.8340349 -0.56600183
-2.110944 3.0092802 -0.56967604
-2.2296181 3.178457 -0.56870127
-2.3719831 3.3814075 -0.56999105
-2.5241678 3.5983558 -0.56937683
-2.7039838 3.8546948 -0.57019025
-2.9034882 4.1391006 -0.56966531
-3.137089 4.4721127 -0.56956249
-3.417623 4.8720312 -0.57053906
-3.7423704 5.3349786 -0.57013619
-4.1526132 5.9198046 -0.57211983
-4.6517262 6.6313205 -0.57318461
-5.2937655 7.546587 -0.57534331
-6.1157975 8.7184439 -0.57587385
-7.2605281 10.350328 -0.57832462
-8.9302654 12.73064 -0.58185875
-11.591743 16.52474 -0.58732361
-16.504339 23.527946 -0.59722608
-28.651423 40.84436 -0.62201107
-1.2323413 1.7116209 -0.56513131
-1.2830867 1.7821021 -0.56888425
-1.3211488 1.8349671 -0.56574923
-1.3771563 1.912757 -0.56896061
-1.4231278 1.9766077 -0.5665735
-1.4798 2.055321 -0.56699032
-1.5420376 2.1417637 -0.5678457
-1.5990895 2.2210042 -0.56509811
-1.668107 2.3168638 -0.5647909
-1.7535332 2.4355137 -0.56783807
-1.8383691 2.553344 -0.56826669
-1.9342929 2.6865742 -0.56954902
-2.0328803 2.823504 -0.56884801
-2.1453598 2.9797287 -0.56903267
-2.2625082 3.1424382 -0.56719154
-2.4069743 3.3430898 -0.56847817
-2.5653856 3.5631104 -0.5687483
-2.7530296 3.8237324 -0.57057464
-2.9552608 4.1046147 -0.56987733
-3.1956348 4.4384747 -0.57023984
-3.4805202 4.834157 -0.57107258
-3.8097003 5.2913609 -0.57043809
-4.2101259 5.8475199 -0.57009405
-4.7432323 6.5879607 -0.5744347
-5.3717093 7.4608636 -0.57380033
-6.2265606 8.6481819 -0.57624656
-7.3994222 10.27719 -0.57927817
-9.0976 12.63582 -0.58259392
-11.804163 16.395014 -0.58782732
-16.810957 23.349041 -0.59788686
-29.207121 40.566296 -0.62319869
-1.2593229 1.7045002 -0.56785011
-1.3053325 1.7667745 -0.56907213
-1.3541123 1.832798 -0.57017106
-1.3964297 1.8900748 -0.56727844
-1.4451002 1.9559506 -0.56570309
-1.5024611 2.0335889 -0.56604904
-1.5648013 2.1179669 -0.56659514
-1.6343398 2.2120876 -0.5678997
-1.7099181 2.314383 -0.5692687
-1.7815348 2.4113166 -0.56726116
-1.873961 2.5364161 -0.56958461
-1.9539058 2.6446218 -0.5657059
-2.0666006 2.7971547 -0.56861609
-2.1823177 2.9537785 -0.56915855
-2.3058848 3.1210272 -0.56840181
-2.4503958 3.3166237 -0.56905836
-2.6087563 3.5309656 -0.56869471
-2.8057868 3.7976472 -0.57178724
-3.0091405 4.0728874 -0.57056653
-3.2443109 4.391192 -0.56924748
-3.530046 4.777936 -0.56951571
-3.8842528 5.2573566 -0.57187808
-4.2997108 5.8196812 -0.57249129
-4.81216 6.5132837 -0.57303947
-5.4753308 7.4108891 -0.57509142
-6.3404918 8.5818892 -0.57698077
-7.5231309 10.182597 -0.57911682
-9.250803 12.52101 -0.58250111
-12.013549 16.260401 -0.58825296
-17.115915 23.166481 -0.5985561
-29.748791 40.265144 -0.62414479
-1.2761688 1.6835884 -0.56606847
-1.3201909 1.7416645 -0.56617033
-1.3678812 1.8045801 -0.56658238
-1.4266303 1.882085 -0.57010245
-1.4712344 1.9409291 -0.56654799
-1.5308378 2.0195608 -0.56734109
-1.5866239 2.0931568 -0.56513453
-1.6545038 2.1827075 -0.56553733
-1.7315328 2.2843282 -0.56707036
-1.808758 2.3862076 -0.5665437
-1.8978235 2.5037074 -0.56743711
-2.0022078 2.6414168 -0.57024366
-2.0995498 2.7698352 -0.56826776
-2.2070527 2.9116588 -0.5662291
-2.3518853 3.1027296 -0.57029325
-2.4802082 3.2720196 -0.5665952
-2.6570075 3.5052624 -0.56977403
-2.8377821 3.7437499 -0.56888312
-3.0614238 4.0387897 -0.57102019
-3.3098164 4.3664818 -0.57127696
-3.6076527 4.7594032 -0.57255113
-3.9454963 5.2051039 -0.57142836
-4.3666973 5.7607746 -0.57193536
-4.9041891 6.469861 -0.57448131
-5.5617228 7.3373141 -0.57464552
-6.4495697 8.5086079 -0.57734221
-7.6475606 10.08906 -0.5791015
-9.412076 12.416901 -0.58299786
-12.216341 16.116434 -0.58843458
-17.416338 22.97654 -0.59913659
-30.292524 39.963474 -0.62519526
-1.2961725 1.6669976 -0.56580627
-1.3477564 1.7333393 -0.56880832
-1.3881193 1.7852497 -0.56582963
-1.4384409 1.849968 -0.56568891
-1.4992599 1.9281869 -0.56816691
-1.5487949 1.9918933 -0.56487602
-1.6196288 2.0829923 -0.56772429
-1.6856232 2.1678672 -0.56701976
-1.7595694 2.2629688 -0.56709629
-1.8329701 2.3573689 -0.56500524
-1.932556 2.4854457 -0.56864107
-2.0263541 2.6060784 -0.5679509
-2.1289933 2.7380819 -0.56708127
-2.258986 2.9052646 -0.57034445
-2.3796365 3.0604322 -0.56785423
-2.5245194 3.2467654 -0.56755465
-2.6983581 3.4703379 -0.56944746
-2.8901055 3.7169425 -0.57016677
-3.1081002 3.9973042 -0.57051522
-3.3617983 4.3235831 -0.57102966
-3.6490309 4.6929908 -0.56991655
-4.0096726 5.1568093 -0.57149607
-4.4450464 5.7167401 -0.57294679
-4.97296 6.3956861 -0.57328135
-5.6561098 7.2742796 -0.5751124
-6.551723 8.4261208 -0.57716805
-7.7767925 10.001674 -0.57953072
-9.5765047 12.31627 -0.58375788
-12.422206 15.976105 -0.58884358
-17.714457 22.782427 -0.59970957
-30.827681 39.647243 -0.62613106
-1.328262 1.6655942 -0.57083052
-1.3558431 1.7001801 -0.56335539
-1.4124862 1.7712085 -0.56684136
-1.468071 1.84091 -0.56839621
-1.5195782 1.9054981 -0.56694448
-1.5794035 1.980517 -0.56711453
-1.6501467 2.0692265 -0.56945974
-1.7075855 2.1412528 -0.56550777
-1.7954515 2.2514338 -0.56969517
-1.8729023 2.3485541 -0.56836939
-1.9684572 2.4683769 -0.57023066
-2.0574806 2.580009 -0.56774026
-2.167825 2.7183771 -0.56847811
-2.2906468 2.8723915 -0.56937748
-2.417654 3.0316541 -0.56798762
-2.5737906 3.2274437 -0.56966639
-2.7360482 3.4309094 -0.56845528
-2.9286284 3.6723981 -0.56881487
-3.1620188 3.9650614 -0.57141954
-3.4084053 4.2740216 -0.56997621
-3.7187059 4.6631279 -0.57179987
-4.0831075 5.1200747 -0.57294595
-4.5137229 5.6600513 -0.57278466
-5.0579395 6.3424807 -0.57404375
-5.7438288 7.2025614 -0.57498276
-6.6608109 8.3524256 -0.57768667
-7.9063778 9.9143229 -0.58005875
-9.7134066 12.180274 -0.58292913
-12.630418 15.838105 -0.58943701
-18.019512 22.59584 -0.60058522
-31.380026 39.349461 -0.62747461
-1.3413603 1.6402339 -0.5677489
-1.3900058 1.6997182 -0.56882286
-1.4302887 1.7489767 -0.56531233
-1.4798963 1.8096377 -0.56431657
-1.5522174 1.8980727 -0.57037091
-1.606763 1.964772 -0.56822056
-1.654754 2.0234561 -0.56242073
-1.7382578 2.1255655 -0.56696689
-1.8120831 2.2158403 -0.56628412
-1.9073342 2.3323145 -0.57007211
-1.990413 2.4339042 -0.56787813
-2.081567 2.5453689 -0.56570727
-2.191838 2.6802096 -0.56608981
-2.3160293 2.8320725 -0.56698769
-2.452693 2.9991868 -0.56751233
-2.609 3.190321 -0.56873357
-2.7788668 3.3980365 -0.56862724
-2.9822645 3.646754 -0.57047969
-3.1963398 3.9085286 -0.56889355
-3.462764 4.2343154 -0.57031631
-3.7799652 4.6221933 -0.57243663
-4.1351132 5.0564737 -0.57147551
-4.5848908 5.6064672 -0.57302409
-5.1360626 6.280448 -0.57410198
-5.836812 7.1373339 -0.57546175
-6.7683787 8.2764664 -0.57814568
-8.0163355 9.8024855 -0.57923889
-9.8752584 12.075602 -0.58368701
-12.82412 15.68151 -0.58943325
-18.305576 22.384312 -0.60090029
-31.918009 39.029781 -0.62858796
-1.3593758 1.6211716 -0.56689376
-1.4065583 1.6774405 -0.56711268
-1.4565248 1.7370299 -0.56719697
-1.5122882 1.8035326 -0.5681687
-1.5712808 1.8738863 -0.56886595
-1.6371918 1.9524907 -0.5704478
-1.6912763 2.0169911 -0.56636149
-1.7577296 2.0962424 -0.56486785
-1.8447964 2.2000771 -0.56800997
-1.9274273 2.2986214 -0.56758678
-2.0204394 2.4095461 -0.56794864
-2.1181757 2.5261052 -0.56717175
-2.2356524 2.6662061 -0.56889546
-2.3607419 2.8153858 -0.56941557
-2.4884706 2.9677131 -0.56730402
-2.6562078 3.1677542 -0.57049012
-2.8184569 3.3612499 -0.56822795
-3.0274768 3.6105242 -0.57059258
-3.2554889 3.8824477 -0.57088089
-3.5197976 4.1976585 -0.57116532
-3.8327682 4.5709023 -0.57187802
-4.1975303 5.0059128 -0.57155144
-4.6520319 5.5479445 -0.57284594
-5.2145162 6.2187552 -0.57428044
-5.9279404 7.0695744 -0.57583207
-6.8635831 8.1854076 -0.57763672
-8.1519518 9.7218971 -0.5803563
-10.03362 11.965947 -0.58430618
-13.039352 15.550539 -0.59049243
-18.604351 22.187275 -0.60170668
-32.446911 38.695709 -0.62958574
-1.3757685 1.600336 -0.56548077
-1.4272537 1.660225 -0.56718296
-1.4699008 1.7098334 -0.56417567
-1.5299765 1.7797152 -0.56654942
-1.589022 1.8483989 -0.56701738
-1.6529931 1.9228119 -0.56767231
-1.7263923 2.0081921 -0.56980848
-1.800736 2.0946708 -0.57036799
-1.8673364 2.1721425 -0.56668329
-1.957404 2.276912 -0.5681265
-2.0481112 2.3824253 -0.56744933
-2.1535428 2.5050666 -0.56835073
-2.2710514 2.6417561 -0.56959403
-2.3879972 2.777791 -0.56770796
-2.5328541 2.9462931 -0.56912005
-2.6926768 3.1322036 -0.57000756
-2.8703156 3.3388386 -0.57036275
-3.0710731 3.5723658 -0.57048702
-3.2986469 3.8370864 -0.57013208
-3.5693364 4.1519608 -0.57087618
-3.8879979 4.5226374 -0.5717777
-4.2530804 4.9473124 -0.57078874
-4.7243204 5.4954734 -0.57338297
-5.2919788 6.1557908 -0.57443172
-6.0160007 6.9979954 -0.5759837
-6.9663467 8.103467 -0.57785553
-8.2775822 9.6287355 -0.58082718
-10.188333 11.851378 -0.58478504
-13.232511 15.39246 -0.59062374
-18.891327 21.974966 -0.60220319
-32.978523 38.361622 -0.63070029
-1.4154512 1.6061176 -0.57363045
-1.4482383 1.6433212 -0.56744903
-1.4936118 1.6948067 -0.56523484
-1.5480844 1.756617 -0.56521356
-1.6167247 1.8345033 -0.56881016
-1.6708132 1.8958777 -0.56574333
-1.7423875 1.9770935 -0.56702089
-1.8195342 2.0646319 -0.5682379
-1.8897387 2.1442933 -0.56543732
-1.9756737 2.2418041 -0.56538546
-2.0854957 2.3664196 -0.56970197
-2.1878796 2.4825947 -0.56931311
-2.2993948 2.6091318 -0.56861317
-2.4166756 2.7422104 -0.56646663
-2.55778 2.9023221 -0.56665891
-2.7362275 3.1048071 -0.57110167
-2.9112675 3.3034258 -0.57038552
-3.1145415 3.5340815 -0.57044607
-3.3403571 3.7903154 -0.5692426
-3.6243353 4.1125464 -0.57154143
-3.9487798 4.4806948 -0.5725705
-4.3309255 4.9143167 -0.5730828
-4.785912 5.4305916 -0.57271034
-5.3711405 6.0946522 -0.57484621
-6.1135721 6.9370923 -0.57711482
-7.0643482 8.0159416 -0.57776493
-8.3886127 9.518589 -0.58036125
-10.340073 11.732917 -0.58516937
-13.421818 15.229785 -0.59066987
-19.175564 21.758581 -0.60268945
-33.508041 38.021694 -0.63183802
-1.4212384 1.5732567 -0.56809282
-1.4662414 1.6230733 -0.5666402
-1.5214082 1.6841408 -0.56787401
-1.574724 1.7431593 -0.56707096
-1.6385436 1.8138052 -0.56859672
-1.704074 1.8863449 -0.56910849
-1.7671999 1.9562229 -0.56722462
-1.84259 2.0396769 -0.56756258
-1.9173871 2.1224744 -0.56585813
-2.0138342 2.2292376 -0.5684185
-2.1196749 2.3463993 -0.57111394
-2.2084682 2.4446902 -0.56680548
-2.3298256 2.5790281 -0.5682531
-2.458914 2.7219241 -0.568479
-2.6054776 2.8841643 -0.56932592
-2.7623277 3.0577915 -0.56865847
-2.9495709 3.2650623 -0.56998086
-3.1537478 3.4910786 -0.5697214
-3.3953304 3.7585013 -0.57069176
-3.6706433 4.063262 -0.57092172
-4.00703 4.4356294 -0.57306474
-4.3902445 4.8598332 -0.57298124
-4.866662 5.3872094 -0.57440287
-5.4454536 6.0279093 -0.5748232
-6.1915798 6.8538423 -0.57647932
-7.168653 7.9354253 -0.57827139
-8.5131979 9.4237852 -0.58091968
-10.474287 11.594637 -0.58465219
-13.62634 15.083838 -0.59146327
-19.472233 21.555017 -0.60363758
-34.025852 37.665321 -0.63282084
-1.4418317 1.5571281 -0.56862789
-1.4912198 1.6104655 -0.56859732
-1.5422758 1.6656041 -0.56797534
-1.5954624 1.7230439 -0.56686646
-1.6514847 1.783546 -0.56543428
-1.7249012 1.8628333 -0.56837118
-1.7965014 1.940159 -0.56892908
-1.8538024 2.0020421 -0.56339073
-1.9489515 2.1047997 -0.56749237
-2.0373981 2.2003191 -0.56738991
-2.1440964 2.3155496 -0.56997919
-2.2313859 2.4098191 -0.5650394
-2.3677006 2.5570343 -0.56977892
-2.4933398 2.6927202 -0.56873995
-2.6401532 2.8512735 -0.56919879
-2.8031015 3.0272522 -0.56934613
-2.988636 3.227623 -0.56981736
-3.2048023 3.4610751 -0.57121289
-3.4462798 3.7218621 -0.57151979
-3.7176948 4.0149808 -0.57051796
-4.0500789 4.3739443 -0.57148623
-4.4539938 4.8101587 -0.57353848
-4.9203963 5.3138566 -0.57298952
