# .PCD v0.7 - Point Cloud Data file format
VERSION 0.7
FIELDS x y z
SIZE 4 4 4
TYPE F F F
COUNT 1 1 1
WIDTH 1440
HEIGHT 1
VIEWPOINT 0 0 0 1 0 0 0
POINTS 1440
DATA ascii
0.17606491 2.7235923 -0.56354952
0.18357229 2.839726 -0.56296211
0.19119284 2.9576101 -0.56077725
0.20101753 3.1095908 -0.56280982
0.21091998 3.2627742 -0.56251597
0.22305083 3.4504294 -0.56532282
0.2344178 3.6262679 -0.56316537
0.24849412 3.8440182 -0.56424016
0.26321813 4.0717874 -0.56307518
0.27925795 4.3199115 -0.56076545
0.29954249 4.6336985 -0.56230026
0.32264921 4.9911418 -0.56353956
0.34865239 5.3933916 -0.56350958
0.37842315 5.8539228 -0.56238413
0.41591656 6.433918 -0.56406897
0.45999172 7.1157279 -0.56416959
0.51244825 7.9271913 -0.56211418
0.58104098 8.9882689 -0.56216431
0.67082709 10.377193 -0.56231415
0.79305375 12.267948 -0.56234163
0.9690814 14.990964 -0.56209224
1.2456418 19.269146 -0.56184435
1.7408797 26.930105 -0.56079423
2.8916337 44.731407 -0.55884236
0.1104266 2.1111522 -0.56645399
0.11406362 2.1806853 -0.5657019
0.11815167 2.2588413 -0.56595862
0.1224381 2.3407898 -0.56583279
0.12604779 2.4098005 -0.56133246
0.13117675 2.5078568 -0.56221449
0.13690896 2.6174459 -0.56394893
0.14296229 2.7331746 -0.56512576
0.14936022 2.8554912 -0.56568062
0.15501988 2.9636931 -0.56152672
0.16251257 3.1069393 -0.56192583
0.17067489 3.2629879 -0.56214845
0.17965904 3.4347482 -0.56234914
0.18961321 3.6250536 -0.56257212
0.20111595 3.8449647 -0.56397349
0.21356358 4.0829401 -0.56421167
0.22695418 4.338944 -0.56283122
0.24292783 4.6443305 -0.56318539
0.26172924 5.0037789 -0.56456035
0.28194237 5.3902159 -0.56277299
0.30657741 5.8611927 -0.56267786
0.33618382 6.4272122 -0.56307608
0.37125459 7.0977006 -0.56233585
0.4155913 7.9453363 -0.56299591
0.47120619 9.0085897 -0.5630303
0.5442704 10.405442 -0.56343961
0.64245141 12.282481 -0.56260318
0.78557998 15.018835 -0.56273252
1.0088904 19.288118 -0.5619933
1.4109535 26.974819 -0.56132162
2.3459463 44.850151 -0.55992311
0.084064469 2.1024458 -0.56379795
0.08683823 2.1718175 -0.56308186
0.090288192 2.2581007 -0.56545216
0.093312204 2.3337309 -0.56380647
0.097187601 2.4306543 -0.56586897
0.10048558 2.5131366 -0.56307858
0.10487367 2.6228824 -0.56479973
0.10913154 2.7293713 -0.56401932
0.11366252 2.8426907 -0.56282538
0.11919534 2.9810662 -0.56449801
0.12464903 3.1174626 -0.56350923
0.13049793 3.2637432 -0.56195968
0.1378209 3.4468901 -0.56401694
0.14535676 3.6353614 -0.56385177
0.15337561 3.8359122 -0.56232655
0.16356666 4.0907893 -0.56497568
0.17426226 4.3582854 -0.56501943
0.1857511 4.6456208 -0.56302232
0.19963466 4.992847 -0.56300741
0.21595217 5.4009471 -0.56357354
0.23477705 5.8717556 -0.56337219
0.25745532 6.4389372 -0.56378329
0.28434253 7.1113844 -0.5631004
0.31817281 7.9574771 -0.56353635
0.36039925 9.0135574 -0.56302124
0.41607541 10.406013 -0.56315094
0.49150774 12.29257 -0.56274593
0.60117984 15.03546 -0.56303591
0.7725336 19.321005 -0.5626322
1.0814493 27.046963 -0.56250364
1.7975944 44.957695 -0.56094736
0.057722516 2.085799 -0.55910128
0.060115874 2.1722829 -0.56296831
0.062562898 2.2607059 -0.56586909
0.064619832 2.3350332 -0.56388652
0.066739291 2.4116197 -0.56120414
0.069669425 2.5174997 -0.56382161
0.072564073 2.6220977 -0.56439602
0.075539209 2.729604 -0.56383282
0.079019964 2.855381 -0.56510288
0.082113653 2.967171 -0.56163311
0.086296804 3.118329 -0.56343144
0.090720363 3.2781739 -0.56420964
0.095198102 3.4399767 -0.56265163
0.10055964 3.6337154 -0.56336212
0.10658336 3.851382 -0.56435955
0.11252145 4.0659547 -0.56131226
0.12023959 4.3448491 -0.5630433
0.12886627 4.6565738 -0.56411505
0.13838498 5.0005317 -0.56363946
0.14963987 5.4072266 -0.56399417
0.16279216 5.8824835 -0.56416678
0.17838296 6.4458561 -0.56415439
0.19714406 7.1237864 -0.5638479
0.22019501 7.9567313 -0.56324923
0.24976136 9.0251093 -0.56350839
0.28853419 10.426163 -0.56400675
0.34074825 12.312914 -0.56344283
0.41612726 15.03673 -0.56284928
0.53558224 19.353228 -0.56333613
0.74956352 27.085426 -0.56306928
1.2471915 45.067181 -0.56207961
0.032464277 2.1118615 -0.56593758
0.033364199 2.1704032 -0.56233233
0.034637 2.253201 -0.56384134
0.036013547 2.3427482 -0.56559992
0.036912311 2.4012144 -0.55863482
0.038563568 2.5086317 -0.56168681
0.040216994 2.6161902 -0.56297541
0.04180821 2.7197015 -0.56163871
0.04380865 2.849834 -0.56385583
0.045880135 2.9845879 -0.56478035
0.047837604 3.1119249 -0.56212556
0.050137501 3.2615376 -0.56119782
0.052827213 3.4365082 -0.56193554
0.055795595 3.6296072 -0.56257629
0.059245456 3.8540268 -0.56459767
0.062830046 4.0872111 -0.5640974
0.066832975 4.347609 -0.56325191
0.071589969 4.6570601 -0.56402475
0.076889165 5.0017829 -0.5636313
0.083122835 5.4072948 -0.56385207
0.090342239 5.8769302 -0.56348503
0.099116482 6.447711 -0.56416744
0.10957578 7.1281075 -0.5640406
0.12225462 7.9528899 -0.5628283
0.13909307 9.0482626 -0.56480449
0.16013442 10.417041 -0.56336421
0.18944055 12.32346 -0.56377614
0.23153554 15.061817 -0.56363916
0.297555 19.356504 -0.56328249
0.41697413 27.124941 -0.56374156
0.69453692 45.180916 -0.56334901
0.0064602899 2.1007028 -0.56288344
0.0066842884 2.1735406 -0.56308138
0.0068957945 2.2423165 -0.56105399
0.0072146636 2.3460038 -0.56632167
0.0074332864 2.4170935 -0.56226534
0.0077793477 2.529623 -0.56632257
0.0080840997 2.6287196 -0.56560743
0.0083969366 2.7304451 -0.56379342
0.008781231 2.855407 -0.56489444
0.0091785593 2.9846067 -0.56471986
0.0095996335 3.1215284 -0.56379634
0.010083018 3.2787111 -0.56408882
0.010573488 3.4381981 -0.56214809
0.011175994 3.6341157 -0.5632112
0.011855496 3.8550706 -0.56468648
0.012541318 4.0780807 -0.56277347
0.013364708 4.3458233 -0.56295669
0.0142651 4.6386056 -0.56172597
0.015316194 4.980391 -0.56115711
0.016604809 5.3994122 -0.56296623
0.018127866 5.8946671 -0.56512153
0.019790903 6.4354396 -0.56302983
0.02191777 7.1270366 -0.56389189
0.024501648 7.9672403 -0.56377995
0.027838813 9.052392 -0.56499821
0.03205695 10.42401 -0.56367713
0.03789651 12.322868 -0.56368518
0.046346936 15.070708 -0.56390792
0.05962177 19.387306 -0.56411481
0.083513059 27.156075 -0.56432462
0.13924122 45.277287 -0.56448662
-0.019446431 2.1089692 -0.56511974
-0.019993208 2.1682673 -0.5617364
-0.02068723 2.2435341 -0.56137979
-0.02155941 2.3381219 -0.56444031
-0.022509588 2.441169 -0.56788725
-0.023177642 2.5136197 -0.56276107
-0.024108639 2.6145866 -0.56258774
-0.02521972 2.7350833 -0.56477243
-0.02630269 2.8525317 -0.56434691
-0.027472215 2.979367 -0.56374973
-0.028878519 3.131881 -0.56568754
-0.030178219 3.2728336 -0.56309885
-0.031797543 3.4484496 -0.56384557
-0.033587579 3.6425796 -0.56454426
-0.035514161 3.8515174 -0.56418735
-0.037591849 4.0768433 -0.56262392
-0.040222824 4.3621731 -0.56509596
-0.042806134 4.642333 -0.56219858
-0.046247017 5.0154977 -0.56513405
-0.049767569 5.3973022 -0.56276751
-0.054340582 5.8932467 -0.56500673
-0.059313897 6.4326034 -0.56280297
-0.065741181 7.1296434 -0.56411946
-0.073456995 7.9664254 -0.56374359
-0.083274215 9.031105 -0.5636909
-0.096209109 10.433896 -0.56423306
-0.11366113 12.326571 -0.56387585
-0.13916403 15.092365 -0.56473964
-0.17887598 19.399134 -0.5644803
-0.25081086 27.200487 -0.56526887
-0.41826087 45.36047 -0.56554508
-0.045146547 2.097914 -0.56226361
-0.04680229 2.1748545 -0.56354952
-0.047925346 2.2270417 -0.55735838
-0.050195187 2.3325191 -0.56319416
-0.052444287 2.4370322 -0.56703204
-0.054392774 2.5275764 -0.56599277
-0.056371629 2.6195319 -0.56375837
-0.058869865 2.7356224 -0.56499046
-0.061270699 2.8471868 -0.56339592
-0.064256378 2.9859281 -0.56509799
-0.067459747 3.1347854 -0.56631917
-0.070432536 3.2729278 -0.56322151
-0.074388802 3.4567714 -0.56531304
-0.078313366 3.6391418 -0.56411809
-0.0825468 3.8358653 -0.56200075
-0.088070109 4.0925279 -0.56489521
-0.093334325 4.3371506 -0.56196064
-0.10033671 4.6625438 -0.56475288
-0.10742749 4.9920454 -0.56259781
-0.11660898 5.4186997 -0.56510538
-0.12690209 5.8970098 -0.56547433
-0.13863103 6.4420424 -0.56373531
-0.15359795 7.1375399 -0.56485099
-0.17164178 7.976018 -0.56452906
-0.19455768 9.0408964 -0.56440872
-0.22405197 10.411466 -0.5631265
-0.26531255 12.328802 -0.56408453
-0.32461089 15.084336 -0.56454587
-0.417869 19.417944 -0.56513447
-0.58558553 27.211561 -0.56560588
-0.97798443 45.445934 -0.56671768
-0.071278408 2.1072602 -0.56496072
-0.073662244 2.1777356 -0.56448805
-0.076190449 2.2524788 -0.56391639
-0.078727216 2.3274753 -0.56216758
-0.082048729 2.4256721 -0.56458086
-0.084938839 2.5111146 -0.56249785
-0.088396803 2.6133451 -0.56261832
-0.092344686 2.7300594 -0.56403345
-0.096195109 2.8438926 -0.56293559
-0.10085203 2.9815688 -0.56446505
-0.10558058 3.1213629 -0.5640862
-0.11110421 3.2846622 -0.5654332
-0.1167748 3.4523063 -0.56477499
-0.12266508 3.6264455 -0.56234127
-0.13045821 3.8568397 -0.56526607
-0.13824727 4.0871139 -0.56433994
-0.14710099 4.3488636 -0.56367004
-0.15768518 4.6617723 -0.56485158
-0.16950312 5.0111561 -0.56494373
-0.18337697 5.4213195 -0.56557095
-0.19891413 5.8806567 -0.56409812
-0.21791175 6.4422989 -0.56394958
-0.24078517 7.1185236 -0.56353778
-0.26991841 7.9798131 -0.56498992
-0.30642787 9.0591707 -0.56574202
-0.3531709 10.441072 -0.56492007
-0.41761729 12.346352 -0.56507969
-0.51098704 15.106717 -0.5655759
-0.65688664 19.420063 -0.56538844
-0.92074639 27.220758 -0.56598961
-1.539529 45.51432 -0.56776363
-0.096742094 2.0966704 -0.56239802
-0.10037883 2.1754887 -0.56418294
-0.10369816 2.2474277 -0.56292844
-0.10706846 2.3204715 -0.56075156
-0.11206398 2.4287386 -0.56557262
-0.11669158 2.5290315 -0.56678987
-0.12031217 2.6074998 -0.56163591
-0.12617494 2.7345622 -0.56524152
-0.13128659 2.845346 -0.56350023
-0.13728799 2.9754128 -0.56357658
-0.14397936 3.1204336 -0.56419557
-0.15141615 3.2816098 -0.56518549
-0.15872242 3.4399569 -0.56303144
-0.16828682 3.647244 -0.56584454
-0.17768702 3.8509724 -0.56468368
-0.18813282 4.0773621 -0.56327027
-0.20029493 4.3409491 -0.56292087
-0.21459816 4.6509399 -0.56381613
-0.23139012 5.0148683 -0.56564027
-0.25013924 5.4212136 -0.56583804
-0.2712439 5.8786106 -0.56417912
-0.29739615 6.4454026 -0.56449872
-0.32885128 7.1271234 -0.56449604
-0.3672353 7.9590116 -0.5637942
-0.41758156 9.0501547 -0.56545687
-0.48228356 10.452428 -0.56581253
-0.5694474 12.341511 -0.5651359
-0.69646609 15.09436 -0.56539118
-0.89626616 19.424583 -0.5657981
-1.2577732 27.259447 -0.56707281
-2.1041822 45.603485 -0.56915563
-0.12261702 2.0970762 -0.56286871
-0.12673956 2.1675825 -0.56249428
-0.13218059 2.2606387 -0.56660181
-0.13573657 2.3214555 -0.56135017
-0.14153822 2.4206789 -0.56405842
-0.14723639 2.5181329 -0.56471038
-0.15337874 2.6231833 -0.56537753
-0.15916231 2.7220976 -0.56302708
-0.16684739 2.853533 -0.56548518
-0.17373091 2.9712594 -0.5631519
-0.18215881 3.1153989 -0.56364763
-0.19185014 3.2811463 -0.56546921
-0.20033248 3.4262168 -0.56114328
-0.2117365 3.6212559 -0.56217408
-0.22439171 3.8376935 -0.56309855
-0.23878616 4.0838766 -0.56453317
-0.25403866 4.3447347 -0.56377423
-0.27176216 4.6478539 -0.56380451
-0.29323438 5.0150857 -0.56602871
-0.31630903 5.4097238 -0.56500202
-0.34361303 5.8766942 -0.56435806
-0.37670216 6.442606 -0.5646168
-0.41619107 7.1179714 -0.56413382
-0.46659622 7.9800329 -0.56564695
-0.52902925 9.0478029 -0.56567359
-0.61015218 10.435221 -0.56524444
-0.72201413 12.348356 -0.56581312
-0.88239914 15.091366 -0.56564265
-1.1363344 19.434332 -0.5664463
-1.5950416 27.279442 -0.56785381
-2.669795 45.66058 -0.57023478
-0.14908089 2.1051316 -0.56548011
-0.15414155 2.1765916 -0.56528127
-0.15849504 2.2380662 -0.56139028
-0.16549781 2.3369503 -0.56554633
-0.17202227 2.4290807 -0.56646627
-0.17774279 2.5098586 -0.5633024
-0.1850621 2.6132126 -0.56367642
-0.19335978 2.7303817 -0.5651896
-0.2019916 2.8522694 -0.5656842
-0.21175627 2.9901538 -0.56718373
-0.22085583 3.1186464 -0.56468379
-0.23148733 3.2687709 -0.56378442
-0.24347724 3.4380772 -0.56353354
-0.25718042 3.6315761 -0.56422448
-0.27132529 3.8313122 -0.56260926
-0.28840539 4.0724959 -0.5634076
-0.30820385 4.3520641 -0.5651744
-0.32844856 4.6379347 -0.5630486
-0.35496318 5.0123405 -0.56616873
-0.38211197 5.3957014 -0.56398559
-0.41614825 5.8763185 -0.5647707
-0.45604309 6.4396629 -0.56480765
-0.50464582 7.1259689 -0.56521678
-0.56435341 7.9690843 -0.56532001
-0.63990861 9.0359793 -0.56538361
-0.73857367 10.429202 -0.56536764
-0.87381232 12.338871 -0.56582808
-1.069289 15.099144 -0.5663842
-1.3753357 19.420748 -0.56650043
-1.9315487 27.274885 -0.56821042
-3.2356102 45.68919 -0.57104582
-0.17444347 2.0970099 -0.56383204
-0.18127373 2.1791174 -0.56647336
-0.18643732 2.24119 -0.56270635
-0.19419536 2.3344502 -0.56547648
-0.20191452 2.4272435 -0.56657392
-0.20944707 2.5177934 -0.56561852
-0.21766478 2.6165795 -0.56493729
-0.2263912 2.7214811 -0.56388074
-0.23693225 2.8481965 -0.56541151
-0.24645379 2.9626565 -0.56250018
-0.25983578 3.1235232 -0.56610262
-0.27293548 3.2809966 -0.56642908
-0.28534365 3.4301567 -0.56276786
-0.3023853 3.6350172 -0.56529409
-0.31912357 3.83623 -0.56386501
-0.33869877 4.0715466 -0.56380981
-0.36159325 4.3467646 -0.5650208
-0.38624313 4.643084 -0.56420773
-0.41609246 5.0019069 -0.56552535
-0.4487893 5.3949604 -0.56444234
-0.48887745 5.8768659 -0.56535834
-0.5355885 6.438386 -0.56523055
-0.59203935 7.1169896 -0.56503928
-0.66240793 7.9629011 -0.56541651
-0.7514382 9.0331459 -0.56574172
-0.86811531 10.435739 -0.56625789
-1.0258439 12.331816 -0.56604022
-1.2554599 15.092064 -0.56665486
-1.6146542 19.40999 -0.56672293
-2.2699726 27.287666 -0.56901515
-3.8080528 45.777149 -0.57268709
-0.20130107 2.1060781 -0.56689298
-0.20738162 2.1696949 -0.5646441
-0.21405116 2.2394738 -0.56289381
-0.2205206 2.3071592 -0.55948031
-0.23279148 2.4355414 -0.56913602
-0.23999488 2.5109057 -0.56469148
-0.24971955 2.6126482 -0.56470877
-0.2599462 2.7196429 -0.56411952
-0.27171504 2.8427725 -0.56495529
-0.28516206 2.9834595 -0.56707281
-0.29881915 3.1263447 -0.56723696
-0.31301865 3.2749045 -0.56599909
-0.32738197 3.4251783 -0.56256896
-0.34620169 3.6220765 -0.56390101
-0.3661676 3.8309662 -0.56371051
-0.38921878 4.0721354 -0.56451142
-0.4142659 4.3341866 -0.56400537
-0.44344825 4.639502 -0.56439233
-0.47701144 4.9906511 -0.56487322
-0.51583368 5.3968225 -0.56525803
-0.56067419 5.8659582 -0.56492954
-0.61488593 6.4331393 -0.565391
-0.6792655 7.1066999 -0.56484276
-0.76167524 7.9688973 -0.56646448
-0.86252928 9.024066 -0.56579453
-0.99427193 10.402401 -0.56506962
-1.1770514 12.3147 -0.56587613
-1.4413131 15.079494 -0.56680548
-1.8580909 19.439959 -0.56822211
-2.6073351 27.278801 -0.5694558
-4.3784118 45.808388 -0.57370812
-0.22445635 2.0782146 -0.56009352
-0.23480195 2.1740034 -0.5664739
-0.24187762 2.239516 -0.56360936
-0.25123957 2.3261971 -0.56480336
-0.26115325 2.4179869 -0.56574154
-0.26997513 2.4996676 -0.56286806
-0.28234351 2.6141849 -0.56574851
-0.29384023 2.7206316 -0.56503135
-0.30600232 2.8332388 -0.56376582
-0.32182708 2.9797585 -0.56707871
-0.33537456 3.1051931 -0.56410491
-0.35160697 3.2554872 -0.56334782
-0.37077206 3.4329345 -0.56454909
-0.3911576 3.6216817 -0.56454575
-0.41224986 3.8169723 -0.5623548
-0.43965721 4.0707335 -0.56502384
-0.46839657 4.3368282 -0.56505591
-0.50235999 4.6512914 -0.56653517
-0.5392462 4.9928164 -0.56582606
-0.5822944 5.3913946 -0.56539667
-0.6311565 5.8438034 -0.5635007
-0.69375664 6.4234099 -0.56524295
-0.76859415 7.116322 -0.56631589
-0.85750997 7.9395828 -0.5650875
-0.97274035 9.0064869 -0.56539953
-1.1247197 10.413647 -0.56638891
-1.3303576 12.317623 -0.56671929
-1.6289617 15.082362 -0.56762332
-2.0955307 19.402269 -0.56783068
-2.9481103 27.296202 -0.57053268
-4.9478054 45.811142 -0.5744611
-0.25301486 2.1003904 -0.56686568
-0.2591365 2.1512091 -0.56132227
-0.26780739 2.2231901 -0.56028706
-0.28034425 2.3272641 -0.5658567
-0.29014996 2.4086657 -0.56435275
-0.30107462 2.4993563 -0.56358904
-0.31391805 2.6059756 -0.56476462
-0.32768044 2.7202232 -0.56574059
-0.34273547 2.845202 -0.56694198
-0.35759413 2.9685504 -0.56573969
-0.37311184 3.0973699 -0.5634746
-0.39405411 3.2712209 -0.5668661
-0.41301969 3.428663 -0.56463909
-0.43669695 3.6252186 -0.56589133
-0.46001676 3.8188066 -0.56341583
-0.48952457 4.0637646 -0.56484932
-0.52047312 4.3206825 -0.56374347
-0.55685806 4.6227303 -0.56384778
-0.60182399 4.9960122 -0.566984
-0.64730406 5.3735628 -0.56431878
-0.70580304 5.8591895 -0.56577849
-0.77250564 6.4129181 -0.56511283
-0.85567057 7.1033077 -0.56607473
-0.95778078 7.9509702 -0.56669337
-1.0852855 9.0094452 -0.5663802
-1.2532542 10.403829 -0.56665021
-1.4829261 12.310439 -0.56718487
-1.8133771 15.053662 -0.56733948
-2.3372378 19.402466 -0.56863457
-3.2870486 27.287273 -0.57114768
-5.5249491 45.865097 -0.57594609
-0.27671608 2.0812876 -0.56258589
-0.28891236 2.1730204 -0.56789768
-0.29730737 2.2361627 -0.56443506
-0.30791634 2.3159568 -0.56398535
-0.31994593 2.406436 -0.56470942
-0.33306757 2.5051289 -0.56577146
-0.34634712 2.6050096 -0.56543547
-0.35965973 2.7051387 -0.56348056
-0.37515047 2.8216503 -0.56312567
-0.39401668 2.9635503 -0.56566739
-0.41235772 3.1015003 -0.56510568
-0.43349236 3.260462 -0.56588262
-0.45526507 3.4242229 -0.56478715
-0.48058897 3.6146936 -0.56512815
-0.50835913 3.8235638 -0.5649972
-0.5405665 4.0658078 -0.56601447
-0.57393324 4.3167715 -0.56411141
-0.61324775 4.6124716 -0.56347364
-0.66216904 4.9804273 -0.56609654
-0.71420324 5.3717961 -0.56501281
-0.77717388 5.8454223 -0.56532913
-0.85325253 6.4176388 -0.5664106
-0.94288415 7.0917926 -0.56603825
-1.055443 7.9383917 -0.566679
-1.1958666 8.9945707 -0.56632674
-1.3806236 10.384199 -0.56646293
-1.6343234 12.292372 -0.56723547
-1.9993569 15.037929 -0.56763017
-2.577733 19.388117 -0.56910002
-3.627656 27.28499 -0.57199031
-6.1005816 45.884811 -0.57709205
-0.3013843 2.071532 -0.56090826
-0.316349 2.1743903 -0.56922925
-0.32254997 2.2170119 -0.56055993
-0.33708668 2.3169284 -0.56518859
-0.349767 2.4040852 -0.56512433
-0.3634679 2.4982569 -0.56518614
-0.37830919 2.6002669 -0.56537306
-0.39405558 2.708498 -0.56514692
-0.4107483 2.8232336 -0.56440699
-0.42953536 2.9523644 -0.56449777
-0.44975227 3.0913231 -0.56421638
-0.47317064 3.2522867 -0.56543082
-0.49716276 3.4171939 -0.56459343
-0.52424365 3.6033313 -0.56431693
-0.55494428 3.8143487 -0.56460118
-0.58942169 4.0513258 -0.56496465
-0.62892801 4.3228679 -0.56587589
-0.67132473 4.6142774 -0.56466001
-0.72108197 4.9562783 -0.56431687
-0.78035313 5.3636718 -0.56512481
-0.85019845 5.8437462 -0.56613535
-0.93212241 6.4068418 -0.5664264
-1.0290504 7.0730653 -0.56551075
-1.1509907 7.9112091 -0.56570613
-1.3072762 8.9854202 -0.56671989
-1.5098388 10.377712 -0.56707901
-1.7874296 12.285702 -0.56789899
-2.1869111 15.031494 -0.56835938
-2.8189108 19.375477 -0.56970334
-3.9656374 27.257376 -0.57239044
-6.678978 45.907227 -0.57836312
-0.32881689 2.0802262 -0.56431448
-0.34123749 2.1588037 -0.56620455
-0.3523688 2.2292249 -0.56470078
-0.36596799 2.315259 -0.56583631
-0.37960556 2.4015355 -0.56557947
-0.39454708 2.4960616 -0.56574428
-0.40952268 2.5908031 -0.56436759
-0.42815524 2.7086802 -0.56624061
-0.44238076 2.7986765 -0.56054276
-0.46650186 2.9512761 -0.56534374
-0.48649991 3.0777917 -0.56279594
-0.51336908 3.2477765 -0.56570143
-0.54341942 3.4378872 -0.56907338
-0.57063031 3.610034 -0.5664227
-0.6043967 3.8236537 -0.56703573
-0.63980049 4.0476317 -0.5655039
-0.67969185 4.3000007 -0.56393391
-0.72928029 4.6137171 -0.56564605
-0.78358787 4.9572878 -0.56548613
-0.84734797 5.3606596 -0.56586248
-0.92045116 5.8231397 -0.56519276
-1.0116653 6.4001966 -0.56689584
-1.1197785 7.0841637 -0.56745607
-1.252076 7.9211302 -0.56747359
-1.4195293 8.9805069 -0.56746799
-1.6362479 10.351554 -0.56670618
-1.9395784 12.270543 -0.56825775
-2.3728471 15.011572 -0.56866634
-3.0614789 19.36813 -0.5705511
-4.3075948 27.251556 -0.5733372
-7.2599854 45.92955 -0.57972527
-0.35432774 2.0757811 -0.56424791
-0.3654069 2.1406868 -0.56258881
-0.38117012 2.2330337 -0.56681007
-0.39281228 2.3012376 -0.56354749
-0.41034985 2.4039791 -0.56730044
-0.42294392 2.4777596 -0.56273228
-0.44232857 2.5913219 -0.56562269
-0.46114185 2.7015371 -0.56589001
-0.48229358 2.8254516 -0.56705046
-0.50090969 2.9345117 -0.56326967
-0.52574176 3.0799868 -0.56433684
-0.5518288 3.2328143 -0.5642345
-0.58397633 3.4211462 -0.56744802
-0.61179209 3.5841012 -0.56349152
-0.64543408 3.7811882 -0.56187272
-0.68980384 4.0411224 -0.56573671
-0.73517936 4.3069487 -0.56598794
-0.78651434 4.607688 -0.56604981
-0.84416044 4.9453998 -0.56527138
-0.91177225 5.3414941 -0.56498015
-0.99432892 5.8251414 -0.56653094
-1.089201 6.3809366 -0.56633341
-1.2029841 7.0475197 -0.56566292
-1.3462914 7.8870664 -0.56617641
-1.527559 8.9489985 -0.56662107
-1.7663807 10.348103 -0.56766343
-2.0923479 12.257736 -0.5688132
-2.5586786 14.989672 -0.56898558
-3.301805 19.343178 -0.57096893
-4.6463141 27.219803 -0.57382774
-7.8358536 45.905285 -0.58059126
-0.38108736 2.0781579 -0.56612498
-0.39353752 2.1460516 -0.56522775
-0.40926903 2.2318392 -0.56774139
-0.42291248 2.3062401 -0.56600326
-0.43714845 2.383872 -0.56378138
-0.45375627 2.4744384 -0.56320262
-0.47337472 2.5814223 -0.5646897
-0.49292284 2.6880229 -0.56428617
-0.51613051 2.8145797 -0.56609941
-0.53875089 2.9379339 -0.56515545
-0.56737864 3.0940475 -0.56814849
-0.59123945 3.2241664 -0.56395143
-0.62234348 3.3937836 -0.56413615
-0.65590161 3.5767839 -0.56356651
-0.69586635 3.7947209 -0.56511241
-0.73786247 4.0237355 -0.56453019
-0.78814912 4.2979603 -0.56603754
-0.84400892 4.6025767 -0.56665409
-0.90651929 4.9434605 -0.56628108
-0.97920239 5.339818 -0.56603366
-1.0636719 5.8004503 -0.56535888
-1.1663872 6.3605804 -0.56575692
-1.2937443 7.055089 -0.56750447
-1.4447546 7.8785825 -0.56679988
-1.6389959 8.9378252 -0.56714684
-1.893863 10.327675 -0.5677774
-2.2422938 12.227749 -0.56865811
-2.7450802 14.969561 -0.56946039
-3.5412834 19.311441 -0.57127428
-4.9872913 27.196859 -0.57459348
-8.4201956 45.917282 -0.58200854
-0.40658689 2.0731943 -0.56609195
-0.41971675 2.1401436 -0.56498832
-0.43282747 2.2069952 -0.56273288
-0.45118782 2.3006151 -0.56594157
-0.46657592 2.3790793 -0.5639621
-0.4837864 2.466836 -0.56278366
-0.5049265 2.5746298 -0.56451929
-0.52723747 2.6883936 -0.56568223
-0.54970914 2.8029771 -0.56508267
-0.57635045 2.9388218 -0.5666467
-0.6019392 3.0692992 -0.56492049
-0.6322633 3.2239225 -0.5652259
-0.66589761 3.3954244 -0.56572723
-0.70135468 3.5762208 -0.56479388
-0.74118018 3.7792916 -0.56412929
-0.78664327 4.0111089 -0.56407309
-0.83971334 4.281714 -0.56521505
-0.89745271 4.5761285 -0.56471378
-0.96686953 4.9300861 -0.56606811
-1.0455831 5.3314481 -0.56646645
-1.1384739 5.8051 -0.56713367
-1.2443076 6.344748 -0.56566685
-1.3800331 7.0368152 -0.56735665
-1.5400208 7.8525953 -0.56624985
-1.7496983 8.9217443 -0.56744879
-2.0234942 10.317836 -0.56856138
-2.3963954 12.219265 -0.56959087
-2.9309032 14.944731 -0.56984377
-3.7821054 19.285027 -0.57182539
-5.3238068 27.146191 -0.5748626
-8.9990559 45.886353 -0.58297497
-0.43137026 2.0647981 -0.56520498
-0.44605759 2.1351004 -0.56506217
-0.46214795 2.2121184 -0.56544542
-0.47701216 2.2832677 -0.56307447
-0.49579138 2.3731563 -0.56396055
-0.51803374 2.4796216 -0.56711102
-0.5385704 2.5779223 -0.56665051
-0.55823398 2.6720443 -0.56364381
-0.58519655 2.8011034 -0.56611276
-0.60739064 2.9073374 -0.56197369
-0.64205474 3.0732608 -0.56705987
-0.67099959 3.2118082 -0.56450593
-0.70824474 3.3900862 -0.56624603
-0.74653178 3.5733509 -0.56574768
-0.78746581 3.7692857 -0.56403846
-0.83651727 4.0040755 -0.56448787
-0.89235568 4.2713518 -0.56525296
-0.95392489 4.5660591 -0.56487602
-1.0284321 4.9226961 -0.56662875
-1.1109607 5.3177271 -0.56641728
-1.2098821 5.791225 -0.56718874
-1.3237939 6.3364754 -0.56633776
-1.4660023 7.0171709 -0.56718338
-1.6400517 7.850276 -0.56749392
-1.8626173 8.9156084 -0.56847227
-2.1482372 10.282758 -0.56804115
-2.5443203 12.178651 -0.56911302
-3.1169055 14.919388 -0.57029575
-4.0248089 19.26516 -0.57266051
-5.6685228 27.132965 -0.57601506
-9.5852108 45.880596 -0.58435512
-0.45726144 2.0617547 -0.56586826
-0.47376567 2.1361709 -0.56684446
-0.48722899 2.1968758 -0.56303805
-0.50538248 2.2787285 -0.56344503
-0.52689385 2.3757215 -0.56606704
-0.54569203 2.4604812 -0.56422538
-0.56750029 2.5588126 -0.56394124
-0.58993196 2.6599555 -0.56258142
-0.61685944 2.781369 -0.56361479
-0.64681631 2.9164422 -0.56522822
-0.67672068 3.0512784 -0.56449658
-0.71272016 3.2135971 -0.56631786
-0.75119597 3.3870816 -0.56724417
-0.78991616 3.5616677 -0.56539303
-0.83165038 3.7498438 -0.56261688
-0.88701981 3.9995003 -0.56533778
-0.94637859 4.2671442 -0.56619334
-1.0114571 4.5605774 -0.56569374
-1.0889655 4.9100571 -0.56667238
-1.1771417 5.3076363 -0.56684136
-1.2810018 5.7759328 -0.56719089
-1.4032712 6.3272357 -0.5670113
-1.5509793 6.9932394 -0.56674767
-1.7384987 7.8387489 -0.56816304
-1.9715916 8.8897467 -0.56832612
-2.2790108 10.275874 -0.56916595
-2.6987963 12.168653 -0.57015353
-3.3024929 14.890672 -0.5707072
-4.2626824 19.220089 -0.57283556
-6.0097036 27.097265 -0.57678235
-10.16958 45.853806 -0.58556235
-0.48255005 2.0558605 -0.56583637
-0.49639606 2.1148503 -0.56276405
-0.51647449 2.2003925 -0.56552422
-0.53510273 2.2797565 -0.56528348
-0.55448192 2.3623197 -0.56445569
-0.57658595 2.4564922 -0.56489378
-0.59790176 2.5473061 -0.56298304
-0.62558806 2.665261 -0.56528777
-0.65451741 2.788512 -0.56665027
-0.68428797 2.9153466 -0.56660384
-0.71548086 3.0482409 -0.56551951
-0.75096822 3.1994317 -0.56540614
-0.79318738 3.3793025 -0.56753194
-0.83399802 3.5531726 -0.56562966
-0.88143194 3.7552605 -0.56501305
-0.93608099 3.9880879 -0.56530899
-0.99939007 4.2578106 -0.56654263
-1.0661641 4.5422955 -0.56500953
-1.148991 4.8951716 -0.56654227
-1.2422408 5.2924542 -0.56680846
-1.349582 5.7497711 -0.5662086
-1.4838593 6.3218474 -0.5681206
-1.6391478 6.9834399 -0.5675441
-1.832375 7.8066673 -0.56742793
-2.0761039 8.8450518 -0.56705797
-2.4062469 10.251595 -0.569417
-2.8443065 12.117908 -0.56937164
-3.4869356 14.855771 -0.57096976
-4.5021305 19.180918 -0.57327473
-6.3476291 27.043495 -0.57725561
-10.752364 45.809467 -0.58664024
-0.50458294 2.0368202 -0.56226104
-0.52752602 2.1294332 -0.56832772
-0.54672104 2.2069166 -0.5688858
-0.56169182 2.2673483 -0.56387669
-0.58268631 2.3520956 -0.56368214
-0.60759276 2.4526339 -0.56568187
-0.63135648 2.5485594 -0.56493318
-0.65730751 2.6533144 -0.56442559
-0.69014108 2.785852 -0.56779128
-0.71688771 2.8938184 -0.56409037
-0.75234371 3.0369415 -0.5650968
-0.79030389 3.1901731 -0.56544459
-0.83117914 3.3551717 -0.56515306
-0.87604064 3.5362618 -0.56460977
-0.93145645 3.7599554 -0.56739986
-0.98673522 3.9830959 -0.5662784
-1.0488688 4.2339063 -0.56503534
-1.1230347 4.533288 -0.56556404
-1.2065775 4.8705201 -0.56536359
-1.3048635 5.2672653 -0.56578642
-1.4271671 5.7609611 -0.56899565
-1.5559001 6.2806101 -0.5660913
-1.7259141 6.9668956 -0.56788141
-1.9333451 7.8042197 -0.56893504
-2.1918774 8.8478222 -0.56892049
-2.5326276 10.223309 -0.56953251
-2.997061 12.09806 -0.57012749
-3.6717551 14.821558 -0.57134688
-4.7432733 19.146893 -0.57395756
-6.6868615 26.992458 -0.57787764
-11.337827 45.766739 -0.58783394
-0.53061771 2.0344076 -0.5633536
-0.55138296 2.1140225 -0.56598151
-0.57008517 2.1857276 -0.56518805
-0.59192568 2.2694647 -0.56617045
-0.61242878 2.3480744 -0.56448048
-0.63297313 2.4268422 -0.56148595
-0.66374815 2.5448346 -0.56587392
-0.6886906 2.640465 -0.56345105
-0.71981335 2.7597907 -0.56424099
-0.75269502 2.8858602 -0.5643006
-0.79031897 3.030112 -0.56559151
-0.8266179 3.1692832 -0.56350094
-0.8715868 3.3416958 -0.56464571
-0.92479354 3.5456924 -0.5678882
-0.97835946 3.751066 -0.56783092
-1.0347999 3.9674609 -0.56582183
-1.104468 4.2345705 -0.56689358
-1.1794699 4.522131 -0.56593871
-1.2655817 4.8522863 -0.56501079
-1.3701432 5.2531791 -0.56604028
-1.4900346 5.7128472 -0.56601042
-1.6356304 6.2710667 -0.56700104
-1.8090914 6.9361229 -0.56714344
-2.0286398 7.7778792 -0.56879032
-2.2994449 8.8161564 -0.56865948
-2.6552165 10.180198 -0.56890672
-3.1438015 12.05345 -0.56980395
-3.8577139 14.790617 -0.57193953
-4.9843626 19.110228 -0.57465237
-7.0264754 26.939764 -0.57855552
-11.919581 45.700111 -0.58881623
-0.55289477 2.0178866 -0.560619
-0.57819533 2.1102254 -0.56682557
-0.59675276 2.1779542 -0.56503278
-0.61667043 2.2506471 -0.56332505
-0.64609349 2.3580317 -0.56874114
-0.67161483 2.4511764 -0.56898373
-0.69229805 2.5266635 -0.56368363
-0.72345817 2.6403878 -0.56529015
-0.75607812 2.7594402 -0.56602734
-0.79153085 2.8888309 -0.56674182
-0.82569051 3.0135026 -0.56434375
-0.86764747 3.1666319 -0.56488377
-0.91735929 3.3480639 -0.56758487
-0.96641332 3.5270953 -0.56677008
-1.023255 3.7345488 -0.56719244
-1.0820333 3.9490705 -0.56505388
-1.1562536 4.2199507 -0.5667969
-1.2340841 4.5040069 -0.5655269
-1.3296047 4.8526263 -0.56691122
-1.4378542 5.2477016 -0.5673123
-1.563375 5.7058115 -0.56717515
-1.7133453 6.2531548 -0.56724352
-1.8966829 6.9222775 -0.56787539
-2.1244979 7.7537289 -0.56889158
-2.4103997 8.7971773 -0.56930405
-2.7889466 10.178751 -0.57069921
-3.2976258 12.035265 -0.57081801
-4.0411596 14.748923 -0.57220554
-5.2185688 19.046083 -0.57460964
-7.3688569 26.893938 -0.5794735
-12.510556 45.659473 -0.59023005
-0.58249223 2.0277438 -0.5653047
-0.60343313 2.1006422 -0.56620175
-0.62150025 2.1635365 -0.56323248
-0.64754105 2.2541885 -0.56616163
-0.67207879 2.3396082 -0.56624806
-0.69630951 2.423959 -0.56461066
-0.72749388 2.5325165 -0.56694227
-0.75617743 2.6323683 -0.56552118
-0.7956326 2.7697177 -0.57009923
-0.82724738 2.8797736 -0.56691772
-0.86905825 3.0253236 -0.56851572
-0.908683 3.1632633 -0.56623328
-0.95359474 3.319608 -0.56470597
-1.0054001 3.4999504 -0.5643521
-1.0656177 3.7095766 -0.56534708
-1.1346977 3.9500549 -0.56714833
-1.2098082 4.2115259 -0.56762058
-1.2900947 4.4910154 -0.56584477
-1.3861861 4.8255243 -0.56569356
-1.500899 5.2248569 -0.56679493
-1.6323261 5.682375 -0.56679785
-1.7938997 6.2448368 -0.56844705
-1.9801452 6.8931861 -0.56744343
-2.2158594 7.7137427 -0.56791401
-2.5174398 8.7635899 -0.56909072
-2.9097488 10.129277 -0.56988835
-3.446646 11.998298 -0.57103163
-4.2279201 14.718031 -0.5729807
-5.4601598 19.007645 -0.57543206
-7.7056317 26.824472 -0.57997453
-13.099152 45.600136 -0.59150046
-0.61089081 2.0321057 -0.56857193
-0.6335972 2.1076376 -0.57014412
-0.64839137 2.1568501 -0.56352472
-0.67592436 2.2484374 -0.56676179
-0.70402807 2.3419235 -0.56886059
-0.72798693 2.4216216 -0.56610852
-0.7570985 2.5184603 -0.56583691
-0.78701234 2.6179674 -0.56446379
-0.81943339 2.7258151 -0.56309408
-0.86055207 2.8625946 -0.5655762
-0.90559983 3.0124443 -0.56814516
-0.95003802 3.1602664 -0.56774503
-0.99639404 3.3144679 -0.56587309
-1.0501121 3.4931593 -0.56529647
-1.1103257 3.6934576 -0.56492853
-1.1808646 3.9281023 -0.56603843
-1.2557428 4.1771822 -0.56503016
-1.3501964 4.4913783 -0.5679394
-1.4492718 4.8209491 -0.56720346
-1.5727613 5.2317324 -0.56959569
-1.7028693 5.6645317 -0.56706381
-1.8691101 6.2175255 -0.56801015
-2.0709531 6.8889494 -0.56914794
-2.3099692 7.6840272 -0.56777453
-2.6288297 8.7447052 -0.56992042
-3.0338242 10.091904 -0.56984144
-3.5937216 11.954382 -0.57100153
-4.4118767 14.675944 -0.57341087
-5.6977806 18.953457 -0.57586914
-8.047658 26.770237 -0.58089757
-13.684298 45.520309 -0.59260291
-0.63414288 2.0190678 -0.56706291
-0.65110373 2.0730698 -0.56291634
-0.67845589 2.1601572 -0.5665257
-0.70228267 2.2360201 -0.5657658
-0.7277326 2.3170509 -0.56494993
-0.75968331 2.4187799 -0.56758505
-0.78341252 2.4943321 -0.56253773
-0.8156653 2.5970228 -0.56206787
-0.85029376 2.7072773 -0.56138206
-0.89468682 2.8486218 -0.56494647
-0.9345541 2.9755566 -0.56331289
-0.98503989 3.1362998 -0.56557268
-1.0359874 3.2985132 -0.56528127
-1.0951266 3.4868085 -0.56640512
-1.1566007 3.6825378 -0.56539088
-1.2309855 3.9193738 -0.56691897
-1.3126022 4.1792359 -0.56744832
-1.4034045 4.4683442 -0.56716597
-1.5072316 4.7989225 -0.56674969
-1.6306989 5.1920342 -0.56741381
-1.7750657 5.6516881 -0.56792015
-1.9453168 6.1937556 -0.567981
-2.154357 6.8593254 -0.56884611
-2.406297 7.6614852 -0.56825233
-2.7363052 8.7122097 -0.56995237
-3.1615789 10.066252 -0.57054502
-3.7416892 11.913283 -0.57119292
-4.5944819 14.628517 -0.57372183
-5.9301515 18.881199 -0.57584566
-8.3847342 26.696423 -0.58148915
-14.26419 45.416206 -0.59348619
-0.65381503 1.9955354 -0.56266916
-0.68240714 2.0828025 -0.56779474
-0.70321286 2.1463046 -0.56511772
-0.72596049 2.2157335 -0.56284899
-0.7617209 2.3248792 -0.56909937
-0.78860497 2.4069333 -0.56703776
-0.81883013 2.4991848 -0.56586009
-0.84902525 2.5913444 -0.56305593
-0.89128238 2.720319 -0.56631619
-0.92829758 2.8332946 -0.56412786
-0.97616124 2.9793813 -0.56626654
-1.0222213 3.1199632 -0.56485069
-1.0768247 3.2866204 -0.56546962
-1.1365814 3.4690063 -0.56574082
-1.2060444 3.6810172 -0.56739146
-1.2733887 3.8865614 -0.56439507
-1.357758 4.1440687 -0.56489754
-1.4562688 4.444737 -0.56639963
-1.5662923 4.7805443 -0.56681097
-1.698935 5.1853886 -0.56892765
-1.8418016 5.6214375 -0.56711334
-2.0173035 6.1570935 -0.56685084
-2.2375195 6.8292241 -0.56858855
-2.4987454 7.6265225 -0.56789511
-2.8369002 8.658618 -0.56868553
-3.2865047 10.030874 -0.57078725
-3.8949959 11.888075 -0.57223737
-4.7801452 14.589675 -0.57446033
-6.1738744 18.843533 -0.57696867
-8.7228642 26.623409 -0.58219105
-14.859643 45.353718 -0.59501237
-0.68490547 2.0066936 -0.56814712
-0.70552731 2.0671132 -0.56583983
-0.73065311 2.1407287 -0.56597245
-0.75741374 2.2191343 -0.56603593
-0.78824502 2.3094664 -0.56765622
-0.81827712 2.3974571 -0.56713289
-0.85033005 2.4913683 -0.56641495
-0.88712913 2.5991852 -0.56708699
-0.92146158 2.6997755 -0.56435555
-0.96192527 2.8183293 -0.56346071
-1.007111 2.9507182 -0.5631299
-1.0628517 3.114032 -0.56610024
-1.1185585 3.2772467 -0.56618053
-1.182427 3.4643741 -0.56731367
-1.2541755 3.6745887 -0.56873471
-1.3178234 3.8610699 -0.56300384
-1.4127772 4.1392732 -0.56656915
-1.5105821 4.4258304 -0.56631452
-1.6255813 4.7627645 -0.56703001
-1.7564296 5.1461349 -0.56694758
-1.9140165 5.6078463 -0.56807357
-2.0969105 6.1437044 -0.56794912
-2.3216419 6.8021412 -0.56866753
-2.5954657 7.6044135 -0.5685823
-2.9506211 8.6449776 -0.57012951
-3.4073126 9.9830313 -0.57040578
-4.0413895 11.840802 -0.57231063
-4.9570231 14.523502 -0.57421142
-6.4147048 18.79434 -0.57783395
-9.0589151 26.541569 -0.58279324
-15.452855 45.275074 -0.59642839
-0.70848972 1.9951992 -0.56731641
-0.73256326 2.0629935 -0.5671351
-0.75806516 2.1348102 -0.56682926
-0.78484815 2.2102346 -0.56618464
-0.81084287 2.2834389 -0.56366688
-0.84074056 2.3676348 -0.56248128
-0.88435793 2.4904671 -0.56863934
-0.91531777 2.5776539 -0.56480223
-0.95965433 2.7025115 -0.56735134
-0.99867135 2.8123884 -0.5646854
-1.0488136 2.9535954 -0.5660975
-1.0981601 3.092562 -0.56460929
-1.1563637 3.2564707 -0.56500506
-1.2205904 3.437341 -0.5653019
-1.2933666 3.6422884 -0.56615418
-1.3757472 3.8742833 -0.56735444
-1.4660324 4.1285381 -0.56752431
-1.5598896 4.3928518 -0.56450641
-1.6835284 4.741035 -0.56686479
-1.8191777 5.1230412 -0.56682497
-1.9796379 5.5749178 -0.56716096
-2.1741593 6.1227155 -0.56843728
-2.4046226 6.7717304 -0.5685541
-2.6920035 7.5810323 -0.56926608
-3.0547101 8.6024618 -0.56975973
-3.5351422 9.9554205 -0.5712688
-4.1843853 11.783773 -0.57199794
-5.1372437 14.467147 -0.57443744
-6.6426387 18.706535 -0.57760197
-9.392724 26.451134 -0.58329946
-16.035196 45.1572 -0.5974279
-0.73085421 1.9806082 -0.56568021
-0.75321317 2.0412006 -0.56364763
-0.77759194 2.1072669 -0.56201231
-0.81300259 2.2032294 -0.56690824
-0.84192818 2.2816176 -0.56573009
-0.87545013 2.3724618 -0.56614268
-0.91042089 2.4672322 -0.56584758
-0.94828457 2.5698426 -0.56560284
-0.98727363 2.6755025 -0.56418717
-1.032811 2.7989085 -0.56448609
-1.0844445 2.9388347 -0.56578141
-1.139305 3.0875061 -0.56620115
-1.1981637 3.2470129 -0.56587756
-1.2637806 3.4248335 -0.56575787
-1.3344587 3.6163709 -0.56463349
-1.4184731 3.8440492 -0.56543845
-1.5172089 4.1116223 -0.56772065
-1.6161238 4.3796806 -0.56532484
-1.7445849 4.727809 -0.56780541
-1.883044 5.1030321 -0.56713015
-2.0545871 5.5679121 -0.56897545
-2.2487068 6.0939746 -0.56829315
-2.4848163 6.733829 -0.56789434
-2.7864707 7.5513101 -0.5695641
-3.158329 8.559042 -0.56941313
-3.6555204 9.9064264 -0.57099354
-4.3375483 11.754716 -0.57313311
-5.318748 14.413758 -0.574871
-6.8774543 18.637838 -0.57804835
-9.7346735 26.380877 -0.58434564
-16.623924 45.050682 -0.59867781
-0.75137496 1.9616125 -0.56285113
-0.78038388 2.0373459 -0.56519026
-0.80598086 2.104172 -0.56378752
-0.8356511 2.181632 -0.56395245
-0.8735857 2.2806678 -0.56811512
-0.90497261 2.3626094 -0.56640428
-0.93851966 2.4501908 -0.56454325
-0.97983241 2.5580459 -0.56561553
-1.0186539 2.6593969 -0.56338972
-1.0657461 2.7823403 -0.56374502
-1.1168991 2.9158854 -0.56396472
-1.179774 3.0800328 -0.56744814
-1.2350341 3.2243001 -0.56452322
-1.3069477 3.4120448 -0.56625718
-1.380481 3.604018 -0.56531239
-1.4721798 3.8434155 -0.56796509
-1.55909 4.070312 -0.56462109
-1.6778055 4.3802423 -0.56801742
-1.802996 4.707077 -0.56793523
-1.945828 5.0799675 -0.56718314
-2.1245053 5.5464401 -0.56940776
-2.3287005 6.0795321 -0.56957358
-2.5736303 6.7189698 -0.56926703
-2.8815351 7.5228157 -0.57004434
-3.2745147 8.5487661 -0.57136506
-3.7787805 9.8652515 -0.57125533
-4.4842429 11.707001 -0.57345182
-5.5033264 14.367518 -0.57568222
-7.1148767 18.574789 -0.57876253
-10.068526 26.285873 -0.58493942
-17.205837 44.919231 -0.59969723
-0.77870989 1.9604648 -0.56522661
-0.80425698 2.0247817 -0.56440556
-0.83660054 2.106209 -0.56704682
-0.86565071 2.1793454 -0.56607014
-0.89990789 2.2655904 -0.56707299
-0.93660861 2.3579876 -0.56801432
-0.97113228 2.4449036 -0.56603372
-1.011371 2.5462079 -0.56570506
-1.0577185 2.6628916 -0.56684256
-1.1063555 2.7853391 -0.56706619
-1.1538686 2.9049568 -0.56455255
-1.2197071 3.0707107 -0.56845087
-1.2766018 3.2139478 -0.5654164
-1.3497363 3.3980699 -0.5666495
-1.4305508 3.6015267 -0.56763798
-1.5150077 3.8141539 -0.56635106
-1.6131285 4.0611811 -0.56606323
-1.7346858 4.3672109 -0.56905061
-1.8619689 4.6876564 -0.56831157
-2.0106637 5.0620079 -0.56789541
-2.1865747 5.504878 -0.56785828
-2.4009106 6.044486 -0.56901306
-2.6562679 6.6873684 -0.56931388
-2.9767416 7.4941864 -0.5706054
-3.3752863 8.4975548 -0.57067311
-3.909153 9.8416071 -0.57262635
-4.6287432 11.653234 -0.5735628
-5.6791973 14.297835 -0.57564473
-7.3453236 18.492443 -0.57896733
-10.397287 26.176008 -0.58529544
-17.796902 44.805134 -0.60105014
-0.80847234 1.964633 -0.56925148
-0.82926881 2.0151696 -0.56452596
-0.86625093 2.1050382 -0.56955624
-0.88760388 2.1569271 -0.56303948
-0.93026447 2.2605946 -0.56864268
-0.96076208 2.3347056 -0.56520909
-1.0008007 2.4320018 -0.56585306
-1.0426232 2.5336325 -0.5657168
-1.0883782 2.6448197 -0.56580174
-1.1361165 2.7608266 -0.56487715
-1.1903932 2.8927221 -0.56497681
-1.2554858 3.0509005 -0.56759858
-1.3162365 3.1985283 -0.56550837
-1.3955154 3.3911805 -0.56831926
-1.4740928 3.582128 -0.5673945
-1.570461 3.8163083 -0.56949532
-1.6657339 4.0478268 -0.56701392
-1.7871134 4.3427854 -0.56868833
-1.9143038 4.6518655 -0.56678337
-2.0749035 5.0421314 -0.5684849
-2.2540781 5.4775362 -0.56785405
-2.4735417 6.0108442 -0.56866646
-2.737771 6.6529365 -0.56920558
-3.0690389 7.4579358 -0.57067561
-3.4832072 8.4643879 -0.57127893
-4.0264468 9.7844915 -0.57214063
-4.7759051 11.605717 -0.57407111
-5.8606911 14.241807 -0.57624686
-7.5850554 18.432108 -0.57995456
-10.738595 26.095387 -0.58640093
-18.37989 44.664162 -0.60214537
-0.83232749 1.9539806 -0.56908745
-0.8531304 2.0028176 -0.56396186
-0.88475931 2.07707 -0.56488985
-0.91765457 2.1542952 -0.56525528
-0.94637436 2.2217181 -0.56174827
-0.98887753 2.3214991 -0.56491292
-1.0285795 2.4147038 -0.56472844
-1.0730411 2.5190823 -0.56537133
-1.1175861 2.6236567 -0.56417155
-1.1724343 2.7524188 -0.56606382
-1.2343029 2.8976619 -0.56886292
-1.2918924 3.03286 -0.56715482
-1.3636405 3.2012966 -0.56891936
-1.433576 3.3654778 -0.56692314
-1.5200388 3.5684588 -0.56814694
-1.6120137 3.78438 -0.56764585
-1.7181625 4.033576 -0.56793427
-1.8370324 4.3126364 -0.56765544
-1.9724104 4.6304507 -0.5670864
-2.130677 5.0019989 -0.56687117
-2.3289299 5.4674196 -0.56973112
-2.5491822 5.9844861 -0.56909525
-2.8234096 6.6282654 -0.57002205
-3.1636894 7.4271097 -0.57125038
-3.5887008 8.4248705 -0.57154691
-4.1461616 9.7335711 -0.57210106
-4.9164128 11.541821 -0.57385749
-6.0410008 14.181915 -0.57678556
-7.8142948 18.344919 -0.58019072
-11.063549 25.9729 -0.58666122
-18.955606 44.500374 -0.60303408
-0.85102504 1.931649 -0.56558847
-0.88100076 1.9996876 -0.56608814
-0.91487664 2.0765786 -0.56777287
-0.94510812 2.1451979 -0.56587476
-0.98413336 2.233777 -0.56781411
-1.0176339 2.3098164 -0.56507236
-1.0588289 2.4033203 -0.56506842
-1.1081723 2.5153193 -0.56754225
-1.1521598 2.6151619 -0.56534863
-1.2063414 2.738143 -0.56613576
-1.266302 2.8742409 -0.56727892
-1.3249432 3.0073442 -0.56538719
-1.3997597 3.1771617 -0.56764621
-1.4770981 3.352704 -0.56778806
-1.5585027 3.5374751 -0.56622231
-1.6601982 3.7683029 -0.56825352
-1.7689158 4.015069 -0.56834811
-1.8965433 4.3047566 -0.56964481
-2.0379167 4.6256447 -0.56952375
-2.1970837 4.9869208 -0.56818116
-2.3907135 5.4264197 -0.56847906
-2.6238587 5.9556108 -0.5693745
-2.8985884 6.5791898 -0.56882387
-3.2498746 7.3765359 -0.57039106
-3.6945915 8.385951 -0.57194537
-4.2687435 9.6891556 -0.57253236
-5.0601153 11.485404 -0.5741027
-6.2129598 14.10212 -0.57660377
-8.0411892 18.25182 -0.5803296
-11.403548 25.883671 -0.58776861
-19.550318 44.375134 -0.60454887
-0.87389278 1.9192413 -0.56505919
-0.9060815 1.9899342 -0.56643832
-0.93941098 2.0631323 -0.56721187
-0.97065198 2.1317437 -0.56543142
-1.0088214 2.2155712 -0.56629676
-1.0487554 2.3032744 -0.56658393
-1.0934215 2.4013696 -0.56772804
-1.1332917 2.4889326 -0.56469005
-1.1887772 2.6107898 -0.56752062
-1.2373281 2.717417 -0.56495357
-1.3041409 2.8641512 -0.56840962
-1.3630424 2.9935105 -0.56589466
-1.4402562 3.1630876 -0.5682528
-1.5157653 3.3289201 -0.56687385
-1.6054692 3.5259278 -0.56749105
-1.704191 3.7427402 -0.56751585
-1.8134094 3.9826057 -0.5668664
-1.941044 4.2629166 -0.56722367
-2.0874126 4.5843706 -0.56755936
-2.2574117 4.9577222 -0.56797415
-2.4564614 5.394875 -0.56829584
-2.7009799 5.9318857 -0.57023841
-2.9875493 6.5612493 -0.57040578
-3.3396618 7.3345575 -0.57027739
-3.8011317 8.3480368 -0.5725041
-4.381043 9.6216373 -0.57168275
-5.2050319 11.431279 -0.57455307
-6.3904305 14.034649 -0.57701433
-8.2707415 18.164183 -0.58073288
-11.73582 25.774181 -0.5885148
-20.130144 44.209778 -0.60562259
-0.89683211 1.9070909 -0.564686
-0.92284352 1.9624034 -0.56178933
-0.96118617 2.0439382 -0.56514156
-0.9945944 2.11498 -0.56418628
-1.0353289 2.2016006 -0.5659371
-1.0719469 2.2794678 -0.56392759
-1.1218318 2.3855469 -0.56720573
-1.1648854 2.4770992 -0.56521243
-1.2137511 2.5810111 -0.5642491
-1.2698802 2.7003682 -0.56461281
-1.3424174 2.8546166 -0.56975025
-1.4024316 2.9822354 -0.56698042
-1.4787127 3.1444452 -0.56812733
-1.5531092 3.3026474 -0.56560928
-1.6479428 3.5043087 -0.56723005
-1.7502725 3.7219102 -0.5675779
-1.8674846 3.9711587 -0.56846267
-1.9938272 4.2398233 -0.56737024
-2.1476896 4.5670075 -0.56863624
-2.315634 4.9241371 -0.56734574
-2.5232193 5.3655624 -0.56843346
-2.7691412 5.8885088 -0.56929886
-3.0638824 6.5152683 -0.56964064
-3.4360976 7.3067746 -0.57135916
-3.9000838 8.2934294 -0.5720048
-4.515604 9.6023178 -0.57379067
-5.3579288 11.3935 -0.57592207
-6.5652251 13.960785 -0.57725298
-8.5046234 18.084867 -0.58149654
-12.060372 25.646078 -0.58893144
-20.716509 44.053131 -0.60692054
-0.9236989 1.9031016 -0.56682503
-0.95297992 1.9634295 -0.56539494
-0.98597044 2.0314 -0.56498432
-1.0293139 2.1207008 -0.56904566
-1.0616615 2.1873467 -0.56558603
-1.104274 2.2751417 -0.56617379
-1.1453152 2.3596988 -0.56436574
-1.1984053 2.4690807 -0.56670237
-1.254046 2.5837173 -0.56816894
-1.3051045 2.6889136 -0.56553054
-1.3683527 2.8192241 -0.56600177
-1.4409075 2.9687092 -0.56773442
-1.5070015 3.104883 -0.5642848
-1.6050894 3.3069739 -0.56968731
-1.6861941 3.4740744 -0.56564951
-1.7975276 3.7034552 -0.56809127
-1.9103211 3.9358444 -0.56672722
-2.0451095 4.2135496 -0.5671767
-2.2009964 4.5347242 -0.56794357
-2.382211 4.9080815 -0.56882787
-2.5945742 5.3456149 -0.56965703
-2.8427129 5.8568559 -0.56957507
-3.1459501 6.481617 -0.57003754
-3.526567 7.2658038 -0.57150316
-4.0022254 8.2458057 -0.57207119
-4.6340895 9.5476379 -0.5738849
-5.494863 11.321095 -0.57563406
-6.7405472 13.887585 -0.57760972
-8.7356501 17.998104 -0.58211672
-12.389871 25.526915 -0.58964896
-21.295118 43.874443 -0.60802031
-0.94570792 1.8889621 -0.56603456
-0.9760648 1.9495971 -0.56482524
-1.0120704 2.0215149 -0.5656535
-1.0496566 2.0965898 -0.56599653
-1.0920602 2.1812871 -0.56744856
-1.1331358 2.2633314 -0.56665939
-1.1734861 2.3439274 -0.56400228
-1.2251786 2.4471784 -0.56509042
-1.2761486 2.5489862 -0.56393951
-1.3374388 2.6714077 -0.56526482
-1.4019498 2.800262 -0.56561309
-1.4751496 2.9464719 -0.56690782
-1.5543804 3.104728 -0.56768739
-1.6391007 3.2739487 -0.56742728
-1.7260041 3.4475303 -0.56474054
-1.8494593 3.6941199 -0.57010472
-1.9661846 3.927268 -0.56893057
-2.0983849 4.1913252 -0.56761545
-2.2562246 4.5065956 -0.56785238
-2.4454529 4.8845611 -0.56954396
-2.6551459 5.3034029 -0.56859499
-2.9214389 5.8352981 -0.57092893
-3.2294497 6.4505205 -0.57075197
-3.6180046 7.2266221 -0.57187736
-4.1004643 8.1902895 -0.57167453
-4.7508202 9.4893141 -0.57384717
-5.6256104 11.236625 -0.57481289
-6.9104609 13.802993 -0.57758194
-8.9608335 17.898417 -0.58241224
-12.714152 25.395317 -0.59017587
-21.876509 43.696255 -0.60923284
-0.9705649 1.8804903 -0.56702924
-1.0020567 1.9415063 -0.56600821
-1.0375921 2.0103567 -0.56605858
-1.0764925 2.0857275 -0.56659472
-1.117275 2.1647444 -0.5666762
-1.1632062 2.253737 -0.56779534
-1.198233 2.3216021 -0.56213313
-1.2573141 2.4360731 -0.56605333
-1.3102243 2.5385878 -0.56516069
-1.3726851 2.6596067 -0.56629652
-1.4431225 2.7960808 -0.56830984
-1.5095512 2.9247878 -0.56626433
-1.5867984 3.074456 -0.56567723
-1.6787682 3.2526493 -0.56727064
-1.7745816 3.4382899 -0.56675857
-1.9006158 3.6824839 -0.57187247
-2.014087 3.9023366 -0.56886363
-2.1557586 4.1768289 -0.56919914
-2.3157635 4.4868412 -0.56890827
-2.5045159 4.8525534 -0.56935966
-2.7327569 5.294775 -0.57122952
-2.9896896 5.7925878 -0.57030392
-3.3105972 6.4143529 -0.57111061
-3.7080772 7.1844792 -0.57210737
-4.2021713 8.1417971 -0.57185316
-4.8615685 9.4193935 -0.57319057
-5.7759156 11.190961 -0.57606661
-7.0922709 13.741426 -0.57861125
-9.1835489 17.793324 -0.582623
-13.041926 25.269012 -0.59092289
-22.456373 43.509705 -0.61043566
-0.9918018 1.8650084 -0.56599557
-1.0258398 1.9290142 -0.566001
-1.0656989 2.0039663 -0.56790608
-1.0983697 2.0654013 -0.56469935
-1.1445768 2.1522901 -0.56705743
-1.1841207 2.2266495 -0.56459671
-1.2422609 2.3359778 -0.56926954
-1.285601 2.4174755 -0.56536251
-1.3436335 2.5266016 -0.56612766
-1.4083613 2.6483171 -0.56753725
-1.4670502 2.758677 -0.56433141
-1.5527045 2.9197433 -0.56894124
-1.6319374 3.0687349 -0.56827378
-1.714846 3.2246385 -0.56602025
-1.8174486 3.4175746 -0.56698489
-1.9320368 3.633049 -0.56784195
-2.0579991 3.8699121 -0.567783
-2.2044823 4.1453624 -0.56856215
-2.3757255 4.4673724 -0.57010072
-2.5645211 4.8223882 -0.56947726
-2.7883329 5.2432494 -0.56932664
-3.0546396 5.744019 -0.56917715
-3.3882358 6.3713217 -0.57094568
-3.7954774 7.1371083 -0.57200843
-4.3101935 8.1049929 -0.57294744
-4.9801288 9.3647566 -0.57354891
-5.9125252 11.118057 -0.57601279
-7.260036 13.65195 -0.57855898
-9.4146919 17.703617 -0.58343226
-13.363305 25.128685 -0.59143925
-23.032944 43.31171 -0.6115852
-1.018127 1.8590065 -0.56793058
-1.0494421 1.9161849 -0.56598026
-1.0837836 1.9788895 -0.56453353
-1.1270843 2.0579526 -0.56640923
-1.1655651 2.1282151 -0.56444788
-1.2229676 2.2330267 -0.56998378
-1.2607219 2.3019626 -0.56471533
-1.3191676 2.408679 -0.567056
-1.3795189 2.5188749 -0.56815434
-1.4434677 2.6356397 -0.56858116
-1.5098671 2.7568789 -0.56771857
-1.5842831 2.8927557 -0.56743556
-1.6642306 3.0387323 -0.56646466
-1.7530949 3.2009904 -0.56561041
-1.862866 3.4014225 -0.56806254
-1.9785752 3.6126969 -0.56842059
-2.1059098 3.8451982 -0.56791341
-2.2585318 4.1238718 -0.56938058
-2.4247334 4.427341 -0.56875402
-2.6205561 4.7848949 -0.56881201
-2.8597822 5.2216997 -0.57076192
