# .PCD v0.7 - Point Cloud Data file format
VERSION 0.7
FIELDS x y z
SIZE 4 4 4
TYPE F F F
COUNT 1 1 1
WIDTH 1407
HEIGHT 1
VIEWPOINT 0 0 0 1 0 0 0
POINTS 1407
DATA ascii
-3.0648367 -4.043292 -0.57165676
-3.3074775 -4.3633962 -0.57087332
-3.6056976 -4.756824 -0.57224083
-3.9614205 -5.2261124 -0.5737347
-4.3741236 -5.7705717 -0.57290798
-4.9002547 -6.4646711 -0.57402045
-5.5743141 -7.3539252 -0.57594651
-6.4565597 -8.5178299 -0.57796794
-7.6680555 -10.116098 -0.58065349
-9.4504099 -12.467472 -0.58537233
-12.272095 -16.189985 -0.59112006
-17.525938 -23.12113 -0.60290688
-30.634502 -40.414631 -0.63225323
-16.925116 -22.328493 3.1568916
-1.2467624 -1.6874995 -0.56218636
-1.2954756 -1.753433 -0.56477487
-1.3497708 -1.8269218 -0.56834298
-1.3966508 -1.8903742 -0.56736827
-1.458829 -1.9745328 -0.57107747
-1.5047522 -2.03669 -0.56691223
-1.5620171 -2.1141984 -0.56558698
-1.6331193 -2.2104356 -0.56747562
-1.704033 -2.3064177 -0.56730944
-1.785497 -2.4166794 -0.56852275
-1.8765503 -2.5399208 -0.57037169
-1.9507095 -2.6402955 -0.56478047
-2.0645823 -2.7944229 -0.56806082
-2.1891065 -2.9629672 -0.57092911
-2.2993109 -3.1121294 -0.56678134
-2.4509668 -3.3173964 -0.56919098
-2.6297009 -3.559314 -0.57326049
-2.7940407 -3.781749 -0.56939358
-3.0070014 -4.0699921 -0.57016093
-3.2581258 -4.4098907 -0.57167143
-3.5475898 -4.8016815 -0.57234615
-3.8957984 -5.2729836 -0.57357794
-4.3129678 -5.8376245 -0.57425636
-4.8282475 -6.5350585 -0.57495517
-5.4877305 -7.4276719 -0.57639378
-6.3542986 -8.6005764 -0.57823712
-7.5424199 -10.208705 -0.58060169
-9.277667 -12.557371 -0.58419263
-12.054849 -16.316301 -0.59027529
-17.226336 -23.315935 -0.60241759
-30.087662 -40.723808 -0.63125443
-18.075798 -24.465687 3.1715832
-17.036306 -23.058729 3.230273
-1.235447 -1.7159345 -0.56655556
-1.2756555 -1.7717808 -0.56558949
-1.3198481 -1.8331608 -0.56519222
-1.3778625 -1.913738 -0.56925243
-1.4205829 -1.9730731 -0.56556034
-1.4803693 -2.0561116 -0.56720847
-1.5407848 -2.1400237 -0.56738442
-1.6069646 -2.2319419 -0.56788099
-1.678481 -2.3312724 -0.56830335
-1.7586818 -2.4426649 -0.56950527
-1.8297113 -2.5413189 -0.56559044
-1.9273489 -2.6769295 -0.56750435
-2.0281928 -2.8169932 -0.56753623
-2.1456697 -2.9801593 -0.56911492
-2.2670388 -3.148731 -0.56832743
-2.4063206 -3.3421817 -0.56832373
-2.5700834 -3.5696352 -0.56978983
-2.7509348 -3.820823 -0.57014048
-2.9617643 -4.1136475 -0.57113141
-3.2007172 -4.4455338 -0.57114673
-3.4823554 -4.8367062 -0.57137364
-3.811125 -5.2933402 -0.57065147
-4.2391357 -5.8878117 -0.57402223
-4.7473369 -6.5936613 -0.57493174
-5.3937407 -7.4914632 -0.57615364
-6.2567496 -8.6901121 -0.57904047
-7.4091077 -10.290643 -0.5800364
-9.1215563 -12.669094 -0.58412802
-11.85537 -16.466135 -0.59037733
-16.921288 -23.502279 -0.60181075
-29.528379 -41.012497 -0.63005346
-1.2107303 -1.7259703 -0.56491083
-1.2639022 -1.8017701 -0.57015842
-1.3039449 -1.8588535 -0.56812727
-1.3543171 -1.930662 -0.56928992
-1.3969012 -1.9913683 -0.5658381
-1.4563733 -2.0761495 -0.56775302
-1.5096024 -2.1520307 -0.56560349
-1.5836568 -2.2575998 -0.56941152
-1.651116 -2.3537672 -0.56879467
-1.7215791 -2.4542165 -0.56722009
-1.8035301 -2.5710428 -0.56722713
-1.8949869 -2.7014198 -0.56771344
-1.9982196 -2.8485847 -0.56890762
-2.1050849 -3.0009274 -0.56809479
-2.2279887 -3.1761346 -0.5682857
-2.3736212 -3.3837426 -0.57038474
-2.5157063 -3.5862937 -0.56746817
-2.6947803 -3.8415747 -0.56824952
-2.9127824 -4.1523499 -0.5714888
-3.1416748 -4.4786501 -0.57039505
-3.4216688 -4.8777986 -0.57121444
-3.7612886 -5.3619475 -0.57301831
-4.1478958 -5.9130797 -0.5714699
-4.6580424 -6.6403255 -0.57396293
-5.2976313 -7.5520978 -0.57576346
-6.131813 -8.7412748 -0.57738191
-7.2816319 -10.380413 -0.58000559
-8.9616232 -12.775344 -0.58390194
-11.64482 -16.600405 -0.59001291
-16.607864 -23.675529 -0.60097229
-28.96562 -41.292267 -0.62883216
-1.1897862 -1.7412666 -0.56508619
-1.2378129 -1.8115543 -0.56839508
-1.2742617 -1.8648975 -0.56514287
-1.3261176 -1.9407895 -0.56742495
-1.3724012 -2.0085261 -0.56587547
-1.4251555 -2.0857325 -0.56553859
-1.4845115 -2.1726007 -0.56616932
-1.5418304 -2.2564876 -0.5643065
-1.6085192 -2.3540876 -0.56404978
-1.695447 -2.4813073 -0.56861991
-1.772355 -2.593863 -0.56741077
-1.8667852 -2.7320628 -0.56928611
-1.9591658 -2.8672631 -0.56778377
-2.0674529 -3.0257425 -0.5679369
-2.1971354 -3.2155347 -0.57045823
-2.3296795 -3.4095144 -0.569857
-2.4758651 -3.6234591 -0.56848866
-2.6556888 -3.8866332 -0.57004106
-2.8492665 -4.1699367 -0.56904423
-3.0864739 -4.5170922 -0.57041425
-3.357487 -4.913723 -0.57054359
-3.6907268 -5.4014235 -0.57234383
-4.0994549 -5.9996018 -0.5749166
-4.5814176 -6.7049603 -0.57463688
-5.2046871 -7.6171231 -0.57579815
-6.0211434 -8.8120165 -0.57712048
-7.1470771 -10.459834 -0.57948899
-8.795784 -12.872737 -0.58336586
-11.426701 -16.723116 -0.58933574
-16.29912 -23.853962 -0.60036874
-28.400494 -41.564468 -0.62761176
-1.1732907 -1.7632848 -0.56750667
-1.2110758 -1.8200701 -0.56635171
-1.2541664 -1.884829 -0.56646669
-1.3001553 -1.9539437 -0.56655383
-1.3537675 -2.0345151 -0.56846464
-1.4117528 -2.1216586 -0.5705297
-1.466145 -2.203402 -0.56945485
-1.52484 -2.2916121 -0.56835842
-1.5865685 -2.3843811 -0.56659091
-1.6653423 -2.5027666 -0.56880182
-1.7427692 -2.619128 -0.56820673
-1.8323557 -2.7537634 -0.56906992
-1.9281741 -2.8977644 -0.56908566
-2.0327065 -3.0548613 -0.56866795
-2.1497271 -3.230726 -0.56842071
-2.2750676 -3.4190946 -0.56673962
-2.432276 -3.6553559 -0.56875765
-2.607681 -3.9189641 -0.57003695
-2.7969797 -4.2034526 -0.56888157
-3.0298436 -4.5534129 -0.57025301
-3.2989042 -4.9577718 -0.57090491
-3.6285455 -5.4531746 -0.57305628
-4.0095806 -6.0258145 -0.57266057
-4.4948583 -6.755116 -0.57415509
-5.091382 -7.6516042 -0.57362872
-5.9106374 -8.8828259 -0.57695431
-7.0180683 -10.547132 -0.57950062
-8.6344242 -12.97628 -0.5832026
-11.208629 -16.844933 -0.58872712
-15.985246 -24.023491 -0.59964305
-27.820269 -41.809807 -0.6261034
-1.1522387 -1.778685 -0.56786019
-1.1810639 -1.8231816 -0.56275821
-1.2282655 -1.8960457 -0.56525582
-1.270512 -1.9612606 -0.56410289
-1.3264222 -2.0475681 -0.56751156
-1.390373 -2.1462874 -0.57251191
-1.4328904 -2.2119205 -0.56705987
-1.4897227 -2.2996514 -0.56576627
-1.5572491 -2.4038904 -0.56663376
-1.6222086 -2.5041668 -0.56454396
-1.7108434 -2.6409905 -0.56834275
-1.7959859 -2.772423 -0.56831926
-1.8918812 -2.9204543 -0.56893003
-1.9866219 -3.0667033 -0.56628209
-2.1080863 -3.2542052 -0.56794798
-2.2419488 -3.4608457 -0.56904757
-2.3860042 -3.6832209 -0.56848526
-2.5604768 -3.9525502 -0.57029945
-2.7505214 -4.2459178 -0.57000828
-2.9689827 -4.5831513 -0.56936216
-3.2350488 -4.9938722 -0.57043809
-3.5486727 -5.4780059 -0.57103699
-3.9408338 -6.0833764 -0.57348239
-4.4110594 -6.8092527 -0.57410288
-5.0087953 -7.7319641 -0.57499242
-5.8035002 -8.9587326 -0.57720584
-6.8914967 -10.638247 -0.57980698
-8.4700823 -13.075074 -0.58291775
-11.002276 -16.983965 -0.58881336
-15.673353 -24.194601 -0.59905815
-27.263735 -42.086411 -0.62517798
-1.1169281 -1.771538 -0.56115121
-1.1658201 -1.8490846 -0.56628597
-1.2118416 -1.9220785 -0.56853139
-1.2564957 -1.9929035 -0.56871718
-1.3030348 -2.0667181 -0.56833541
-1.355934 -2.1506205 -0.56917721
-1.4009355 -2.2219965 -0.565184
-1.4641087 -2.3221943 -0.56684029
-1.5334646 -2.4321983 -0.56881869
-1.5985446 -2.5354204 -0.56711555
-1.6766769 -2.6593444 -0.5678128
-1.7586844 -2.7894151 -0.56732655
-1.8581231 -2.9471328 -0.56963307
-1.9594522 -3.1078489 -0.56938767
-2.070709 -3.2843113 -0.56871545
-2.200299 -3.4898515 -0.56932515
-2.3485713 -3.7250233 -0.57043678
-2.5109465 -3.9825635 -0.57013196
-2.6998978 -4.2822552 -0.57038647
-2.9153335 -4.6239538 -0.56993449
-3.1762927 -5.0378556 -0.57095772
-3.4883015 -5.5327272 -0.57222664
-3.8557742 -6.1155682 -0.57200432
-4.3260589 -6.8614779 -0.57397771
-4.9079366 -7.7843828 -0.57435912
-5.6841693 -9.0155506 -0.57631969
-6.7461357 -10.699914 -0.57860303
-8.304945 -13.172312 -0.58265591
-10.781205 -17.099859 -0.58819079
-15.353316 -24.351597 -0.59822565
-26.683838 -42.322716 -0.62376696
-1.1086109 -1.8072249 -0.56809437
-1.1430378 -1.8633466 -0.56630641
-1.181284 -1.9256943 -0.56526166
-1.231447 -2.0074685 -0.56850946
-1.2758942 -2.0799251 -0.56760997
-1.3257929 -2.1612685 -0.56763774
-1.3807217 -2.2508118 -0.56815195
-1.4342268 -2.3380342 -0.56635904
-1.508433 -2.4590032 -0.57070649
-1.5683198 -2.5566287 -0.56750292
-1.6388385 -2.6715863 -0.56608105
-1.7270415 -2.8153722 -0.56824368
-1.8231424 -2.972033 -0.57006973
-1.920307 -3.1304281 -0.56915522
-2.0249295 -3.3009806 -0.56724739
-2.1575284 -3.5171392 -0.56940573
-2.2935472 -3.7388728 -0.56819588
-2.4526749 -3.9982784 -0.56802118
-2.6486599 -4.3177676 -0.57073534
-2.8580401 -4.6590929 -0.56989086
-3.1103711 -5.0704355 -0.57027233
-3.4109766 -5.5604734 -0.57071519
-3.7788937 -6.1602411 -0.57179326
-4.2329111 -6.9003668 -0.57283342
-4.8077607 -7.8374701 -0.57387078
-5.5749569 -9.08813 -0.57653356
-6.6140308 -10.781998 -0.57860011
-8.1380148 -13.266352 -0.58234525
-10.557901 -17.21118 -0.58750987
-15.038741 -24.515713 -0.59766936
-26.111927 -42.566895 -0.62258643
-1.0833426 -1.8157518 -0.56654441
-1.1177802 -1.8734715 -0.56516355
-1.1603458 -1.9448141 -0.56664294
-1.2022833 -2.0151041 -0.56644225
-1.2502556 -2.0955088 -0.56762433
-1.2954658 -2.1712842 -0.56604165
-1.345507 -2.2551563 -0.56502956
-1.4070638 -2.3583295 -0.56704128
-1.4657922 -2.4567621 -0.56596035
-1.5332278 -2.5697882 -0.56619626
-1.6013994 -2.6840484 -0.56450653
-1.6868192 -2.8272173 -0.56640518
-1.7787155 -2.9812417 -0.56759781
-1.8773685 -3.1465902 -0.56785363
-1.9872779 -3.3308055 -0.56813043
-2.1090708 -3.5349381 -0.56804574
-2.2484896 -3.7686133 -0.56847078
-2.4046633 -4.0303702 -0.56833661
-2.5876791 -4.3371167 -0.56904393
-2.8009927 -4.694644 -0.56998336
-3.0515218 -5.1145468 -0.57097012
-3.3462389 -5.6085114 -0.57137924
-3.7111835 -6.2201819 -0.57307786
-4.149137 -6.9542203 -0.57302535
-4.7214651 -7.9134789 -0.57514173
-5.4569893 -9.146265 -0.57592118
-6.4764094 -10.854878 -0.57819384
-7.9761839 -13.368597 -0.58248407
-10.343185 -17.335844 -0.5873794
-14.714943 -24.663191 -0.59680837
-25.53821 -42.803684 -0.62140971
-1.0572847 -1.8226421 -0.56459516
-1.095538 -1.8885866 -0.56561673
-1.1318494 -1.9511834 -0.56440097
-1.1780969 -2.0309088 -0.56676996
-1.225374 -2.1124094 -0.56807786
-1.2633539 -2.1778827 -0.56366944
-1.3181301 -2.2723107 -0.56522387
-1.3733286 -2.3674667 -0.56513518
-1.4388751 -2.4804618 -0.56730121
-1.5044769 -2.5935521 -0.56731313
-1.5773454 -2.7191691 -0.5677709
-1.6563884 -2.8554308 -0.56793404
-1.7401023 -2.9997442 -0.56700385
-1.8413745 -3.1743264 -0.56872988
-1.9460591 -3.3547912 -0.568097
-2.0602098 -3.5515742 -0.56660527
-2.2025933 -3.7970278 -0.56862849
-2.3513498 -4.0534673 -0.56747359
-2.5298309 -4.3611493 -0.56807268
-2.7433717 -4.72927 -0.57004863
-2.9905536 -5.1553841 -0.57138067
-3.2703826 -5.6377783 -0.57022089
-3.6339498 -6.2645283 -0.57300335
-4.0676894 -7.0122471 -0.5736419
-4.6132102 -7.9526653 -0.57382351
-5.3473191 -9.2181873 -0.57626611
-6.3482947 -10.943759 -0.57872635
-7.7973604 -13.441789 -0.58145154
-10.121577 -17.448481 -0.58693445
-14.404993 -24.832617 -0.59657687
-24.955744 -43.020947 -0.62006199
-1.0418104 -1.8479489 -0.56842315
-1.0731212 -1.9034878 -0.56608468
-1.1145599 -1.9769911 -0.56785882
-1.1425462 -2.0266328 -0.56161344
-1.1945097 -2.1188049 -0.56580496
-1.2425493 -2.2040169 -0.56643611
-1.2917291 -2.2912514 -0.56594151
-1.35374 -2.4012456 -0.56918186
-1.4122897 -2.5051003 -0.56892145
-1.4665376 -2.6013243 -0.56502599
-1.5396963 -2.7310925 -0.56626445
-1.6174568 -2.8690226 -0.56663871
-1.7062463 -3.0265164 -0.56805563
-1.7958951 -3.1855342 -0.56673855
-1.903019 -3.3755491 -0.56760663
-2.0203657 -3.5836973 -0.56772375
-2.1560359 -3.824347 -0.56870645
-2.3164313 -4.1088543 -0.57119673
-2.4837611 -4.4056611 -0.56984937
-2.6829908 -4.7590523 -0.56961876
-2.9252908 -5.1888409 -0.57105887
-3.2048481 -5.6847157 -0.57093924
-3.5512497 -6.2991586 -0.57213342
-3.9783242 -7.0566969 -0.57323289
-4.5090299 -7.9980559 -0.57305473
-5.231739 -9.2799873 -0.57606423
-6.2021356 -11.001263 -0.5776906
-7.6214752 -13.518868 -0.580688
-9.8934116 -17.548798 -0.5861724
-14.067038 -24.95192 -0.59524244
-24.377216 -43.239975 -0.61885172
-1.0172634 -1.8574296 -0.56744879
-1.0515473 -1.9200289 -0.56711566
-1.0800997 -1.972163 -0.56261462
-1.1258397 -2.05568 -0.56578374
-1.1657021 -2.1284652 -0.56451422
-1.2188351 -2.225481 -0.56805772
-1.2682894 -2.3157802 -0.56810504
-1.3231751 -2.4159963 -0.56877863
-1.374266 -2.5092838 -0.56599098
-1.4436662 -2.6360021 -0.56865937
-1.5036035 -2.7454419 -0.56536347
-1.5853155 -2.8946407 -0.56780535
-1.6640741 -3.0384467 -0.56641138
-1.7615738 -3.2164721 -0.56834602
-1.8609146 -3.3978593 -0.56746745
-1.968448 -3.5942054 -0.56551117
-2.1059783 -3.8453233 -0.56793189
-2.2589338 -4.1246061 -0.56948197
-2.4280386 -4.4333758 -0.56952929
-2.6263552 -4.7954836 -0.57007074
-2.861176 -5.2242451 -0.57104009
-3.1348207 -5.7238951 -0.57095957
-3.4693105 -6.3346429 -0.57143849
-3.8856721 -7.0948806 -0.57241011
-4.4063382 -8.0455694 -0.57253367
-5.1100225 -9.3304329 -0.57525164
-6.0589099 -11.063013 -0.57697731
-7.4489079 -13.601023 -0.58023858
-9.6685333 -17.653856 -0.58566612
-13.747881 -25.102369 -0.59475374
-23.791649 -43.441368 -0.61750036
-0.98508531 -1.8523785 -0.56216264
-1.0199301 -1.9179015 -0.56274039
-1.0608898 -1.9949231 -0.56534332
-1.1025746 -2.0733082 -0.56686121
-1.1419005 -2.1472576 -0.56573153
-1.1887733 -2.2353983 -0.56681508
-1.2359173 -2.324049 -0.56636256
-1.2860945 -2.4184036 -0.56557953
-1.3415022 -2.5225935 -0.56522965
-1.4064097 -2.6446474 -0.56675076
-1.4712067 -2.7664931 -0.56593031
-1.5490518 -2.9128749 -0.56760281
-1.6304197 -3.0658813 -0.56774539
-1.7196677 -3.2337053 -0.56761175
-1.8225429 -3.4271543 -0.56857419
-1.9261712 -3.6220195 -0.566118
-2.0595603 -3.8728476 -0.5682137
-2.2034516 -4.143424 -0.56829631
-2.374088 -4.464293 -0.56970775
-2.5688851 -4.8305945 -0.57044637
-2.7890086 -5.2445197 -0.56946456
-3.0620162 -5.7578902 -0.57055163
-3.3908062 -6.3761549 -0.57137877
-3.7924533 -7.131422 -0.57155263
-4.3121095 -8.1085958 -0.57320207
-4.991683 -9.3864832 -0.57487959
-5.919589 -11.13134 -0.57670093
-7.2872291 -13.703084 -0.58072597
-9.4441462 -17.759003 -0.58525753
-13.429377 -25.252928 -0.59436351
-23.202837 -43.631184 -0.61609632
-0.96608186 -1.8718042 -0.56441015
-1.0004762 -1.9384443 -0.56511551
-1.0401223 -2.0152593 -0.56743896
-1.0725976 -2.0781808 -0.56454468
-1.1137522 -2.1579189 -0.56488949
-1.1613283 -2.2500985 -0.56687874
-1.21271 -2.3496516 -0.56892478
-1.2570575 -2.435576 -0.56593782
-1.3180282 -2.5537078 -0.56852686
-1.3735652 -2.6613119 -0.56665963
-1.4359483 -2.7821805 -0.56548458
-1.5107814 -2.9271712 -0.56672579
-1.5878044 -3.0764053 -0.56603587
-1.6780784 -3.251313 -0.56703758
-1.7791126 -3.4470687 -0.56820565
-1.8880969 -3.6582284 -0.5681057
-2.0072384 -3.8890672 -0.56692928
-2.1540408 -4.1735001 -0.56874555
-2.3184636 -4.4920726 -0.56957161
-2.5067003 -4.8567853 -0.56985623
-2.7270918 -5.2837987 -0.57004529
-2.9970458 -5.8068404 -0.57170713
-3.309397 -6.4120274 -0.5709036
-3.7086804 -7.185648 -0.57220042
-4.2160482 -8.1686831 -0.57374156
-4.8793459 -9.4538374 -0.57528663
-5.7800412 -11.198954 -0.57647806
-7.1085162 -13.772902 -0.57993662
-9.2132225 -17.850817 -0.58450556
-13.10151 -25.384457 -0.59362257
-22.618841 -43.82449 -0.61485207
-0.9445855 -1.8867203 -0.56536269
-0.97041702 -1.9383162 -0.56155699
-1.0152861 -2.0279379 -0.56745076
-1.0458134 -2.0889134 -0.56392419
-1.0902698 -2.1777108 -0.56651825
-1.1348619 -2.2667794 -0.56752264
-1.1847377 -2.3664017 -0.56941003
-1.2306703 -2.4581475 -0.56762338
-1.2765628 -2.5498135 -0.56412256
-1.3394833 -2.6754911 -0.56612885
-1.4012073 -2.7987792 -0.56531358
-1.4794579 -2.9550772 -0.56856346
-1.5586369 -3.1132298 -0.56924194
-1.6382128 -3.2721751 -0.5671199
-1.7379284 -3.4713476 -0.56864208
-1.8493377 -3.6938772 -0.57006723
-1.966794 -3.9284849 -0.56910688
-2.1024759 -4.1994967 -0.56872213
-2.2648087 -4.5237412 -0.57001281
-2.4506502 -4.8949423 -0.57075441
-2.6603327 -5.3137627 -0.56970572
-2.9209306 -5.8342829 -0.57082957
-3.2361686 -6.4639411 -0.57193947
-3.6139894 -7.2186017 -0.57124263
-4.1129465 -8.2152214 -0.57341468
-4.7616234 -9.5108919 -0.57515204
-5.6395307 -11.264429 -0.57623523
-6.9401603 -13.862314 -0.58006424
-8.9860516 -17.948788 -0.58405131
-12.765679 -25.498238 -0.59256774
-22.038366 -44.01955 -0.61374038
-0.91971767 -1.894899 -0.56438196
-0.95428634 -1.966121 -0.56617004
-0.9921667 -2.0441661 -0.56853491
-1.0220884 -2.105814 -0.56505108
-1.0528032 -2.1690958 -0.56086689
-1.1066022 -2.2799382 -0.56736743
-1.1472449 -2.3636746 -0.56531668
-1.2039435 -2.4804909 -0.56932127
-1.2464235 -2.5680127 -0.56471545
-1.3009869 -2.6804299 -0.56374627
-1.3712665 -2.8252275 -0.56720704
-1.4356325 -2.9578412 -0.56565601
-1.5121441 -3.1154783 -0.56621039
-1.5960901 -3.2884326 -0.56649321
-1.6931329 -3.4883704 -0.56797725
-1.7927815 -3.6936769 -0.56659132
-1.9187921 -3.9532974 -0.56924027
-2.0564268 -4.2368665 -0.57031536
-2.2056189 -4.5442481 -0.56913632
-2.3870981 -4.9181504 -0.56999481
-2.5936458 -5.3437018 -0.56945318
-2.8475938 -5.8669119 -0.570553
-3.1456614 -6.4810224 -0.56998527
-3.5237479 -7.2599959 -0.57104629
-4.0052319 -8.2519999 -0.57250094
-4.6364512 -9.5525045 -0.57417744
-5.506465 -11.344997 -0.5768494
-6.7596693 -13.926981 -0.57924831
-8.7586727 -18.045538 -0.58365083
-12.439594 -25.62936 -0.59201539
-21.450817 -44.195229 -0.6124658
-0.90015304 -1.9141527 -0.56677699
-0.92881119 -1.9750935 -0.56542218
-0.96119851 -2.0439644 -0.56514883
-0.99839932 -2.123071 -0.56634462
-1.0396941 -2.2108831 -0.56832325
-1.0723612 -2.280349 -0.56414557
-1.1186094 -2.3786948 -0.56557649
-1.1672378 -2.4821014 -0.56635386
-1.2260292 -2.60712 -0.56995696
-1.277963 -2.7175562 -0.56820661
-1.3338352 -2.8363671 -0.56610787
-1.4043592 -2.9863343 -0.56775969
-1.4781374 -3.1432216 -0.56790626
-1.5557486 -3.30826 -0.56657052
-1.645492 -3.4990971 -0.56638646
-1.7528228 -3.7273333 -0.56840491
-1.8688275 -3.9740145 -0.56887144
-1.9964764 -4.2454567 -0.56812412
-2.1483207 -4.5683494 -0.56880331
-2.3212094 -4.9359932 -0.56871176
-2.5348639 -5.3903241 -0.57105672
-2.7739496 -5.8987336 -0.57028741
-3.0716596 -6.5318065 -0.57108659
-3.4381206 -7.3110766 -0.57169557
-3.9105763 -8.3157415 -0.57354367
-4.5183616 -9.608181 -0.57414103
-5.3558822 -11.389148 -0.57570213
-6.582974 -13.998528 -0.57881355
-8.5265141 -18.131416 -0.58299327
-12.109859 -25.75131 -0.59134793
-20.861067 -44.360535 -0.61115557
-0.86904091 -1.9085857 -0.56192195
-0.9072457 -1.9924909 -0.56716609
-0.94113606 -2.066921 -0.56825346
-0.96904415 -2.1282125 -0.56449485
-1.0082414 -2.2142975 -0.5659712
-1.050891 -2.3079643 -0.56773764
-1.0885794 -2.3907356 -0.56521398
-1.1425939 -2.509362 -0.56932509
-1.1833544 -2.5988801 -0.56493175
-1.2456625 -2.7357209 -0.56875896
-1.3015028 -2.8583577 -0.56725985
-1.3692007 -3.0070355 -0.56845146
-1.4375477 -3.1571388 -0.56718415
-1.5167685 -3.3311236 -0.56724906
-1.6013017 -3.5167749 -0.56601793
-1.7001493 -3.7338638 -0.56616992
-1.81785 -3.992358 -0.56825453
-1.9476087 -4.2773337 -0.56914204
-2.0863006 -4.5819287 -0.56725699
-2.2631958 -4.9704256 -0.56942946
-2.4593794 -5.4012837 -0.56897092
-2.6957788 -5.9204631 -0.56914037
-2.9878316 -6.5618687 -0.5704596
-3.3501506 -7.3575926 -0.57206839
-3.7983716 -8.3419743 -0.57208836
-4.397119 -9.6569433 -0.57378048
-5.2176337 -11.458956 -0.57594413
-6.4074359 -14.071996 -0.5785498
-8.300931 -18.230486 -0.58285272
-11.776587 -25.863714 -0.59055912
-20.272387 -44.522171 -0.60990202
-0.84619862 -1.920694 -0.56238085
-0.87926924 -1.9957573 -0.56497556
-0.90926445 -2.0638402 -0.56428993
-0.94171619 -2.1374989 -0.56384391
-0.98273486 -2.2306027 -0.56700724
-1.0199991 -2.3151848 -0.56638569
-1.0579602 -2.4013486 -0.56460476
-1.1080978 -2.5151503 -0.56750411
-1.1533704 -2.6179097 -0.56594265
-1.207185 -2.7400577 -0.56653166
-1.2630175 -2.8667858 -0.56580752
-1.3310925 -3.0213017 -0.56801128
-1.3992754 -3.1760628 -0.56744987
-1.4733615 -3.3442228 -0.56635177
-1.5635669 -3.54897 -0.56806225
-1.6588372 -3.7652137 -0.56778765
-1.7715963 -4.0211535 -0.5692094
-1.8943588 -4.2997985 -0.56898868
-2.0345426 -4.6179862 -0.56858081
-2.2005227 -4.9947267 -0.56907052
-2.3950047 -5.4361601 -0.56949949
-2.6175623 -5.9413195 -0.56800818
-2.9089053 -6.6026068 -0.57084841
-3.2562547 -7.3910179 -0.57151085
-3.6946566 -8.3860979 -0.57195544
-4.2758851 -9.7053652 -0.5734902
-5.072885 -11.514389 -0.57555151
-6.2300239 -14.140852 -0.57818741
-8.0651312 -18.306164 -0.58205748
-11.445168 -25.97814 -0.58991379
-19.685493 -44.681957 -0.60872895
-0.82759088 -1.9428608 -0.56584889
-0.8550297 -2.0072765 -0.56521738
-0.88369864 -2.07458 -0.56421268
-0.92375755 -2.1686227 -0.56901455
-0.95476651 -2.2414196 -0.56672966
-0.98980713 -2.3236814 -0.56544399
-1.0315149 -2.4215951 -0.56634009
-1.0749078 -2.5234647 -0.56635493
-1.121314 -2.6324081 -0.56605339
-1.168083 -2.7422035 -0.56396294
-1.2303895 -2.8884749 -0.56705928
-1.2902669 -3.0290439 -0.56644118
-1.3669945 -3.2091703 -0.57031864
-1.4328228 -3.3637094 -0.5666253
-1.512062 -3.5497322 -0.56516546
-1.6134257 -3.7876947 -0.56814307
-1.7124716 -4.020216 -0.56605315
-1.8411 -4.322185 -0.56891233
-1.9828076 -4.6548595 -0.57007569
-2.1372881 -5.0175195 -0.5686301
-2.3343918 -5.4802423 -0.57106727
-2.5481253 -5.9820051 -0.56885934
-2.8241115 -6.6299129 -0.57016373
-3.1631553 -7.4258556 -0.57115394
-3.5899236 -8.4277411 -0.5717417
-4.1555614 -9.7556381 -0.57339805
-4.9219947 -11.554925 -0.57450908
-6.0430522 -14.186731 -0.57698143
-7.8378429 -18.4002 -0.58193904
-11.109143 -26.079939 -0.5890789
-19.086927 -44.808666 -0.60721177
-0.80294281 -1.951196 -0.5653581
-0.83021069 -2.0174584 -0.56516713
-0.86283761 -2.0967436 -0.567312
-0.89013225 -2.1630712 -0.56464332
-0.9249227 -2.2476139 -0.56537741
-0.96347594 -2.3413002 -0.5668056
-0.9998284 -2.4296389 -0.56530327
-1.0433985 -2.5355167 -0.56613749
-1.0874184 -2.6424878 -0.56530279
-1.1369742 -2.7629108 -0.56530356
-1.197746 -2.9105897 -0.56846648
-1.2584567 -3.0581203 -0.56894177
-1.3159225 -3.1977654 -0.56537342
-1.386513 -3.3693039 -0.56465304
-1.4681363 -3.5676532 -0.56510174
-1.5657997 -3.8049808 -0.56780499
-1.6702483 -4.0587964 -0.56855059
-1.7889483 -4.3472443 -0.56927228
-1.9175358 -4.659719 -0.56774026
-2.0724981 -5.0362864 -0.56782591
-2.2572515 -5.4852471 -0.56865346
-2.4779563 -6.0215726 -0.56968141
-2.7423484 -6.6640601 -0.57015729
-3.0672045 -7.4534783 -0.57033449
-3.4879689 -8.4759588 -0.57205993
-4.0306067 -9.7945995 -0.57273167
-4.7816386 -11.619649 -0.57476026
-5.8674774 -14.258299 -0.57691413
-7.6016226 -18.472368 -0.58122128
-10.774323 -26.182207 -0.58835191
-18.501575 -44.959866 -0.60613191
-0.77730215 -1.9569207 -0.56420475
-0.80555373 -2.0280464 -0.56531554
-0.83215541 -2.0950181 -0.56403387
-0.86193597 -2.1699932 -0.56364095
-0.89780313 -2.2602916 -0.56574667
-0.93263924 -2.3479943 -0.56560707
-0.97318238 -2.4500651 -0.56722867
-1.0134403 -2.5514174 -0.56686252
-1.0587522 -2.665494 -0.56739646
-1.1056756 -2.7836273 -0.56671768
-1.1599331 -2.9202249 -0.56751972
-1.2146209 -3.0579062 -0.56608045
-1.2821579 -3.2279358 -0.56787723
-1.3455763 -3.3875966 -0.56490308
-1.4260767 -3.5902629 -0.56586266
-1.5222443 -3.8323727 -0.56905627
-1.62256 -4.0849252 -0.56937283
-1.7321339 -4.3607864 -0.56821346
-1.8645519 -4.6941595 -0.56909996
-2.0074785 -5.0539885 -0.56699574
-2.1945524 -5.5249624 -0.56993014
-2.3991296 -6.0400019 -0.568591
-2.6604607 -6.6979241 -0.57021254
-2.9801686 -7.5028138 -0.57126236
-3.3755047 -8.498105 -0.57071006
-3.9109256 -9.8460703 -0.57288599
-4.6339116 -11.666245 -0.57420319
-5.6919703 -14.329993 -0.57693946
-7.365346 -18.54285 -0.58054549
-10.434922 -26.270758 -0.58741397
-17.905121 -45.077583 -0.60470498
-0.75874901 -1.9808639 -0.56837499
-0.78426272 -2.0474725 -0.56799954
-0.80971563 -2.1139224 -0.56639999
-0.84317392 -2.2012718 -0.56902927
-0.86709875 -2.2637322 -0.56389648
-0.90044928 -2.3508003 -0.56357318
-0.94302177 -2.4619443 -0.56725138
-0.9811241 -2.5614181 -0.56636119
-1.0240525 -2.673491 -0.56637555
-1.0722879 -2.7994192 -0.56720543
-1.1236916 -2.9336185 -0.56739444
-1.1807706 -3.0826347 -0.56792748
-1.2382139 -3.2326016 -0.56597668
-1.3121874 -3.425724 -0.5685274
-1.3850067 -3.6158333 -0.56716567
-1.4717194 -3.8422136 -0.56778747
-1.5685633 -4.0950441 -0.56805187
-1.6808742 -4.3882537 -0.56905633
-1.801333 -4.7027349 -0.56741136
-1.9540858 -5.1015263 -0.56959021
-2.120837 -5.5368633 -0.56842458
-2.3245301 -6.068644 -0.56855351
-2.5724576 -6.7159076 -0.56900758
-2.8827009 -7.5258594 -0.57027495
-3.2711957 -8.5401011 -0.57078588
-3.7922001 -9.9002867 -0.57328403
-4.4885426 -11.718225 -0.57400161
-5.5154853 -14.399262 -0.57695413
-7.1277895 -18.6085 -0.57981294
-10.10764 -26.387989 -0.58721179
-17.31126 -45.194458 -0.60337168
-0.73186082 -1.9833361 -0.5664593
-0.75371635 -2.0425644 -0.56402415
-0.78389704 -2.1243536 -0.56656945
-0.81343853 -2.2044108 -0.56721222
-0.83691376 -2.2680285 -0.56236064
-0.87776095 -2.3787241 -0.56763703
-0.90990573 -2.4658363 -0.56552744
-0.94608516 -2.5638821 -0.56429106
-0.98958308 -2.681761 -0.56550694
-1.036104 -2.8078322 -0.56628585
-1.0834384 -2.9361081 -0.56525654
-1.1380401 -3.0840781 -0.5655725
-1.2025321 -3.2588511 -0.56794065
-1.2650331 -3.4282281 -0.56631863
-1.3383164 -3.6268253 -0.56626576
-1.4268864 -3.8668489 -0.56879216
-1.5121406 -4.097887 -0.56582415
-1.6263398 -4.4073663 -0.56889844
-1.7469757 -4.7342882 -0.56858355
-1.8889531 -5.1190457 -0.56890982
-2.0496917 -5.554646 -0.5676198
-2.2496872 -6.0966315 -0.56854093
-2.4978638 -6.7691879 -0.5708763
-2.797478 -7.5811396 -0.571814
-3.1709666 -8.5932903 -0.57169157
-3.6684725 -9.9415274 -0.5730167
-4.3459396 -11.777456 -0.57424194
-5.3318968 -14.449391 -0.57629216
-6.8957729 -18.687481 -0.579588
-9.7655125 -26.464449 -0.58619678
-16.721212 -45.314331 -0.60218149
-0.70818895 -1.9943521 -0.56707561
-0.73396593 -2.0669434 -0.56822097
-0.76458263 -2.1531641 -0.57170254
-0.78480816 -2.2101219 -0.56615579
-0.81271708 -2.288717 -0.56496978
-0.84273458 -2.3732502 -0.56381536
-0.87823212 -2.4732158 -0.56470048
-0.91713011 -2.5827577 -0.56592053
-0.95978767 -2.7028868 -0.56743014
-1.000746 -2.8182309 -0.56585848
-1.0499675 -2.9568453 -0.56672037
-1.100686 -3.0996749 -0.5659079
-1.1592116 -3.2644906 -0.56639653
-1.2207377 -3.4377563 -0.5653702
-1.293101 -3.6415403 -0.56603789
-1.3788763 -3.883095 -0.56864482
-1.4624089 -4.1183333 -0.56612158
-1.56782 -4.415185 -0.56737632
-1.6874201 -4.7519946 -0.56817514
-1.8190652 -5.1227245 -0.56678993
-1.9868954 -5.595356 -0.56924021
-2.1814284 -6.1431866 -0.57033777
-2.4048798 -6.7724543 -0.56861484
-2.6973975 -7.5962224 -0.57040673
-3.0573361 -8.6098566 -0.5702495
-3.537796 -9.9628935 -0.57169759
-4.1923695 -11.806258 -0.57308936
-5.1460171 -14.491854 -0.57541841
-6.6598482 -18.754999 -0.5790984
-9.4264774 -26.546186 -0.58539551
-16.12565 -45.41193 -0.60079801
-0.68387276 -2.0036678 -0.56729043
-0.70719934 -2.0720119 -0.56718087
-0.72981 -2.1382585 -0.56531936
-0.7508533 -2.199913 -0.56113309
-0.78467548 -2.2990081 -0.56508559
-0.81403691 -2.3850336 -0.56419402
-0.85017085 -2.4909019 -0.56630892
-0.88617176 -2.5963805 -0.56647497
-0.92268306 -2.7033544 -0.56510365
-0.96398544 -2.8243656 -0.56466746
-1.0140358 -2.9710071 -0.56700194
-1.0571957 -3.0974605 -0.5630877
-1.1211206 -3.2847531 -0.56747735
-1.1810858 -3.4604442 -0.56667012
-1.2469571 -3.6534395 -0.56546134
-1.3232316 -3.8769147 -0.56531429
-1.4133415 -4.1409264 -0.56679541
-1.5123469 -4.4310012 -0.56697613
-1.6311514 -4.7790842 -0.568973
-1.7587687 -5.152988 -0.56770265
-1.9187146 -5.6216111 -0.56946796
-2.0977597 -6.1461926 -0.56817907
-2.3223221 -6.8041344 -0.56883413
-2.6003528 -7.618732 -0.56965292
-2.9530478 -8.6520872 -0.57059836
-3.4155996 -10.007311 -0.57179308
-4.0455565 -11.853011 -0.57290077
-4.9618907 -14.537764 -0.57477528
-6.4259648 -18.827332 -0.57884824
-9.0912352 -26.636263 -0.58487254
-15.531876 -45.506592 -0.5994783
-0.65525359 -1.999926 -0.56390721
-0.67968941 -2.0745077 -0.56553346
-0.7035113 -2.1472154 -0.56535757
-0.72980326 -2.2274623 -0.56582832
-0.75918585 -2.317142 -0.56720537
-0.78577614 -2.3982992 -0.56500375
-0.81844729 -2.4980161 -0.56559551
-0.85649705 -2.6141493 -0.56801105
-0.89206237 -2.7226999 -0.5668118
-0.93226016 -2.8453891 -0.56653595
-0.97500998 -2.9758675 -0.56559873
-1.0249699 -3.1283524 -0.56636953
-1.0781882 -3.2907817 -0.56618559
-1.1402614 -3.4802382 -0.56757253
-1.2040772 -3.6750131 -0.56646597
-1.2812319 -3.9104998 -0.56787133
-1.3617841 -4.1563563 -0.56657261
-1.4549644 -4.4407558 -0.56589228
-1.5656232 -4.778502 -0.56656879
-1.7000089 -5.1886659 -0.56928724
-1.8477221 -5.6395073 -0.56893623
-2.0250359 -6.1806936 -0.56902361
-2.2401495 -6.8372512 -0.56925684
-2.5062351 -7.6493816 -0.5695973
-2.8399949 -8.6680632 -0.5693059
-3.2959952 -10.059841 -0.5724355
-3.8972843 -11.89506 -0.57257354
-4.7875972 -14.612419 -0.57535589
-6.1785331 -18.857752 -0.57740402
-8.7453508 -26.692041 -0.5836919
-14.940746 -45.601257 -0.59825993
-0.63061011 -2.0078197 -0.56390381
-0.65389138 -2.0819454 -0.56532639
-0.68308485 -2.1748955 -0.57039094
-0.70389229 -2.2411451 -0.5670625
-0.72354615 -2.3037217 -0.56169993
-0.75598568 -2.4070067 -0.56482244
-0.78971964 -2.5144134 -0.56706661
-0.8190859 -2.6079137 -0.56442499
-0.85340154 -2.7171724 -0.56343389
-0.89673674 -2.8551486 -0.56624085
-0.93827856 -2.9874151 -0.56555784
-0.98652744 -3.141036 -0.56642675
-1.0339019 -3.2918732 -0.56414342
-1.0920259 -3.4769359 -0.56480139
-1.1539278 -3.6740272 -0.56408429
-1.227849 -3.9093876 -0.56547451
-1.3146459 -4.1857429 -0.56833184
-1.4035792 -4.4689007 -0.5672366
-1.5039064 -4.7883353 -0.56549937
-1.6328654 -5.1989322 -0.56816769
-1.7712262 -5.6394634 -0.5666917
-1.9467977 -6.1984711 -0.56841338
-2.1516235 -6.8506227 -0.56812435
-2.4106848 -7.675456 -0.56928855
-2.7336025 -8.7036047 -0.5693894
-3.1642199 -10.07466 -0.57102162
-3.7492123 -11.937237 -0.57234132
-4.6009173 -14.649007 -0.57452542
-5.945775 -18.930943 -0.57736278
-8.4120703 -26.783459 -0.58338487
-14.348017 -45.683105 -0.59697396
-0.60580802 -2.015198 -0.56384128
-0.6282624 -2.0898917 -0.56534356
-0.65224904 -2.1696823 -0.56687748
-0.6756531 -2.247535 -0.56653434
-0.7042532 -2.3426721 -0.56904244
-0.72910196 -2.4253306 -0.56697559
-0.75696754 -2.5180247 -0.56573904
-0.7902717 -2.6288097 -0.56680149
-0.82259566 -2.7363341 -0.56526709
-0.86215359 -2.8679221 -0.56662875
-0.90197086 -3.0003726 -0.56586844
-0.94401169 -3.1402202 -0.56414372
-0.99627322 -3.3140662 -0.56580448
-1.048103 -3.4864757 -0.56421483
-1.1107333 -3.694813 -0.5651359
-1.1808161 -3.9279408 -0.56601518
-1.2604316 -4.1927791 -0.56713992
-1.3452584 -4.4749522 -0.5658623
-1.4464368 -4.8115182 -0.56609392
-1.5685301 -5.2176576 -0.56806332
-1.7043282 -5.6693845 -0.56754959
-1.8748029 -6.2364626 -0.56974018
-2.0662503 -6.8733053 -0.56785548
-2.3112218 -7.6881938 -0.56808245
-2.6295693 -8.7471647 -0.57008076
-3.0423315 -10.120204 -0.57143939
-3.6011786 -11.979188 -0.57218635
-4.4152417 -14.687138 -0.57384825
-5.7070694 -18.984354 -0.57680792
-8.0687933 -26.840542 -0.58242309
-13.751416 -45.743576 -0.59550947
-0.58258414 -2.0280638 -0.56539398
-0.60028177 -2.0896721 -0.56324482
-0.62215698 -2.1658227 -0.56382763
-0.64747131 -2.2539458 -0.56610066
-0.67232996 -2.3404825 -0.56645966
-0.69852149 -2.4316592 -0.56640422
-0.72926211 -2.538672 -0.56832027
-0.75668973 -2.6341517 -0.56590432
-0.79024899 -2.7509766 -0.56624168
-0.824817 -2.8713131 -0.56525213
-0.86774904 -3.020766 -0.56765932
-0.90687734 -3.1569777 -0.56510812
-0.9546876 -3.3234122 -0.56535316
-1.009187 -3.5131328 -0.56647772
-1.0645776 -3.7059562 -0.56479532
-1.131067 -3.9374161 -0.5653336
-1.2102175 -4.2129507 -0.56781256
-1.2931591 -4.5016832 -0.56718886
-1.3892113 -4.8360553 -0.56692809
-1.4998001 -5.2210317 -0.56638002
-1.6334627 -5.6863313 -0.56719244
-1.7961732 -6.2527514 -0.56916749
-1.9804801 -6.8943515 -0.56753939
-2.2172937 -7.7187357 -0.56828159
-2.5189626 -8.7688913 -0.56943494
-2.9145656 -10.146045 -0.57083172
-3.454051 -12.024076 -0.57225847
-4.2326908 -14.734639 -0.57362723
-5.4715085 -19.047152 -0.57662809
-7.7317181 -26.915283 -0.58193791
-13.165816 -45.832203 -0.59451073
-0.55534577 -2.0268319 -0.56310421
-0.5772984 -2.106952 -0.56594628
-0.59605491 -2.1754072 -0.564372
-0.61792368 -2.2552209 -0.56446987
-0.64189625 -2.3427131 -0.56504643
-0.66796094 -2.4378407 -0.56588817
-0.69379777 -2.5321369 -0.56490475
-0.72464335 -2.6447132 -0.56621617
-0.75568169 -2.7579932 -0.56573051
-0.78813356 -2.8764319 -0.56430936
-0.8268978 -3.0179088 -0.56516892
-0.87179422 -3.1817663 -0.56758356
-0.91404504 -3.335968 -0.56553429
-0.96455336 -3.5203068 -0.56567925
-1.0221164 -3.7303934 -0.56656134
-1.0868126 -3.9665139 -0.56754977
-1.1562296 -4.2198629 -0.56678516
-1.2326661 -4.4988317 -0.56487709
-1.3320431 -4.8615251 -0.56795084
-1.437669 -5.247026 -0.56723922
-1.5658729 -5.7149286 -0.56808138
-1.7143745 -6.2569113 -0.56758428
-1.9009511 -6.9378552 -0.56915331
-2.1242604 -7.7528615 -0.56882793
-2.4108858 -8.7989511 -0.56941885
-2.7846639 -10.16312 -0.56982285
-3.3014474 -12.049212 -0.5714795
-4.0469465 -14.770043 -0.57302493
-5.2287869 -19.083378 -0.57573479
-7.3915105 -26.976618 -0.58125496
-12.571162 -45.880669 -0.5930894
-0.52787036 -2.0238743 -0.56043673
-0.55156302 -2.114713 -0.56616634
-0.56998414 -2.1853402 -0.56508791
-0.59537715 -2.2826977 -0.56947166
-0.61350346 -2.3521945 -0.56547105
-0.63724852 -2.4432342 -0.56527847
-0.66286772 -2.5414593 -0.56512338
-0.69125783 -2.6503079 -0.5655514
-0.72259754 -2.7704654 -0.56642348
-0.75660288 -2.9008431 -0.56723034
-0.79211634 -3.037003 -0.56687778
-0.8296659 -3.1809695 -0.56557876
-0.87312847 -3.3476064 -0.56564444
-0.92248881 -3.5368559 -0.56647295
-0.97300911 -3.7305524 -0.56472564
-1.0334578 -3.9623148 -0.56508797
-1.1022913 -4.2262254 -0.56577641
-1.1817464 -4.530859 -0.56703103
-1.2677159 -4.8604693 -0.56596363
-1.376129 -5.2761292 -0.56851315
-1.4953542 -5.733243 -0.56803119
-1.6338795 -6.2643538 -0.56639409
-1.8091421 -6.936317 -0.5671593
-2.0289867 -7.7792091 -0.56888753
-2.3021674 -8.8265944 -0.56933272
-2.6600804 -10.198846 -0.56994885
-3.1511214 -12.081514 -0.57113063
-3.8654692 -14.820351 -0.5730893
-4.9862041 -19.11729 -0.57486469
-7.0464215 -27.016237 -0.58019787
-11.97947 -45.929729 -0.5917747
-0.50731415 -2.0478449 -0.5653044
-0.52332568 -2.112478 -0.56380254
-0.54429334 -2.1971169 -0.56635964
-0.56230247 -2.2698133 -0.56448972
-0.58297753 -2.353271 -0.56396383
-0.6063692 -2.4476948 -0.56454271
-0.63298899 -2.5551493 -0.56639397
-0.65719211 -2.6528487 -0.56432652
-0.68662608 -2.771663 -0.56489944
-0.71995664 -2.9062064 -0.56650519
-0.75398362 -3.0435612 -0.56632853
-0.78907901 -3.1852288 -0.56456822
-0.83131784 -3.3557317 -0.56524742
-0.87707055 -3.5404189 -0.56527352
-0.93210286 -3.7625647 -0.56779361
-0.98707551 -3.9844694 -0.56647372
-1.0467546 -4.2253723 -0.56389648
-1.1216187 -4.5275722 -0.56485093
-1.2099972 -4.8843246 -0.56696594
-1.3089666 -5.2838283 -0.5675655
-1.4214424 -5.7378526 -0.56671333
-1.5596294 -6.2956643 -0.5674482
-1.7271377 -6.9718347 -0.56828398
-1.930686 -7.7934861 -0.56815249
-2.1899536 -8.8400564 -0.56842113
-2.5338857 -10.228387 -0.56981546
-3.001507 -12.116007 -0.57097328
-3.6801164 -14.855309 -0.57264793
-4.7504745 -19.175961 -0.57482892
-6.7075634 -27.076025 -0.57966673
-11.388449 -45.971081 -0.59045851
-0.48080581 -2.0484295 -0.56379104
-0.50185835 -2.1381218 -0.56895661
-0.5162366 -2.199379 -0.56526375
-0.53688455 -2.2873478 -0.56716573
-0.55453795 -2.3625584 -0.56451273
-0.57609516 -2.454401 -0.56441289
-0.60015517 -2.5569065 -0.56510484
-0.62476343 -2.6617477 -0.56454259
-0.65343869 -2.783916 -0.56571633
-0.67882991 -2.8920929 -0.56208444
-0.71343994 -3.0395458 -0.56390637
-0.75217378 -3.2045679 -0.5663138
-0.78894281 -3.3612189 -0.56449491
-0.83494848 -3.5572219 -0.56627429
-0.88192481 -3.7573602 -0.56532902
-0.93663603 -3.9904525 -0.56564415
-1.002476 -4.2709575 -0.56829196
-1.0710008 -4.5629015 -0.56757265
-1.1477064 -4.8896985 -0.56590885
-1.2415574 -5.2895422 -0.56649655
-1.3497851 -5.7506366 -0.56629384
-1.4818766 -6.3134003 -0.56736153
-1.638196 -6.9793849 -0.56721455
-1.833955 -7.8133988 -0.56791723
-2.0837617 -8.877677 -0.56914955
-2.4096034 -10.265896 -0.57021129
-2.8520644 -12.150961 -0.57092464
-3.4940157 -14.885936 -0.57212913
-4.5123978 -19.224661 -0.5745821
-6.3691654 -27.13525 -0.57921416
-10.801429 -46.018505 -0.58931714
-0.45849735 -2.0673273 -0.56739771
-0.47218946 -2.1290638 -0.56495857
-0.48801428 -2.2004166 -0.56394553
-0.5056532 -2.2799492 -0.56374687
-0.52535391 -2.368778 -0.56441259
-0.54960996 -2.4781466 -0.56827635
-0.56818885 -2.5619173 -0.56462544
-0.59338564 -2.6755276 -0.56587493
-0.62038225 -2.7972531 -0.56683356
-0.64611655 -2.9132869 -0.56461674
-0.68015689 -3.066772 -0.56736296
-0.7135337 -3.2172654 -0.56696433
-0.74901664 -3.3772552 -0.56559849
-0.79492635 -3.5842583 -0.56897914
-0.8369832 -3.7738891 -0.56622458
-0.88810331 -4.0043855 -0.56602836
-0.94566983 -4.2639484 -0.56576926
-1.0120599 -4.5632963 -0.56603098
-1.0872061 -4.9021239 -0.56575686
-1.1786934 -5.3146329 -0.56758857
-1.2798721 -5.7708392 -0.56669068
-1.4037892 -6.3295712 -0.56722057
-1.5527149 -7.0010657 -0.56738192
-1.7379365 -7.8362141 -0.56797934
-1.9703759 -8.8842649 -0.5679757
-2.2781708 -10.272087 -0.5689562
-2.7000759 -12.174422 -0.57042384
-3.306107 -14.906968 -0.5713318
-4.2691236 -19.24913 -0.57370108
-6.0213318 -27.149696 -0.57789838
-10.209517 -46.033886 -0.58786201
-0.43151134 -2.0654733 -0.56538981
-0.4440316 -2.1254027 -0.56249571
-0.46089903 -2.2061405 -0.56391734
-0.47879395 -2.2917962 -0.56517774
-0.49825668 -2.3849568 -0.56676489
-0.51431203 -2.461807 -0.56303668
-0.53588432 -2.5650651 -0.56382436
-0.55914444 -2.6764021 -0.56456304
-0.58298612 -2.7905228 -0.56397438
-0.61047864 -2.9221184 -0.56483078
-0.63718206 -3.0499372 -0.56275636
-0.67144382 -3.2139347 -0.56487966
-0.70945251 -3.3958671 -0.56721163
-0.74478221 -3.5649765 -0.56442183
-0.78878224 -3.7755871 -0.5649814
-0.84163177 -4.0285568 -0.56793922
-0.89305103 -4.2746806 -0.56569344
-0.95577276 -4.5749044 -0.56597024
-1.0266131 -4.9139891 -0.56562656
-1.1109736 -5.3177891 -0.56642389
-1.2070204 -5.7775273 -0.56584716
-1.3250991 -6.3427229 -0.56689614
-1.4659164 -7.0167589 -0.56715006
-1.6400018 -7.8500366 -0.56747657
-1.8588712 -8.8976774 -0.56732899
-2.1484311 -10.283686 -0.56809241
-2.5486906 -12.199569 -0.57009053
-3.1253643 -14.959877 -0.57184345
-4.0275612 -19.278336 -0.57305217
-5.6804318 -27.18997 -0.57722521
-9.6263885 -46.077698 -0.58686548
-0.40752652 -2.0779853 -0.56740016
-0.42233732 -2.1535058 -0.5685159
-0.43559298 -2.2210968 -0.56632841
-0.4488765 -2.2888296 -0.5630424
-0.46995553 -2.396312 -0.56804717
-0.4857128 -2.4766586 -0.56502461
-0.50743425 -2.5874166 -0.56732303
-0.52830005 -2.6938117 -0.56682229
-0.54946321 -2.8017232 -0.56482989
-0.57374406 -2.9255316 -0.56408417
-0.59919906 -3.0553272 -0.5623489
-0.63279057 -3.2266109 -0.56569725
-0.66669399 -3.3994851 -0.56640381
-0.70121515 -3.5755091 -0.56468153
-0.74074274 -3.777061 -0.56379634
-0.78696769 -4.012763 -0.56430572
-0.83929032 -4.2795572 -0.56493032
-0.90038979 -4.5911045 -0.56656188
-0.96797025 -4.9356985 -0.5667125
-1.0440379 -5.3235688 -0.5656293
-1.1364577 -5.7948194 -0.56612927
-1.2447188 -6.3468447 -0.56585377
-1.380442 -7.0388999 -0.56752473
-1.543245 -7.8690352 -0.56743532
-1.7523072 -8.9350471 -0.56829488
-2.0234637 -10.317679 -0.56855279
-2.3960536 -12.217523 -0.56950969
-2.9354367 -14.967847 -0.5707252
-3.7879727 -19.314943 -0.57271248
-5.3408341 -27.233013 -0.57670116
-9.0374012 -46.081875 -0.58545905
-0.37890968 -2.0662825 -0.56288993
-0.39440888 -2.1508033 -0.56647927
-0.4055866 -2.2117581 -0.5626331
-0.42217112 -2.3021972 -0.56501102
-0.43772399 -2.3870108 -0.56452364
-0.4549028 -2.4806907 -0.56462568
-0.4712356 -2.5697572 -0.56213796
-0.49347544 -2.6910362 -0.56491876
-0.51542497 -2.8107321 -0.56532556
-0.53863466 -2.9373 -0.5650335
-0.56298399 -3.0700827 -0.56374794
-0.59159064 -3.2260814 -0.56428641
-0.62396157 -3.4026077 -0.56560296
-0.65711957 -3.5834258 -0.56461304
-0.69399416 -3.7845113 -0.56359202
-0.7378847 -4.0238566 -0.56454718
-0.78752774 -4.2945719 -0.56559128
-0.8417995 -4.590528 -0.56517071
-0.90777862 -4.9503279 -0.56706774
-0.97934127 -5.3405757 -0.56611395
-1.0654712 -5.8102617 -0.56631517
-1.1690819 -6.3752756 -0.56706399
-1.2926999 -7.0493937 -0.56704634
-1.4466473 -7.8889041 -0.56754243
-1.6391944 -8.9389076 -0.56721556
-1.8963403 -10.341185 -0.56852007
-2.2419269 -12.225748 -0.56856507
-2.7515314 -15.00474 -0.5707987
-3.5489528 -19.353266 -0.57251149
-4.9968176 -27.248808 -0.57569098
-8.4518909 -46.090126 -0.58419931
-0.35522845 -2.0810578 -0.56568223
-0.3673977 -2.1523497 -0.56565392
-0.38078034 -2.2307501 -0.56623042
-0.39527088 -2.3156409 -0.56707466
-0.40869242 -2.3942692 -0.56500906
-0.42510441 -2.4904165 -0.56560683
-0.44192195 -2.5889399 -0.5651027
-0.46043646 -2.6974046 -0.56502438
-0.47948217 -2.8089814 -0.56374496
-0.5021069 -2.9415252 -0.56461591
-0.52713656 -3.0881581 -0.56583405
-0.55328786 -3.2413619 -0.5657264
-0.58179671 -3.4083772 -0.56533009
-0.61338931 -3.5934584 -0.56496263
-0.64934045 -3.8040733 -0.5652734
-0.6907692 -4.0467777 -0.56652844
-0.73311818 -4.2948737 -0.56440115
-0.78633332 -4.6066275 -0.56591958
-0.84622318 -4.9574838 -0.56665266
-0.91644365 -5.3688612 -0.56787479
-0.99461675 -5.8268275 -0.56669492
-1.0866894 -6.3662224 -0.56502748
-1.2063599 -7.067296 -0.56725031
-1.3472214 -7.8925138 -0.56656748
-1.5281824 -8.9526501 -0.56685227
-1.7670488 -10.352016 -0.56787813
-2.0902531 -12.245465 -0.56824374
-2.5649703 -15.026531 -0.57038468
-3.3059015 -19.367176 -0.57167727
-4.655148 -27.271555 -0.57491875
-7.8685369 -46.09676 -0.583013
-0.32827562 -2.0768018 -0.56338555
-0.33912668 -2.1454499 -0.56270218
-0.35209244 -2.2274766 -0.56425792
-0.36407614 -2.3032904 -0.56291127
-0.37814772 -2.3923125 -0.56340742
-0.39270723 -2.484422 -0.56310612
-0.40955633 -2.5910158 -0.56441396
-0.42551869 -2.6920002 -0.56275374
-0.44415525 -2.8099024 -0.56279117
-0.46674815 -2.9528341 -0.56564224
-0.48848578 -3.0903552 -0.56509328
-0.51184219 -3.238117 -0.56401891
-0.5393464 -3.4121196 -0.56480813
-0.56860054 -3.5971925 -0.56440783
-0.60519528 -3.8287058 -0.56778497
-0.63891679 -4.0420413 -0.56472284
-0.68158275 -4.3119631 -0.56550276
-0.73053747 -4.6216702 -0.56662112
-0.78369588 -4.9579711 -0.5655641
-0.84799236 -5.3647366 -0.56629282
-0.92150009 -5.8297753 -0.56583679
-1.0111761 -6.3971019 -0.56662178
-1.1176257 -7.0705442 -0.56636512
-1.2508019 -7.9130702 -0.56689614
-1.4194887 -8.9802494 -0.56745172
-1.6408463 -10.380645 -0.56829876
-1.9410347 -12.279756 -0.5686844
-2.3779233 -15.043687 -0.56988293
-3.0661395 -19.397615 -0.57141972
-4.3139482 -27.29175 -0.57418281
-7.2860518 -46.094456 -0.58180672
-0.30293092 -2.0821626 -0.56378663
-0.31180522 -2.1431592 -0.56105328
-0.32477862 -2.2323303 -0.5644331
-0.3350988 -2.3032651 -0.56185561
-0.3493872 -2.401475 -0.5645107
-0.36355585 -2.4988613 -0.56532288
-0.37923199 -2.6066098 -0.56675214
-0.39374858 -2.7063878 -0.56470662
-0.41036806 -2.8206201 -0.5638845
-0.42783093 -2.9406493 -0.56225783
-0.45203635 -3.1070225 -0.56708175
-0.47153458 -3.2410414 -0.56347579
-0.49782547 -3.4217491 -0.56534606
-0.52466673 -3.6062396 -0.56477237
-0.5557425 -3.8198354 -0.56541336
-0.59153301 -4.0658374 -0.56698835
-0.6270237 -4.3097792 -0.56416249
-0.67132175 -4.6142569 -0.56465751
-0.72209561 -4.9632454 -0.56511015
-0.78123474 -5.3697319 -0.56576329
-0.84996718 -5.8421569 -0.56598133
-0.93257713 -6.4099669 -0.56670272
-1.0315255 -7.0900779 -0.56687093
-1.1528591 -7.9240508 -0.5666244
-1.3062521 -8.9783812 -0.56627589
-1.5089959 -10.371919 -0.56676239
-1.7883291 -12.291885 -0.56818479
-2.1874537 -15.035224 -0.5685004
-2.8241541 -19.411514 -0.57076299
-3.97335 -27.310389 -0.57350361
-6.7027998 -46.070961 -0.58042598
-0.27854502 -2.0950437 -0.56630427
-0.28796133 -2.1658676 -0.5660283
-0.29726666 -2.2358563 -0.56435776
-0.30770239 -2.3143475 -0.56359345
-0.32022467 -2.4085324 -0.5652014
-0.33298668 -2.5045202 -0.56563401
-0.34640586 -2.6054511 -0.56553131
-0.36175162 -2.7208724 -0.56675792
-0.37535802 -2.8232114 -0.56343722
-0.39411956 -2.964324 -0.56581509
-0.41330609 -3.1086333 -0.56640536
-0.43320805 -3.2583237 -0.56551152
-0.45447105 -3.4182508 -0.56380212
-0.48006445 -3.6107488 -0.56451136
-0.5059284 -3.8052814 -0.56229568
-0.53926027 -4.0559831 -0.56464678
-0.57596231 -4.3320332 -0.56610578
-0.61592937 -4.6326408 -0.56593758
-0.66101635 -4.9717574 -0.5651111
-0.71390855 -5.3695798 -0.56477964
-0.77691877 -5.8435035 -0.56514359
-0.85232514 -6.4106636 -0.56579494
-0.94340014 -7.095674 -0.56634802
-1.0551318 -7.9360504 -0.56651187
-1.1982824 -9.0127401 -0.56747073
-1.3802989 -10.381757 -0.56632972
-1.6357461 -12.303073 -0.56772929
-2.0038626 -15.071818 -0.56890941
-2.5810671 -19.413195 -0.56983608
-3.6331654 -27.326427 -0.57285899
-6.123189 -46.054852 -0.57923061
-0.25163749 -2.0889564 -0.56377977
-0.26056147 -2.1630383 -0.56440896
-0.27019751 -2.2430315 -0.56528747
-0.28095305 -2.3323181 -0.5670855
-0.29103187 -2.4159868 -0.56606811
-0.30164105 -2.5040584 -0.56464934
-0.31424564 -2.6086948 -0.56535393
-0.32601908 -2.7064314 -0.56287223
-0.34242219 -2.8426011 -0.56642377
-0.35583198 -2.9539218 -0.56295186
-0.37302512 -3.0966499 -0.56334358
-0.39410365 -3.2716322 -0.56693739
-0.41201025 -3.4202828 -0.56325907
-0.43597254 -3.619205 -0.56495261
-0.46077728 -3.8251202 -0.56434733
-0.48902711 -4.0596347 -0.56427532
-0.52048999 -4.3208222 -0.56376171
-0.55896819 -4.6402473 -0.56598437
-0.60001415 -4.980988 -0.56527895
-0.64817041 -5.3807554 -0.56507409
-0.7045359 -5.8486705 -0.56476271
-0.77278203 -6.4152126 -0.56531501
-0.85619909 -7.1076951 -0.56642437
-0.95789891 -7.951951 -0.56676328
-1.085259 -9.0092249 -0.56636637
-1.2538491 -10.408768 -0.56691927
-1.4853647 -12.330683 -0.56811756
-1.8163824 -15.07861 -0.56827974
-2.3425853 -19.446859 -0.56993562
-3.2933857 -27.339882 -0.57224882
-5.5435314 -46.019356 -0.57788324
-0.22630726 -2.0953519 -0.56471211
-0.23444901 -2.1707356 -0.56562239
-0.24272393 -2.2473519 -0.56558138
-0.25061765 -2.3204391 -0.56340528
-0.2599839 -2.40716 -0.56320834
-0.27083954 -2.5076711 -0.56467032
-0.28119868 -2.603585 -0.56345457
-0.29315847 -2.7143195 -0.56372046
-0.30687174 -2.8412888 -0.56536764
-0.32013807 -2.9641204 -0.56410259
-0.33613145 -3.1122012 -0.56537801
-0.35151312 -3.2546182 -0.56319743
-0.37123534 -3.4372237 -0.56525445
-0.39040765 -3.614738 -0.56346333
-0.41573763 -3.8492651 -0.56711251
-0.44016424 -4.075428 -0.56567544
-0.46847355 -4.3375411 -0.56514877
-0.50092304 -4.6379871 -0.56491464
-0.53918678 -4.9922662 -0.56576371
-0.58254546 -5.3937192 -0.56564051
-0.63391197 -5.8693151 -0.56596076
-0.69312042 -6.4175196 -0.56472456
-0.767335 -7.1046634 -0.56538808
-0.85828769 -7.9467835 -0.56559998
-0.97315097 -9.0102892 -0.56563824
-1.1250309 -10.416527 -0.56654555
-1.3309164 -12.322797 -0.56695735
-1.6294239 -15.086642 -0.56778437
-2.0996497 -19.440407 -0.56894684
-2.9508591 -27.321653 -0.57106465
-4.9647441 -45.967976 -0.57642782
-0.20127741 -2.1058307 -0.56682634
-0.20691091 -2.1647701 -0.56336248
-0.21491939 -2.2485576 -0.56517696
-0.22247939 -2.3276527 -0.56444991
-0.22972421 -2.4034505 -0.5616371
-0.23832981 -2.4934852 -0.56077367
-0.24927448 -2.6079919 -0.56370229
-0.25978398 -2.7179458 -0.56376749
-0.27154568 -2.8410006 -0.56460315
-0.2852675 -2.9845626 -0.5672825
-0.29800943 -3.117873 -0.56569988
-0.31188923 -3.2630882 -0.56395686
-0.3292017 -3.444217 -0.565696
-0.34694934 -3.6298985 -0.56511879
-0.36605549 -3.8297935 -0.56353796
-0.39037687 -4.0842519 -0.56619108
-0.4149794 -4.3416514 -0.56497681
-0.44472206 -4.6528292 -0.56601357
-0.47625974 -4.9827867 -0.56398302
-0.51571709 -5.3956027 -0.56513023
-0.56152093 -5.8748174 -0.56578273
-0.61593086 -6.4440722 -0.56635183
-0.68019819 -7.1164579 -0.56561834
-0.76090246 -7.9608126 -0.56588978
-0.86212552 -9.0198421 -0.56552964
-0.99708623 -10.431845 -0.56666905
-1.1795557 -12.3409 -0.56708008
