# .PCD v0.7 - Point Cloud Data file format
VERSION 0.7
FIELDS x y z
SIZE 4 4 4
TYPE F F F
COUNT 1 1 1
WIDTH 1461
HEIGHT 1
VIEWPOINT 0 0 0 1 0 0 0
POINTS 1461
DATA ascii
1.6384755 -5.1067109 -0.55918002
1.7855713 -5.5651708 -0.5603193
1.9548374 -6.09273 -0.55980867
2.155385 -6.7177854 -0.55819702
2.4129677 -7.5206056 -0.55889344
2.7316735 -8.5139294 -0.55806953
3.1454182 -9.8034668 -0.55673665
3.7123232 -11.570365 -0.55583566
4.5245485 -14.101865 -0.55414778
5.7896919 -18.044994 -0.55141848
8.0315704 -25.032356 -0.54630888
13.106709 -40.850273 -0.53486317
0.66581011 -1.9906806 -0.56244433
0.68858725 -2.0587809 -0.56239009
0.70969641 -2.1218944 -0.55982929
0.73610985 -2.2008672 -0.56021202
0.76575339 -2.2894971 -0.5615806
0.79776573 -2.3852098 -0.56306535
0.82766628 -2.4746082 -0.56143755
0.86272979 -2.5794432 -0.56161231
0.89898551 -2.6878428 -0.56069577
0.94280273 -2.8188503 -0.56239587
0.98169184 -2.9351234 -0.55899185
1.0344256 -3.0927901 -0.56107247
1.0858785 -3.2466269 -0.55972719
1.1502607 -3.4391208 -0.56201011
1.2169176 -3.6384161 -0.56196803
1.2864943 -3.8464406 -0.55970728
1.3694214 -4.0943809 -0.55926198
1.4665285 -4.3847184 -0.55989021
1.577269 -4.715817 -0.56027609
1.7035654 -5.0934258 -0.55997676
1.8500974 -5.5315366 -0.55918115
2.0292401 -6.0671482 -0.55970854
2.23721 -6.6889501 -0.55804467
2.5057347 -7.4918017 -0.55900043
2.8241255 -8.4437466 -0.5557034
3.2678125 -9.7703094 -0.5570935
3.8506165 -11.512813 -0.55530345
4.6912026 -14.026049 -0.55339348
6.0004573 -17.94054 -0.55043966
8.3297844 -24.904907 -0.54572153
13.587761 -40.625534 -0.53406787
0.69259894 -1.9891289 -0.56436956
0.71592909 -2.0561328 -0.56402886
0.74036503 -2.1263123 -0.56335419
0.76231456 -2.1893506 -0.55962431
0.79621047 -2.2866991 -0.56325316
0.82112229 -2.3582454 -0.55904126
0.85323197 -2.4504635 -0.55829775
0.88975245 -2.5553498 -0.5587064
0.93519711 -2.6858659 -0.56263965
0.97941285 -2.8128524 -0.56355941
1.0263985 -2.9477942 -0.563766
1.0750513 -3.0875239 -0.5624727
1.1290482 -3.2426019 -0.56138438
1.1901859 -3.4181879 -0.56093854
1.2572693 -3.6108499 -0.56005585
1.3390963 -3.8458552 -0.56197566
1.4249732 -4.0924921 -0.56135494
1.5224504 -4.3724446 -0.56067103
1.6297325 -4.6805563 -0.55842561
1.7669816 -5.0747328 -0.56026798
1.9216759 -5.5190115 -0.56026137
2.1005082 -6.0326138 -0.55886316
2.3190258 -6.6601911 -0.55798221
2.5981944 -7.4619579 -0.55911517
2.9366052 -8.4338665 -0.55738753
3.3849685 -9.7215557 -0.55664486
3.9879405 -11.453279 -0.55475527
4.8573904 -13.950319 -0.55272043
6.2233572 -17.873346 -0.55068433
8.6221447 -24.762613 -0.54488552
14.061151 -40.38332 -0.5331164
0.7143628 -1.9731674 -0.56229061
0.74054551 -2.0454876 -0.56356406
0.76622254 -2.116411 -0.56318462
0.79293931 -2.1902065 -0.56229287
0.82368261 -2.2751236 -0.56285423
0.85856217 -2.3714657 -0.56463528
0.88752192 -2.4514565 -0.56096804
0.92832893 -2.5641711 -0.56308842
0.96380162 -2.6621513 -0.56011224
1.0075321 -2.7829411 -0.56000644
1.0549766 -2.9139891 -0.55973947
1.1091826 -3.0637138 -0.56057739
1.1695253 -3.2303882 -0.56171715
1.2298017 -3.3968799 -0.55988109
1.3053669 -3.6056013 -0.5616889
1.3824506 -3.818517 -0.56042254
1.4757839 -4.0763164 -0.56158292
1.5781575 -4.359086 -0.56140405
1.6925223 -4.6749773 -0.56020063
1.8233198 -5.0362577 -0.55845332
1.986468 -5.4868951 -0.55943847
2.1761672 -6.0108709 -0.55928564
2.4016337 -6.6336398 -0.55818969
2.6830227 -7.4108748 -0.55771744
3.0396185 -8.3958406 -0.55730247
3.5002425 -9.6681471 -0.55600911
4.1263933 -11.39766 -0.55447704
5.0296788 -13.892658 -0.55284446
6.4268641 -17.751875 -0.54933506
8.9155502 -24.625965 -0.54424983
14.526292 -40.123596 -0.53200555
0.73855734 -1.9642013 -0.56228101
0.76369101 -2.0310445 -0.56212956
0.79037935 -2.1020224 -0.56189954
0.82534391 -2.1950111 -0.56608909
0.85418212 -2.2717066 -0.56456465
0.88735354 -2.3599262 -0.56444305
0.91997218 -2.446676 -0.56242019
0.9571467 -2.545542 -0.56153959
0.99829131 -2.6549666 -0.56114089
1.0447059 -2.7784066 -0.56163657
1.0914726 -2.9027834 -0.56012273
1.1456404 -3.0468428 -0.56002575
1.2100408 -3.2181168 -0.56212807
1.2725157 -3.3842692 -0.56033927
1.3481627 -3.5854533 -0.56109029
1.4261513 -3.7928648 -0.5591892
1.523778 -4.0525041 -0.56084126
1.6291933 -4.3328571 -0.56056374
1.7503302 -4.6550221 -0.56034613
1.8899456 -5.0263309 -0.55988717
2.0535858 -5.461534 -0.559385
2.2490404 -5.9813471 -0.55906951
2.4809959 -6.5982356 -0.5577355
2.7752793 -7.3808856 -0.55798662
3.1395581 -8.3496885 -0.55675948
3.6107728 -9.6028891 -0.55476767
4.265986 -11.345436 -0.55444646
5.1908364 -13.805086 -0.55185789
6.6461039 -17.675385 -0.54945552
9.213335 -24.502964 -0.54399413
14.991507 -39.870071 -0.53104812
0.76326996 -1.9565548 -0.56273633
0.78570741 -2.0140705 -0.56006336
0.81410635 -2.086868 -0.56048214
0.84193188 -2.1581955 -0.55922216
0.87812674 -2.250977 -0.56205392
0.9118005 -2.3372958 -0.56166953
0.95641571 -2.4516616 -0.56622684
0.9845469 -2.5237727 -0.55936569
1.0311856 -2.6433258 -0.56131804
1.0793532 -2.7667978 -0.5619303
1.1310735 -2.8993766 -0.56210661
1.1874884 -3.0439899 -0.56214279
1.2501295 -3.2045631 -0.56240326
1.307603 -3.3518898 -0.55759823
1.3959434 -3.5783403 -0.56262082
1.4771006 -3.7863777 -0.5608682
1.5698718 -4.0241857 -0.55955142
1.6777226 -4.3006492 -0.55902356
1.8049183 -4.6267004 -0.5595662
1.9492857 -4.9967699 -0.5592221
2.119056 -5.4319563 -0.55898213
2.3248949 -5.9596009 -0.55966669
2.5619738 -6.5673256 -0.55774349
2.8612697 -7.3345361 -0.55710036
3.2408614 -8.3075752 -0.55656654
3.7328837 -9.5688181 -0.55540907
4.404963 -11.291616 -0.55442142
5.3596392 -13.738819 -0.55180168
6.8511105 -17.562035 -0.54850924
9.489809 -24.326035 -0.54261577
15.456718 -39.621521 -0.53022897
0.78689015 -1.9460847 -0.56246537
0.81203586 -2.0082734 -0.56118554
0.84092975 -2.0797319 -0.56130034
0.86835337 -2.1475542 -0.55918926
0.90587318 -2.2403457 -0.5621382
0.94519234 -2.3375871 -0.56448984
0.98481256 -2.4355733 -0.56526524
1.0159279 -2.5125258 -0.55959946
1.0625061 -2.6277196 -0.56073612
1.1126151 -2.751646 -0.56158918
1.1651146 -2.8814845 -0.56137294
1.2186224 -3.0138166 -0.55929559
1.2854548 -3.1791017 -0.56066638
1.3537369 -3.3479726 -0.55967337
1.4302304 -3.5371513 -0.55886763
1.5202852 -3.7598691 -0.55966836
1.6232373 -4.014483 -0.56093532
1.7297522 -4.2779088 -0.55879021
1.8598024 -4.5995402 -0.55900496
2.012125 -4.9762545 -0.55965281
2.1866388 -5.4078507 -0.55922621
2.3936586 -5.9198384 -0.55865449
2.6379578 -6.5240231 -0.55677867
2.9528446 -7.3027802 -0.5574041
3.3418255 -8.264782 -0.55641055
3.8503962 -9.5225449 -0.5554294
4.5364804 -11.219323 -0.5535689
5.5319018 -13.681134 -0.55217516
7.0593681 -17.458763 -0.54795355
9.7851067 -24.199879 -0.54244465
15.910585 -39.34901 -0.52916032
0.81030977 -1.93519 -0.56215388
0.83775681 -2.0007391 -0.56191629
0.8642534 -2.0640185 -0.55988532
0.89975572 -2.1488056 -0.56235343
0.93325984 -2.2288203 -0.5620833
0.96778464 -2.3112731 -0.56096673
1.0060017 -2.4025433 -0.56042802
1.0515194 -2.5112493 -0.56215245
1.1014844 -2.6305761 -0.56419325
1.147566 -2.7406285 -0.56217808
1.2016743 -2.8698506 -0.56194264
1.2621396 -3.0142543 -0.56221443
1.3241229 -3.1622837 -0.56052947
1.3958338 -3.3335443 -0.56008834
1.4766986 -3.5266666 -0.56003767
1.5732358 -3.7572174 -0.56211072
1.6673295 -3.9819331 -0.55920959
1.7790463 -4.2487364 -0.55779493
1.9294056 -4.6078258 -0.5628528
2.0711322 -4.9462986 -0.55910575
2.2532704 -5.3812828 -0.55930173
2.461303 -5.8781085 -0.5575304
2.7196712 -6.4951463 -0.55712616
3.0387933 -7.2572765 -0.55674094
3.4422677 -8.2208576 -0.556261
3.9633172 -9.4652338 -0.55488724
4.675982 -11.167227 -0.55379355
5.694828 -13.600445 -0.5517031
7.2757449 -17.376007 -0.5481227
10.071115 -24.051937 -0.54186338
16.364721 -39.082394 -0.52824104
0.83464539 -1.9264714 -0.56256002
0.85782444 -1.9799718 -0.55900395
0.89631784 -2.0688195 -0.56413472
0.92704773 -2.1397483 -0.56292385
0.9583869 -2.2120831 -0.56079191
0.99701333 -2.3012381 -0.56146425
1.0383984 -2.3967602 -0.562015
1.0803791 -2.4936574 -0.5611459
1.1248846 -2.5963819 -0.55978376
1.1789415 -2.7211523 -0.56111419
1.2363887 -2.8537478 -0.56172407
1.294271 -2.9873478 -0.56012195
1.3617821 -3.1431723 -0.56006771
1.4426656 -3.3298621 -0.56240773
1.5269284 -3.5243518 -0.5626092
1.6117426 -3.7201142 -0.55948251
1.7206755 -3.9715455 -0.56067985
1.8425876 -4.2529345 -0.56127822
1.9742078 -4.5567317 -0.55953461
2.1330295 -4.9233127 -0.55943
2.3114545 -5.3351412 -0.55741799
2.5404718 -5.8637438 -0.55908859
2.8052902 -6.4749789 -0.55831295
3.129612 -7.2235565 -0.55706424
3.5434306 -8.1787043 -0.55631489
4.0786085 -9.4139652 -0.55477983
4.8102756 -11.10275 -0.55348754
5.8570728 -13.518895 -0.5512749
7.4857993 -17.27821 -0.54789996
10.353029 -23.896156 -0.54118097
16.814587 -38.81028 -0.52731788
0.85554898 -1.9099903 -0.56077695
0.88915116 -1.9850063 -0.56346953
0.91635048 -2.045728 -0.5608682
0.95218831 -2.125735 -0.56227499
0.9903596 -2.2109516 -0.5635497
1.0233535 -2.2846093 -0.56043494
1.0652534 -2.37815 -0.56068021
1.1143357 -2.4877248 -0.56285179
1.1634461 -2.5973625 -0.5630371
1.2139872 -2.7101943 -0.5618903
1.2712221 -2.8379695 -0.56165272
1.3333127 -2.9765854 -0.56113565
1.4018047 -3.1294918 -0.56065911
1.479804 -3.3036232 -0.5610069
1.5643868 -3.4924519 -0.56054527
1.6577238 -3.7008243 -0.55960482
1.7620269 -3.9336782 -0.5583505
1.8869926 -4.2126608 -0.55898315
2.0271361 -4.5255275 -0.55872154
2.1921022 -4.8938098 -0.55909824
2.3774362 -5.3075633 -0.55754888
2.6042514 -5.8139219 -0.55734944
2.8828456 -6.4358764 -0.55795568
3.2158961 -7.1794028 -0.55666667
3.6322348 -8.1088676 -0.55456072
4.1902928 -9.3547182 -0.5542829
4.9420643 -11.033027 -0.55299938
6.0161858 -13.430975 -0.55066472
7.6866488 -17.16024 -0.54711491
10.640745 -23.755182 -0.54091066
17.265152 -38.543995 -0.52654457
0.88015515 -1.9018904 -0.56153393
0.91354179 -1.9740341 -0.56350106
0.94410235 -2.040071 -0.5624575
0.97672141 -2.1105564 -0.56139445
1.0135454 -2.1901278 -0.56137621
1.0577012 -2.2855422 -0.56381166
1.1006479 -2.3783438 -0.56387419
1.1488779 -2.4825621 -0.56483728
1.1952077 -2.582674 -0.56299633
1.2425592 -2.684994 -0.55979109
1.3078619 -2.8261039 -0.56244463
1.3692101 -2.9586687 -0.5608896
1.4350026 -3.1008368 -0.55864447
1.5094384 -3.261682 -0.55699444
1.6101873 -3.4793863 -0.56158364
1.7075557 -3.6897855 -0.56106818
1.8137279 -3.9192085 -0.55941999
1.9416785 -4.1956916 -0.55985725
2.079288 -4.4930463 -0.55782586
2.2521715 -4.8666229 -0.55911392
2.448643 -5.2911701 -0.5589475
2.6705556 -5.7706914 -0.55631113
2.962028 -6.4005222 -0.55800611
3.2998254 -7.1304541 -0.55597544
3.7442288 -8.0907469 -0.55642813
4.3050423 -9.3025846 -0.55428863
5.0761161 -10.968766 -0.55286527
6.1800675 -13.354249 -0.55059308
7.8863921 -17.041374 -0.54637569
10.919319 -23.595098 -0.54028201
17.701082 -38.249527 -0.52545559
0.90897572 -1.9024407 -0.5649538
0.93768817 -1.9625344 -0.5634672
0.9677583 -2.0254698 -0.5616703
1.0065063 -2.1065674 -0.5635829
1.0403652 -2.1774323 -0.56135875
1.0814955 -2.2635159 -0.56161618
1.1192906 -2.3426192 -0.55862522
1.1717058 -2.4523218 -0.56119263
1.2230579 -2.559799 -0.5612458
1.2798009 -2.6785591 -0.56168807
1.3390175 -2.8024967 -0.56098086
1.4001443 -2.9304321 -0.55875826
1.4769022 -3.0910826 -0.56011665
1.5572945 -3.2593393 -0.5598222
1.645298 -3.4435265 -0.55901891
1.7469907 -3.6563642 -0.55921036
1.8615588 -3.8961494 -0.55935365
1.9901804 -4.1653481 -0.55903149
2.1419408 -4.482975 -0.55980313
2.3100376 -4.8347931 -0.55867821
2.5097158 -5.2527099 -0.55810249
2.7506661 -5.7570066 -0.55821037
3.0286798 -6.3388753 -0.5558365
3.3915119 -7.0982647 -0.5566752
3.8360143 -8.0285854 -0.55535507
4.4118824 -9.2338495 -0.55338371
5.206162 -10.896236 -0.55239445
6.3359165 -13.260756 -0.549909
8.0934143 -16.939112 -0.54624647
11.192892 -23.426163 -0.53952444
18.137505 -37.960892 -0.52451462
0.92557961 -1.8774915 -0.56088227
0.94977677 -1.9265742 -0.5564537
0.99491554 -2.018136 -0.56298655
1.0307415 -2.090807 -0.56271476
1.0661511 -2.1626337 -0.56088096
1.1078429 -2.2472036 -0.56090641
1.1531678 -2.3391428 -0.56113511
1.2017993 -2.437789 -0.56120628
1.253432 -2.5425236 -0.56079501
1.3143219 -2.6660357 -0.56240839
1.3754553 -2.7900417 -0.56183076
1.4359759 -2.9128046 -0.55872178
1.5205253 -3.0843089 -0.5622347
1.5956898 -3.2367761 -0.55927461
1.6860876 -3.4201436 -0.55854648
1.792289 -3.6355679 -0.55935812
1.9113686 -3.8771148 -0.55995286
2.0412555 -4.1405835 -0.55903435
2.1876907 -4.4376202 -0.55745661
2.3717346 -4.8109441 -0.55925012
2.5686088 -5.2102928 -0.5569095
2.8237364 -5.7278066 -0.55870354
3.1195722 -6.3278947 -0.55819505
3.4780147 -7.0549769 -0.55659235
3.9327493 -7.9773836 -0.55511647
4.5319967 -9.1929264 -0.55422902
5.3440671 -10.840171 -0.55284172
6.4938889 -13.172526 -0.54952002
8.3031349 -16.842489 -0.54638183
11.46752 -23.261284 -0.53893399
18.575113 -37.67868 -0.52373165
0.94779372 -1.8643939 -0.56040883
0.97649157 -1.9208453 -0.55822492
1.011771 -1.9902428 -0.5586338
1.0579655 -2.0811117 -0.56356406
1.0912988 -2.1466813 -0.56018162
1.1328132 -2.2283437 -0.55963349
1.177139 -2.3155367 -0.55890238
1.2325708 -2.4245758 -0.56161112
1.2892208 -2.5360112 -0.56281269
1.343122 -2.6420395 -0.56078804
1.4067001 -2.7671034 -0.56065255
1.4722497 -2.8960454 -0.55893737
1.5503128 -3.0496023 -0.55934083
1.6370486 -3.2202194 -0.55984968
1.7345368 -3.4119873 -0.5606553
1.8335162 -3.6066885 -0.55834144
1.9533367 -3.842386 -0.55836391
2.0861921 -4.103724 -0.55747914
2.248096 -4.4222035 -0.5589503
2.4274788 -4.7750654 -0.55850697
2.6369665 -5.1871462 -0.55785906
2.8894885 -5.6838794 -0.55784231
3.1832566 -6.2617474 -0.55577093
3.5559351 -6.9948387 -0.55525547
4.0269608 -7.9213877 -0.55462372
4.6389475 -9.1252193 -0.55354428
5.4712033 -10.762341 -0.55226177
6.649653 -13.080456 -0.54904866
8.491991 -16.704496 -0.54525149
11.740875 -23.095341 -0.5383935
18.999027 -37.372768 -0.52268726
0.97296685 -1.8570294 -0.56174886
1.0079994 -1.9238936 -0.56267035
1.0417652 -1.9883398 -0.56165278
1.0806007 -2.0624623 -0.56206959
1.1227419 -2.142894 -0.56275338
1.1647185 -2.2230117 -0.56184876
1.2124126 -2.3140416 -0.56209749
1.2645503 -2.4135532 -0.56261718
1.3183544 -2.5162449 -0.56198114
1.3723191 -2.6192434 -0.55948883
1.443862 -2.7557919 -0.56191546
1.5099638 -2.8819556 -0.5597592
1.5901186 -3.0349412 -0.56019568
1.667724 -3.1830609 -0.55691266
1.7745399 -3.3869324 -0.56008148
1.880234 -3.5886629 -0.55908787
2.0007203 -3.8186257 -0.55844396
2.1448052 -4.0936303 -0.55964833
2.2994339 -4.3887587 -0.55825466
2.4760482 -4.7258492 -0.55626959
2.7054067 -5.1636081 -0.55886316
2.9581273 -5.6459575 -0.5576483
3.2706599 -6.2424655 -0.55758697
3.6493418 -6.9652271 -0.55642498
4.1237898 -7.8707709 -0.5545882
4.7541118 -9.0738192 -0.55393058
5.5987916 -10.685997 -0.5518353
6.81459 -13.006501 -0.54942024
8.688343 -16.582794 -0.54472506
12.015966 -22.933981 -0.53803563
19.422977 -37.071194 -0.52177036
0.99388146 -1.8415074 -0.56070805
1.0383003 -1.9238086 -0.56633669
1.0583065 -1.9608769 -0.55752909
1.1065514 -2.0502672 -0.56241179
1.1468158 -2.1248708 -0.56168115
1.1851525 -2.1959028 -0.55863827
1.2402351 -2.2979624 -0.56185365
1.2866627 -2.3839853 -0.55937052
1.3565416 -2.5134602 -0.56504196
1.4065028 -2.6060305 -0.56031841
1.4674054 -2.7188735 -0.5580247
1.544739 -2.8621604 -0.55956143
1.6311542 -3.0222745 -0.56151742
1.7222791 -3.1911147 -0.5619846
1.808282 -3.3504648 -0.55768579
1.9218767 -3.5609379 -0.55840802
2.0508299 -3.7998681 -0.5593465
2.1958809 -4.068625 -0.55987895
2.3568625 -4.366899 -0.55911821
2.5412822 -4.7085996 -0.55787522
2.7662292 -5.1253915 -0.55836618
3.0173643 -5.5907054 -0.55581373
3.3386304 -6.1859617 -0.55616486
3.7277906 -6.9070148 -0.55539447
4.2210307 -7.8209119 -0.5546903
4.8578148 -9.0007734 -0.55307615
5.7185397 -10.595563 -0.55075479
6.9581838 -12.892429 -0.54817444
8.8896885 -16.471207 -0.54460913
12.281522 -22.755745 -0.5373565
19.845873 -36.771309 -0.52094489
1.0133235 -1.823524 -0.5589841
1.0537878 -1.8963414 -0.56202292
1.0884976 -1.9588034 -0.56070274
1.1227469 -2.0204368 -0.55797386
1.1691657 -2.1039693 -0.55991405
1.2138288 -2.1843429 -0.55945224
1.2691536 -2.2839024 -0.56218922
1.317651 -2.371176 -0.56012428
1.3791744 -2.48189 -0.56171483
1.4374261 -2.5867169 -0.55992389
1.503786 -2.7061346 -0.55916303
1.581495 -2.8459759 -0.56015682
1.6561368 -2.9802973 -0.55745983
1.7541202 -3.1566229 -0.55966657
1.8528712 -3.3343301 -0.55875033
1.9694189 -3.5440633 -0.55951715
2.0955603 -3.7710607 -0.55885679
2.2390897 -4.0293489 -0.5582208
2.4085677 -4.3343325 -0.55869836
2.5992289 -4.6774364 -0.55792761
2.8196895 -5.0741658 -0.55652076
3.0944676 -5.5686426 -0.55736107
3.4165282 -6.1482053 -0.55650532
3.8172221 -6.8692732 -0.55609196
4.3164001 -7.7675681 -0.55462945
4.9627776 -8.9307547 -0.55248171
5.8553424 -10.536968 -0.5514099
7.1144848 -12.802855 -0.54804409
9.0848312 -16.348587 -0.54420733
12.552247 -22.588367 -0.53700823
20.261488 -36.461514 -0.52004635
1.0436566 -1.8248951 -0.56329572
1.0734538 -1.8769974 -0.56015956
1.114632 -1.9489998 -0.56177729
1.1488293 -2.008796 -0.55861807
1.1921848 -2.0846055 -0.55861992
1.2513863 -2.1881227 -0.56431872
1.2916937 -2.2586026 -0.559829
1.3481048 -2.3572407 -0.56070596
1.409225 -2.464113 -0.56157088
1.4768255 -2.5823164 -0.56285965
1.5405407 -2.6937263 -0.56047094
1.614502 -2.8230519 -0.55951005
1.6999255 -2.9724202 -0.55985397
1.792321 -3.1339788 -0.55951703
1.8987219 -3.3200274 -0.56022364
2.0066462 -3.508739 -0.55779368
2.1442201 -3.7492952 -0.55949634
2.2890048 -4.00246 -0.55835283
2.4626858 -4.3061514 -0.55892694
2.6580746 -4.6478 -0.55824906
2.889554 -5.0525556 -0.55800539
3.1592727 -5.5241747 -0.5567565
3.4926682 -6.1071362 -0.55663329
3.8984475 -6.8166652 -0.55567187
4.4121337 -7.7148762 -0.554699
5.0826287 -8.8872766 -0.55361646
5.9804597 -10.457187 -0.55104154
7.2745585 -12.719995 -0.54828477
9.2780399 -16.2232 -0.5437901
12.805653 -22.391439 -0.53602952
20.674131 -36.149937 -0.519189
1.0611074 -1.8035821 -0.56070209
1.098352 -1.8668872 -0.56113052
1.1388198 -1.9356712 -0.56192935
1.1783842 -2.0029194 -0.56097096
1.2228451 -2.0784903 -0.56096822
1.2743398 -2.1660168 -0.56261629
1.3282646 -2.2576735 -0.56360447
1.3778425 -2.3419421 -0.56105459
1.4310071 -2.4323068 -0.55829024
1.5004698 -2.5503736 -0.55987644
1.5690838 -2.6669979 -0.55888194
1.6482306 -2.8015249 -0.55921817
1.7330301 -2.9456604 -0.55878532
1.8370645 -3.1224892 -0.56145626
1.9370196 -3.2923846 -0.55953604
2.0574343 -3.4970555 -0.55991584
2.1841514 -3.7124388 -0.557962
2.3435016 -3.983289 -0.55965614
2.5082448 -4.2633057 -0.55732679
2.7100859 -4.6063781 -0.55723435
2.9457431 -5.0069289 -0.55692464
3.2269104 -5.4848337 -0.55674851
3.566098 -6.0613565 -0.55641538
3.9755938 -6.7573833 -0.55478245
4.502655 -7.6532378 -0.55420619
5.1860485 -8.8148136 -0.55303317
6.0978665 -10.364646 -0.55007476
7.4244361 -12.619438 -0.54784411
9.4693193 -16.095161 -0.54336017
13.072022 -22.218735 -0.53570259
21.083639 -35.836216 -0.51836759
1.0824295 -1.78912 -0.56030154
1.1125797 -1.8389544 -0.55680472
1.1572113 -1.9127249 -0.55935663
1.2047299 -1.9912671 -0.56181395
1.2517636 -2.0690079 -0.56252074
1.292617 -2.1365333 -0.55904442
1.354331 -2.238539 -0.5629425
1.4021798 -2.3176272 -0.55931777
1.4655209 -2.4223218 -0.56009233
1.5322669 -2.5326445 -0.56007832
1.6012714 -2.6467004 -0.55871236
1.6915401 -2.7959032 -0.56220543
1.7722369 -2.9292848 -0.55977052
1.8698454 -3.0906196 -0.55981773
1.9836215 -3.278677 -0.56130934
2.098712 -3.4689071 -0.55949861
2.2375903 -3.6984558 -0.55995339
2.3908303 -3.9517419 -0.55931205
2.5611625 -4.2332797 -0.55747646
2.7674496 -4.5742464 -0.5574218
3.0116098 -4.9778128 -0.55776298
3.2949288 -5.4461036 -0.55688769
3.6386397 -6.014214 -0.556153
4.0571389 -6.7059412 -0.55461293
4.6014099 -7.6055522 -0.55480844
5.2848063 -8.7351208 -0.55206859
6.2242107 -10.287838 -0.55001873
7.5766726 -12.523288 -0.54767317
9.6576958 -15.962956 -0.5428651
13.336985 -22.044359 -0.53541195
21.492281 -35.52404 -0.51763564
1.1131136 -1.7897732 -0.56474996
1.141235 -1.8349897 -0.55981094
1.1857556 -1.9065742 -0.56177938
1.2223809 -1.9654639 -0.55873245
1.2786888 -2.0560014 -0.56321681
1.3206518 -2.1234736 -0.55983406
1.3710742 -2.2045476 -0.55859196
1.4387679 -2.3133922 -0.56252283
1.4959809 -2.4053848 -0.56038713
1.5660884 -2.5181108 -0.56108046
1.6330352 -2.6257541 -0.55848742
1.7217185 -2.768348 -0.56087929
1.8048424 -2.9020026 -0.55875582
1.903527 -3.0606775 -0.55859172
2.0207515 -3.2491624 -0.56046808
2.1409302 -3.4423976 -0.55942672
2.2847025 -3.673569 -0.56039661
2.4330089 -3.9120305 -0.55788362
2.6160233 -4.2062988 -0.55811733
2.8258178 -4.5436268 -0.55788273
3.0663695 -4.9304099 -0.55663431
3.3625102 -5.4065738 -0.55703145
3.7091844 -5.9639907 -0.55568439
4.1464882 -6.6671305 -0.55557799
4.6854429 -7.5337152 -0.55372906
5.3858366 -8.6598768 -0.55145705
6.3535333 -10.215834 -0.55030441
7.7277508 -12.425436 -0.54750812
9.8534184 -15.843293 -0.54287505
13.587962 -21.848059 -0.53466189
21.887188 -35.192368 -0.51668531
1.1297237 -1.7676401 -0.56210697
1.1611267 -1.8167753 -0.55856776
1.2129241 -1.8978211 -0.56355232
1.2467135 -1.9506902 -0.55884838
1.3077734 -2.0462284 -0.56490213
1.3504994 -2.1130803 -0.56142962
1.4029948 -2.1952181 -0.56055695
1.4702752 -2.3004894 -0.56373888
1.5289706 -2.392328 -0.56168294
1.5938756 -2.4938829 -0.56000674
1.6656973 -2.6062598 -0.55865526
1.7584941 -2.7514558 -0.56179529
1.8459599 -2.8883104 -0.56044757
1.9436153 -3.0411086 -0.55933982
2.0571232 -3.2187104 -0.55953628
2.1843777 -3.4178214 -0.55975556
2.3248098 -3.6375506 -0.55922061
2.4807758 -3.8815856 -0.55785
2.6657794 -4.1710539 -0.55774808
2.8837588 -4.5121193 -0.55832577
3.1231406 -4.8866715 -0.55598998
3.4236121 -5.3568091 -0.55619949
3.7897656 -5.9297166 -0.55679083
4.2188501 -6.6010914 -0.55435592
4.7749577 -7.4712133 -0.55340886
5.4912543 -8.5919781 -0.55139148
6.4714656 -10.125682 -0.54969317
7.866046 -12.307734 -0.54654247
10.029862 -15.693383 -0.5419234
13.836759 -21.649904 -0.53393602
22.277353 -34.856613 -0.51573867
1.1507289 -1.752636 -0.56179285
1.1853734 -1.8054017 -0.55950999
1.2261407 -1.867493 -0.55898136
1.2780795 -1.9465992 -0.56213629
1.3185563 -2.0082481 -0.55885071
1.3734254 -2.0918174 -0.56022495
1.4324979 -2.1817884 -0.56158322
1.4960427 -2.2785716 -0.56283331
1.5511683 -2.3625314 -0.55912316
1.6273341 -2.4785371 -0.56101179
1.7083622 -2.601948 -0.56219143
1.7810295 -2.7126253 -0.55829626
1.8816984 -2.8659503 -0.56055623
1.970677 -3.0014708 -0.55646425
2.0918484 -3.1860228 -0.55828321
2.2222519 -3.3846359 -0.55875367
2.3624556 -3.5981755 -0.55759114
2.5366449 -3.8634772 -0.55968803
2.7176838 -4.1392112 -0.55791658
2.927973 -4.4594955 -0.55622721
3.1918483 -4.8613949 -0.55753756
3.4866855 -5.3104515 -0.55579579
3.8551588 -5.8716607 -0.55574864
4.2965746 -6.5439663 -0.55395359
4.8704386 -7.4179988 -0.55386144
5.5931163 -8.5186844 -0.55105984
6.5913544 -10.039066 -0.54934955
8.0162468 -12.209272 -0.54650599
10.224363 -15.572378 -0.54204535
14.09547 -21.468328 -0.53369218
22.678673 -34.541111 -0.5151577
1.1765312 -1.7447903 -0.56387264
1.2086822 -1.79247 -0.56006604
1.2473855 -1.849867 -0.55825442
1.2978274 -1.9246719 -0.56037033
1.3422776 -1.9905914 -0.55848813
1.4049814 -2.0835807 -0.56260341
1.4531586 -2.1550274 -0.55925208
1.5175275 -2.2504861 -0.56046283
1.5808209 -2.3443499 -0.55937833
1.6589833 -2.4602647 -0.56145084
1.7335775 -2.5708873 -0.56004375
1.8224897 -2.7027438 -0.5608325
1.9110472 -2.834074 -0.55887544
2.0126028 -2.9846807 -0.55789745
2.1264551 -3.153523 -0.55712807
2.2623479 -3.3550515 -0.55842
2.4053967 -3.5671921 -0.5573312
2.5702517 -3.8116713 -0.55671948
2.7709343 -4.1092825 -0.55843294
2.9891977 -4.4329662 -0.55746067
3.245703 -4.8133621 -0.55656397
3.5635757 -5.2847662 -0.55765158
3.9279399 -5.8251166 -0.5558728
4.3765326 -6.4903774 -0.55393094
4.9512415 -7.3426681 -0.55274087
5.6976056 -8.449522 -0.55107629
6.7117577 -9.9535055 -0.54914224
8.1573067 -12.097248 -0.54594022
10.399299 -15.422111 -0.54122496
14.342476 -21.269825 -0.53310144
23.063475 -34.203026 -0.51430619
1.1887244 -1.716946 -0.55955565
1.2321938 -1.7797315 -0.56077766
1.2747951 -1.8412632 -0.56034613
1.3233124 -1.9113395 -0.56118381
1.3726908 -1.9826598 -0.56095612
1.4333417 -2.0702615 -0.5637235
1.4841681 -2.1436732 -0.56099916
1.5443727 -2.2306304 -0.56020492
1.6048408 -2.3179679 -0.55774987
1.6857315 -2.4348032 -0.56032842
1.7663887 -2.5513012 -0.56046635
1.8459551 -2.6662238 -0.55792236
1.9470716 -2.8122725 -0.5592553
2.0561557 -2.9698291 -0.5598051
2.1722546 -3.1375177 -0.55897719
2.3068674 -3.3319471 -0.55925351
2.4447162 -3.5310504 -0.5563392
2.6273954 -3.7949052 -0.55894721
2.8105049 -4.059381 -0.55630589
3.0449724 -4.3980365 -0.55773455
3.3108375 -4.7820415 -0.55760771
3.6192379 -5.2274828 -0.556261
3.9958851 -5.7714968 -0.55540287
4.4625812 -6.4455743 -0.55474854
5.0362659 -7.2741814 -0.55220544
5.8034515 -8.3822737 -0.55130285
6.8364935 -9.8743582 -0.54937202
8.3100977 -12.002773 -0.54624689
10.580512 -15.282069 -0.54083526
14.588054 -21.070402 -0.53255886
23.446243 -33.864819 -0.51351696
1.2129118 -1.7066557 -0.56102031
1.2548131 -1.7656138 -0.56114864
1.2952194 -1.8224686 -0.55943108
1.3522775 -1.9027535 -0.56350243
1.3974509 -1.9663159 -0.56115127
1.4523178 -2.0435176 -0.56126153
1.5081729 -2.1221097 -0.56016695
1.5700198 -2.2091329 -0.55961221
1.6419966 -2.3104095 -0.56074709
1.7043785 -2.3981855 -0.55668247
1.7902699 -2.5190408 -0.55817318
1.891582 -2.6615944 -0.56177837
1.9843808 -2.7921691 -0.56006759
2.0875945 -2.9373982 -0.55848843
2.2096696 -3.1091669 -0.55872476
2.3542311 -3.3125753 -0.56081855
2.4958808 -3.5118873 -0.55811316
2.6719897 -3.7596853 -0.5585568
2.8704658 -4.0389557 -0.55830163
3.1036808 -4.367106 -0.55860966
3.3653755 -4.7353301 -0.55694413
3.6807363 -5.1790657 -0.55588305
4.0665255 -5.7218995 -0.55540001
4.5303535 -6.3745394 -0.55338752
5.125155 -7.2114687 -0.55218709
5.9009399 -8.3030548 -0.55082333
6.9539232 -9.7846794 -0.54909843
8.446929 -11.885448 -0.54559314
10.766889 -15.149801 -0.5407989
14.829519 -20.866219 -0.53196687
23.822504 -33.520008 -0.51269156
1.2319463 -1.6890659 -0.56017548
1.2692409 -1.7401987 -0.5579893
1.3224715 -1.8131808 -0.56152934
1.3745731 -1.8846151 -0.56309384
1.4193809 -1.9460489 -0.56030595
1.4761798 -2.0239234 -0.56082296
1.5374184 -2.1078846 -0.56135982
1.5960354 -2.188252 -0.5592519
1.6661403 -2.2843697 -0.55935723
1.7479419 -2.396524 -0.56124359
1.8186371 -2.4934511 -0.55741602
1.9224914 -2.6358411 -0.56128985
2.0185723 -2.7675731 -0.5600704
2.124526 -2.9128416 -0.55874425
2.2461066 -3.079535 -0.55832088
2.3824761 -3.2665052 -0.55793655
2.5376074 -3.4791985 -0.55783498
2.7179863 -3.7265081 -0.55855089
2.9214444 -4.0054603 -0.55859506
3.156266 -4.3274131 -0.55845463
3.424634 -4.6953607 -0.55715388
3.7388544 -5.126174 -0.55509865
4.1325707 -5.6659808 -0.5548628
4.6145573 -6.3268108 -0.55412817
5.2165017 -7.1521091 -0.55251175
6.0063868 -8.2350855 -0.55117226
7.0766659 -9.7024965 -0.54932827
8.5990391 -11.789753 -0.54601294
10.944142 -15.005018 -0.54039359
15.064308 -20.65399 -0.53123856
24.191246 -33.167522 -0.51181138
1.2567436 -1.6792991 -0.56201899
1.2945914 -1.7298727 -0.55974036
1.3540161 -1.8092777 -0.5654341
1.3949078 -1.8639185 -0.56199241
1.4457684 -1.9318799 -0.56130254
1.4924535 -1.994262 -0.55764699
1.5634732 -2.0891607 -0.5614509
1.6224452 -2.1679609 -0.55912256
1.6948534 -2.264715 -0.55960536
1.7730308 -2.3691781 -0.55990291
1.8568137 -2.4811313 -0.55972379
1.9557486 -2.6133311 -0.56157506
2.0493109 -2.7383518 -0.55921417
2.1595032 -2.8855941 -0.55856901
2.2830946 -3.050741 -0.55814815
2.4250278 -3.2403965 -0.55852807
2.5837238 -3.4524508 -0.5585981
2.7528868 -3.6784914 -0.55638558
2.9679852 -3.9659126 -0.55812722
3.1952333 -4.2695684 -0.55601805
3.4782484 -4.6477418 -0.5565365
3.8053527 -5.0848289 -0.55564648
4.2009163 -5.6133928 -0.55472964
4.6939363 -6.272181 -0.55435681
5.2970328 -7.0780568 -0.55178112
6.0971341 -8.1471767 -0.55026495
7.1816878 -9.5963907 -0.54827923
8.7351818 -11.672217 -0.54550284
11.118922 -14.857444 -0.53996199
15.310066 -20.457779 -0.53099394
24.561584 -32.819942 -0.51106966
1.2792596 -1.6662769 -0.56288272
1.3163531 -1.7145925 -0.55999124
1.3699116 -1.784354 -0.56286681
1.4179536 -1.8469304 -0.56208491
1.4688023 -1.9131626 -0.56106949
1.5222234 -1.9827451 -0.55961829
1.5868887 -2.0669737 -0.56068993
1.6599696 -2.162164 -0.56284922
1.7226744 -2.243839 -0.55963892
1.8020697 -2.3472538 -0.55991614
1.8883152 -2.4595914 -0.56006038
1.979353 -2.5781713 -0.55920756
2.0893335 -2.7214243 -0.56096154
2.193939 -2.8576763 -0.55834484
2.3214209 -3.0237257 -0.55838585
2.4730623 -3.2212434 -0.560426
2.6204622 -3.4132366 -0.55742472
2.80808 -3.6576147 -0.55840838
3.0048647 -3.9139333 -0.55597001
3.2546654 -4.2393069 -0.55724686
3.541081 -4.6123719 -0.557473
3.8699217 -5.0406981 -0.55598211
4.2652755 -5.5556588 -0.55416536
4.7616653 -6.2022228 -0.55330682
5.3910341 -7.0219955 -0.55253685
6.2007914 -8.0767307 -0.55061513
7.3002138 -9.5087643 -0.54836005
8.8626318 -11.543864 -0.5445562
11.296277 -14.713765 -0.53974771
15.541322 -20.243073 -0.53034121
24.925026 -32.465652 -0.51028675
1.2988584 -1.6494156 -0.56253964
1.339846 -1.7014657 -0.56104249
1.3893801 -1.7643688 -0.56190938
1.4408289 -1.8297036 -0.56219161
1.4937478 -1.8969051 -0.56164593
1.5504215 -1.9688747 -0.56104195
1.6096289 -2.0440621 -0.55980158
1.6732863 -2.1249003 -0.5584628
1.748672 -2.2206323 -0.55917156
1.8313912 -2.3256772 -0.56009871
1.9186138 -2.4364407 -0.56011862
2.0044143 -2.5453985 -0.55740297
2.1160007 -2.6871016 -0.55920768
2.2368646 -2.8405864 -0.56033754
2.3671048 -3.0059781 -0.5604412
2.4974937 -3.1715586 -0.55708277
2.6664772 -3.3861499 -0.55831367
2.8456726 -3.6137094 -0.55700547
3.0515766 -3.8751864 -0.55575424
3.3086851 -4.2016873 -0.55760771
3.5826173 -4.5495529 -0.55516297
3.9319718 -4.993197 -0.55603361
4.3334808 -5.5030723 -0.55419326
4.83462 -6.1394668 -0.55296993
5.4666481 -6.9420772 -0.55149597
6.2960653 -7.9953508 -0.55030352
7.4086266 -9.4081888 -0.54777223
8.9997787 -11.428787 -0.54430693
11.471354 -14.567432 -0.53951341
15.772591 -20.029556 -0.52978849
25.291986 -32.118202 -0.50967538
1.3073349 -1.6188259 -0.55754739
1.3633941 -1.6882422 -0.5621677
1.4028367 -1.7370825 -0.55867076
1.4566902 -1.8037673 -0.55968386
1.5104382 -1.8703215 -0.55923188
1.5634387 -1.9359502 -0.557096
1.6362777 -2.026144 -0.5603624
1.6964446 -2.1006465 -0.55752879
1.7764091 -2.1996639 -0.55934966
1.8580287 -2.3007302 -0.5595507
1.9446794 -2.4080269 -0.55904156
2.0279994 -2.511199 -0.55533266
2.1461148 -2.6574571 -0.55848813
2.2644124 -2.8039408 -0.55855912
2.3948998 -2.9655187 -0.55834615
2.5507808 -3.1585405 -0.5602631
2.7017736 -3.3455095 -0.55704844
2.8913002 -3.5801935 -0.55727726
3.1106431 -3.8517981 -0.55784345
3.3653078 -4.16714 -0.55847245
3.6457777 -4.5144358 -0.55630618
3.9829743 -4.9319744 -0.55462801
4.4080076 -5.4582777 -0.55509877
4.9229388 -6.0958986 -0.55445617
5.5606332 -6.8855333 -0.55239415
6.3845596 -7.9057717 -0.54949993
7.5178046 -9.3090277 -0.54733968
9.1312685 -11.306923 -0.54380947
11.633681 -14.405571 -0.5387761
16.01112 -19.825996 -0.52957177
25.651943 -31.763884 -0.50901973
1.3349977 -1.6121174 -0.5608483
1.3741884 -1.6594435 -0.55816263
1.4322546 -1.7295631 -0.56187409
1.4781091 -1.7849361 -0.55943811
1.5351363 -1.853801 -0.55989408
1.5933183 -1.9240606 -0.55927026
1.6611081 -2.0059223 -0.56037641
1.7356006 -2.0958779 -0.56188494
1.8123314 -2.1885366 -0.56214452
1.8776431 -2.2674057 -0.55701911
1.9710456 -2.3801968 -0.55816513
2.0641186 -2.49259 -0.55678827
2.182447 -2.6354809 -0.5594672
2.2918172 -2.7675543 -0.5568825
2.4284925 -2.9326007 -0.55772865
2.5731707 -3.1073115 -0.55674648
2.7423079 -3.3115582 -0.55696797
2.9369788 -3.5466392 -0.55763358
3.1544886 -3.8092997 -0.55726409
3.4029844 -4.1093783 -0.55629724
3.6922348 -4.4586716 -0.55498719
4.0478282 -4.8880792 -0.55524713
4.4650946 -5.3919621 -0.55389649
4.9936328 -6.0302148 -0.55402505
5.6365628 -6.8066049 -0.55158085
6.4898853 -7.8370609 -0.55022931
7.6316833 -9.2158737 -0.54733878
9.27073 -11.195155 -0.54387558
11.810326 -14.261922 -0.53879434
16.242245 -19.613823 -0.52919918
25.991365 -31.386673 -0.50805813
1.3594073 -1.6011034 -0.56278944
1.3983507 -1.6469707 -0.5597086
1.4424134 -1.6988677 -0.55762208
1.506471 -1.7743144 -0.56187248
1.5582294 -1.8352752 -0.56004351
1.6193475 -1.9072597 -0.56013232
1.6829333 -1.9821508 -0.55947441
1.7633252 -2.0768359 -0.56255037
1.8278803 -2.1528685 -0.55871391
1.9117498 -2.2516499 -0.55888122
2.0056677 -2.3622658 -0.55970144
2.103168 -2.4771013 -0.55906308
2.2109787 -2.6040802 -0.55853057
2.337569 -2.7531774 -0.55973113
2.4703975 -2.9096224 -0.55909348
2.6170523 -3.0823517 -0.55799806
2.7884996 -3.2842817 -0.55810511
2.9793944 -3.5091164 -0.55745208
3.1919074 -3.7594132 -0.55566597
3.4566071 -4.0711751 -0.55683738
3.7586515 -4.4269218 -0.55674607
4.1078072 -4.8381557 -0.55527192
4.5365577 -5.3431358 -0.55456924
5.0504742 -5.9484243 -0.55217451
5.71491 -6.7309937 -0.55110663
6.577199 -7.7465935 -0.54951441
7.7411752 -9.1175184 -0.54710943
9.4030437 -11.07486 -0.54360753
11.973168 -14.10194 -0.53827178
16.464422 -19.391718 -0.528629
26.333384 -31.015333 -0.50725037
1.3842323 -1.5902894 -0.56492853
1.4260186 -1.6382959 -0.56267709
1.4741085 -1.6935444 -0.561782
1.519292 -1.745454 -0.55860698
1.5817373 -1.8171948 -0.56041902
1.6472615 -1.8924731 -0.56169593
1.7073505 -1.9615068 -0.55953103
1.7822503 -2.0475562 -0.5605132
1.8542368 -2.1302588 -0.55872118
1.936874 -2.2251973 -0.5581848
2.0327494 -2.3353448 -0.55920297
2.1301253 -2.4472158 -0.55818754
2.2423205 -2.5761127 -0.55840367
2.368474 -2.7210455 -0.55907726
2.5135953 -2.8877695 -0.56079108
2.6556726 -3.0509963 -0.55819124
2.8282948 -3.2493153 -0.5580309
3.0282404 -3.4790246 -0.55854487
3.2489917 -3.7326372 -0.55757117
3.5004408 -4.0215168 -0.55589056
3.8072078 -4.3739491 -0.55592966
4.1586418 -4.777698 -0.55416024
4.5908093 -5.2741976 -0.5532313
5.1296506 -5.8932509 -0.5528664
5.8107767 -6.6757698 -0.5523935
6.6766934 -7.6705871 -0.54990506
7.8509092 -9.0195961 -0.54698503
9.5319338 -10.950859 -0.54323316
12.126319 -13.931445 -0.53741491
16.69116 -19.175808 -0.52829826
26.684231 -30.65645 -0.50670898
1.3864114 -1.5537945 -0.55797809
1.4403027 -1.6141921 -0.56043899
1.4910808 -1.6711006 -0.5603767
1.5478773 -1.7347544 -0.56123173
1.602378 -1.7958349 -0.55986589
1.6585416 -1.8587792 -0.55770636
1.7343733 -1.9437662 -0.56051165
1.7940722 -2.0106726 -0.55641341
1.889559 -2.1176877 -0.56147563
1.9689894 -2.2067077 -0.55957788
2.0656025 -2.314985 -0.56036741
2.1692467 -2.4311423 -0.56056303
2.2662811 -2.539892 -0.55655086
2.3948793 -2.684016 -0.55747753
2.5402889 -2.8469808 -0.55889392
2.7029209 -3.0292478 -0.56025058
2.8644786 -3.2103102 -0.55733931
3.0620472 -3.4317317 -0.55695498
3.2883162 -3.6853185 -0.55650079
3.5567198 -3.9861269 -0.55700195
3.8595243 -4.325489 -0.55576032
4.2219558 -4.7316775 -0.55480206
4.6557488 -5.2178426 -0.55328333
5.2025995 -5.8307157 -0.5529595
5.8768034 -6.5863166 -0.55092955
6.7665491 -7.5834827 -0.54958397
7.9644761 -8.9260368 -0.54720896
9.6615677 -10.82802 -0.54299188
12.296153 -13.780682 -0.53739113
16.907236 -18.948467 -0.52772272
27.026535 -30.289482 -0.50609821
1.4156981 -1.5478776 -0.56206214
1.4633259 -1.5999521 -0.56169981
1.5148836 -1.6563238 -0.56162554
1.5732651 -1.7201561 -0.56272501
1.6241335 -1.7757739 -0.5597955
1.6904148 -1.8482437 -0.56073958
1.7443749 -1.9072418 -0.55612254
1.8299468 -2.0008032 -0.55986691
1.9073259 -2.085407 -0.55909294
1.9973333 -2.1838181 -0.55995917
2.0833335 -2.277848 -0.55753684
2.1950722 -2.4000192 -0.55956811
2.3067763 -2.5221529 -0.55883706
2.4410048 -2.6689138 -0.56053281
2.5710428 -2.8110933 -0.5580129
2.7373481 -2.9929259 -0.55971593
2.9068594 -3.1782639 -0.55793905
3.1042428 -3.3940763 -0.55699664
3.3324945 -3.6436396 -0.55635285
3.596056 -3.9318089 -0.55554873
3.9111695 -4.2763438 -0.55558318
4.2800012 -4.6796117 -0.55482614
4.7186885 -5.1592579 -0.55318195
5.2816124 -5.7747402 -0.55376828
5.9624443 -6.5191398 -0.5514015
6.8557401 -7.4958401 -0.54930025
8.066721 -8.8198862 -0.54674107
9.7899637 -10.704022 -0.54276955
12.467994 -13.632092 -0.53753465
17.129568 -18.728903 -0.52743417
27.353895 -29.907846 -0.5053035
1.4297606 -1.5251667 -0.56015706
1.4834774 -1.582468 -0.56192327
1.5263716 -1.6282245 -0.55841964
1.5816033 -1.6871418 -0.55824482
1.652544 -1.7628163 -0.56207412
1.7128799 -1.8271784 -0.5606963
1.7791554 -1.8978764 -0.5597285
1.8589056 -1.9829481 -0.56122434
1.9274952 -2.0561147 -0.55755186
2.0221796 -2.1571171 -0.55944628
2.1141331 -2.2552066 -0.55831587
2.2294176 -2.3781841 -0.56082642
2.3345141 -2.4902935 -0.55809623
2.4743953 -2.6395087 -0.56070483
2.6129901 -2.7873518 -0.55963588
2.7646308 -2.9491112 -0.55783737
2.9377689 -3.1338027 -0.55643344
3.1361825 -3.3454561 -0.55530429
3.3673596 -3.5920594 -0.55475754
3.6450958 -3.8883286 -0.55569631
3.9567642 -4.2207942 -0.55464542
4.3311529 -4.6201653 -0.55405051
4.7832479 -5.1024284 -0.55335325
5.3393717 -5.6956615 -0.55243927
6.0341129 -6.4367619 -0.550668
6.9467096 -7.410255 -0.54924667
8.1670618 -8.7120399 -0.54623979
9.9114017 -10.572778 -0.54225349
12.615898 -13.457742 -0.53673625
17.337078 -18.493961 -0.52678162
27.680992 -29.528112 -0.50460041
1.4551144 -1.5144545 -0.56275177
1.4970884 -1.5581404 -0.55977923
1.5571681 -1.6206701 -0.56235313
1.6007628 -1.6660426 -0.55773431
1.6731998 -1.7414335 -0.5617739
1.7352381 -1.8060018 -0.56070322
1.805009 -1.878618 -0.5605523
1.8840067 -1.9608374 -0.56148076
1.9639496 -2.0440402 -0.56078386
2.0442185 -2.1275828 -0.55826348
2.1427884 -2.2301722 -0.55859905
2.2445588 -2.3360929 -0.55736697
2.375885 -2.4727745 -0.56067502
2.5072885 -2.6095366 -0.5608449
2.6306448 -2.7379236 -0.55616444
2.7986948 -2.912827 -0.55744147
2.9873359 -3.1091607 -0.5585382
3.1922519 -3.3224332 -0.55795622
3.4207723 -3.5602729 -0.55630267
3.6886587 -3.8390837 -0.55509877
4.0146813 -4.1784019 -0.55551988
4.3961635 -4.5754409 -0.5551278
4.8463774 -5.0440145 -0.55343932
5.4075384 -5.6280599 -0.55229008
6.1118917 -6.3611369 -0.55058616
7.0273595 -7.3139381 -0.54847103
8.2671404 -8.6042776 -0.54581571
10.042966 -10.452522 -0.54237849
12.777908 -13.298997 -0.53663099
17.550768 -18.266497 -0.52640992
28.013468 -29.155869 -0.50408763
1.4723843 -1.4951884 -0.56227785
1.5283691 -1.5520401 -0.56429678
1.5719662 -1.5963125 -0.56056613
1.6280471 -1.653262 -0.56011522
1.6958265 -1.7220912 -0.56221861
1.7597961 -1.7870516 -0.56149566
1.8224638 -1.8506898 -0.55886346
1.9040793 -1.9335693 -0.56033468
1.9814075 -2.0120952 -0.55866182
2.0799904 -2.1122048 -0.56089717
2.1867568 -2.2206249 -0.56290019
2.2840259 -2.3194003 -0.56004292
2.3958676 -2.4329743 -0.5582884
2.5182436 -2.5572455 -0.55621946
2.6813905 -2.7229195 -0.55977196
2.8355906 -2.8795075 -0.55769563
3.011375 -3.0580146 -0.55596018
3.2314293 -3.281477 -0.55770898
3.4657013 -3.5193775 -0.5565294
3.7390738 -3.7969837 -0.55561739
4.0612631 -4.1241632 -0.55490631
4.4562936 -4.5253119 -0.55565208
4.910439 -4.9864912 -0.553711
5.4728017 -5.5575633 -0.5519343
6.1854758 -6.2812753 -0.55021548
7.1137786 -7.2239556 -0.5482415
8.3669825 -8.4965687 -0.54546839
10.170172 -10.327685 -0.54234892
12.930365 -13.130628 -0.53621227
17.761068 -18.036148 -0.52602577
28.33161 -28.770403 -0.50340837
1.4836551 -1.4700338 -0.55963665
1.5351665 -1.5210721 -0.55985844
1.5870721 -1.5725013 -0.55901533
1.6543088 -1.6391207 -0.56217355
1.7093741 -1.6936804 -0.55976319
1.7818193 -1.7654606 -0.56155348
1.8514078 -1.8344102 -0.56077969
1.9221072 -1.9044605 -0.55870622
2.0069373 -1.9885118 -0.55892354
2.0994787 -2.0802035 -0.55921239
2.201072 -2.1808641 -0.55963975
2.3039858 -2.2828331 -0.55801195
2.4198713 -2.3976545 -0.55696958
2.5646546 -2.5411086 -0.55952668
2.7088952 -2.684025 -0.55858165
2.8719192 -2.8455522 -0.5579167
3.0564947 -3.0284333 -0.55737299
3.2723358 -3.2422926 -0.55784589
3.5086839 -3.4764707 -0.55652493
3.7861838 -3.7514231 -0.55572116
4.1119571 -4.0742054 -0.55494577
4.5061693 -4.4647985 -0.5549835
4.9715204 -4.9258771 -0.55372667
5.544899 -5.4939914 -0.5523504
6.2589908 -6.2015276 -0.54992998
7.2065101 -7.1403475 -0.54857999
8.4803619 -8.402504 -0.54608285
10.287286 -10.192839 -0.54186946
13.080928 -12.960833 -0.53580648
17.961544 -17.796638 -0.52544224
28.636393 -28.373484 -0.5025866
1.5093735 -1.4591781 -0.56252712
1.5612937 -1.5093716 -0.56257558
1.6062077 -1.5527921 -0.5589878
1.6701652 -1.6146225 -0.5607726
1.7324543 -1.6748401 -0.56053472
1.7987376 -1.7389191 -0.56010419
1.8612765 -1.7993782 -0.55702496
1.9522628 -1.8873386 -0.56068337
2.0311151 -1.9635687 -0.55889046
2.1343625 -2.0633824 -0.56170338
2.2246873 -2.1507037 -0.55887777
2.3240533 -2.2467649 -0.55613893
2.4501135 -2.368633 -0.55718446
2.5990074 -2.5125751 -0.56023848
2.7352517 -2.6442885 -0.55726951
2.9099646 -2.8131914 -0.55854529
3.0973904 -2.9943841 -0.55807394
3.306283 -3.1963301 -0.55689073
3.5439982 -3.4261396 -0.55540198
3.8306167 -3.7032266 -0.55551714
4.1667085 -4.0281415 -0.55560815
4.555078 -4.403595 -0.5542962
5.0312529 -4.8639345 -0.55367625
5.6101742 -5.4236031 -0.55216765
6.3408484 -6.1299787 -0.55045778
7.2847099 -7.0424514 -0.54789937
8.5707684 -8.2857399 -0.54530245
10.417311 -10.070874 -0.54215449
13.232256 -12.792207 -0.53552139
18.167309 -17.563141 -0.52510422
28.954525 -27.991619 -0.50209117
1.5171232 -1.4310037 -0.55881518
1.5780829 -1.488503 -0.56198752
1.6235573 -1.5313962 -0.55843014
1.6811805 -1.5857483 -0.55788195
1.7518224 -1.6523801 -0.5601849
1.8219901 -1.7185647 -0.56072199
1.8942149 -1.7866896 -0.56026512
1.969002 -1.8572315 -0.55888975
2.0566952 -1.9399469 -0.55932301
2.1528223 -2.0306172 -0.55994785
2.2588921 -2.130666 -0.56084639
2.3560085 -2.2222698 -0.5572046
2.4842408 -2.3432229 -0.55835068
2.6225159 -2.4736488 -0.55870706
2.77352 -2.616081 -0.55847001
2.9401381 -2.773241 -0.55774927
3.123914 -2.9465849 -0.55628258
3.3476083 -3.1575811 -0.55726933
3.5889261 -3.3852005 -0.55587739
3.8830068 -3.6625879 -0.55654144
4.2150807 -3.9758112 -0.55549729
4.607317 -4.3457823 -0.55410844
5.0833821 -4.7948236 -0.55288285
5.6700311 -5.3481712 -0.55154461
6.4173298 -6.05305 -0.55059409
7.3740358 -6.9554486 -0.54814357
8.6602068 -8.1686096 -0.54456097
10.532599 -9.9347162 -0.54175586
13.383308 -12.623605 -0.53531206
18.354631 -17.312729 -0.52432567
29.27174 -27.610128 -0.50166667
1.5311803 -1.4090914 -0.55756861
1.5947257 -1.4675701 -0.56144542
1.6463131 -1.5150441 -0.559807
1.7150724 -1.5783207 -0.56264579
1.7705575 -1.6293818 -0.55972672
1.8371152 -1.6906325 -0.55893666
1.9118364 -1.7593958 -0.55903596
1.9882189 -1.829688 -0.55791605
2.0788455 -1.9130883 -0.55890709
2.1769207 -2.0033433 -0.55976623
2.2797058 -2.0979331 -0.55956674
2.3939095 -2.2030308 -0.5597192
2.5105851 -2.3104031 -0.55784428
2.6631958 -2.4508455 -0.56091082
2.8042066 -2.5806129 -0.55821729
2.9722257 -2.735235 -0.55741382
3.1665199 -2.914037 -0.5574466
3.3854511 -3.1155117 -0.55714947
3.6334324 -3.34372 -0.55636048
3.9186749 -3.6062188 -0.55525601
4.2640128 -3.9240212 -0.55554497
4.65483 -4.2836761 -0.55344588
5.1459074 -4.7355976 -0.55330801
5.7446117 -5.2865639 -0.55243415
6.4855309 -5.9684057 -0.5501073
7.4446263 -6.851028 -0.54708731
8.7639236 -8.0651302 -0.54480553
10.631356 -9.7836628 -0.54060662
13.521936 -12.443763 -0.53469616
18.568064 -17.087536 -0.5243808
29.5553 -27.198704 -0.50075668
1.5670958 -1.4069523 -0.56430447
1.6034852 -1.4396231 -0.55825478
1.6759897 -1.5047182 -0.56356388
1.7207702 -1.5449226 -0.55824065
1.7981018 -1.6143515 -0.56211638
1.8655682 -1.6749234 -0.56128484
1.9440575 -1.7453918 -0.56213945
2.0081065 -1.8028955 -0.55723363
2.1061242 -1.8908967 -0.55994749
2.2072568 -1.9816945 -0.56125849
2.3080616 -2.0721979 -0.56023014
2.4139192 -2.1672378 -0.5581246
2.5333149 -2.2744324 -0.55663842
2.7 -2.4240837 -0.56234187
2.8275247 -2.5385764 -0.55660307
3.0013988 -2.6946821 -0.5566287
3.2018406 -2.8746405 -0.55739969
3.4103303 -3.0618243 -0.55500585
3.6622219 -3.2879748 -0.55453604
3.9618819 -3.5570123 -0.55513871
4.2991037 -3.8597732 -0.55389142
4.710422 -4.2290578 -0.5538308
5.2058139 -4.6738253 -0.55352801
5.7958851 -5.2035961 -0.55116999
6.5417156 -5.8732095 -0.5487057
7.5264149 -6.7572813 -0.54695028
8.8616247 -7.9560442 -0.54475629
10.753701 -9.654767 -0.54075009
13.676437 -12.278825 -0.53479475
18.754011 -16.837517 -0.52374548
29.849094 -26.798779 -0.50011343
1.58279 -1.3862758 -0.56377494
1.6213377 -1.4200373 -0.55834866
1.6872009 -1.4777232 -0.56118131
1.7446479 -1.5280378 -0.55984902
1.8033515 -1.5794529 -0.55764377
1.8827132 -1.6489613 -0.56030035
1.951912 -1.7095687 -0.55828989
2.0273919 -1.7756772 -0.55648428
2.1310358 -1.8664529 -0.56042647
2.2241626 -1.9480174 -0.55942404
2.3317819 -2.0422752 -0.5598498
2.4440978 -2.140646 -0.55897391
2.5687089 -2.2497859 -0.55829459
2.7075324 -2.3713737 -0.55779529
2.8566365 -2.5019653 -0.55623549
3.036793 -2.659754 -0.55708522
3.2273819 -2.8266799 -0.55575311
3.4655945 -3.0353169 -0.55788338
3.7182984 -3.2566459 -0.55692142
4.0054994 -3.5081887 -0.5551638
4.3454137 -3.8059006 -0.55378652
4.7605405 -4.1694865 -0.55365354
5.2561536 -4.6035657 -0.55281973
5.8491979 -5.1229792 -0.55020767
6.6410165 -5.8164883 -0.5509941
7.6111169 -6.6661439 -0.54710746
8.9666376 -7.8533673 -0.54523414
10.876279 -9.5259132 -0.5409829
13.810194 -12.095563 -0.53416872
18.955536 -16.602076 -0.52363265
30.143549 -26.40102 -0.49956992
1.585016 -1.3541514 -0.55859458
1.6451561 -1.4055318 -0.56055695
1.7031223 -1.4550549 -0.56048346
1.7630936 -1.5062912 -0.55978221
1.8282334 -1.5619429 -0.55935651
1.9017918 -1.6247872 -0.55998999
1.980021 -1.691622 -0.56033772
2.0567799 -1.7572006 -0.55857766
2.148365 -1.835446 -0.55900609
2.2410247 -1.9146094 -0.55770153
2.3449914 -2.003433 -0.55706447
2.4695926 -2.1098855 -0.55882895
2.6019268 -2.2229445 -0.55953103
2.7406783 -2.3414862 -0.55865002
2.9010749 -2.4785202 -0.55891174
3.0758057 -2.6278007 -0.55827206
3.2729816 -2.7962573 -0.55764228
3.4913182 -2.9827919 -0.55607796
3.7412288 -3.1963019 -0.55442721
4.0482073 -3.4585679 -0.55514681
4.3956728 -3.7554233 -0.55426461
4.816462 -4.1149225 -0.55423069
5.3098102 -4.5364122 -0.55255443
5.9160409 -5.0543427 -0.55060744
6.6985774 -5.7228994 -0.54988962
7.7032909 -6.5812716 -0.54787457
9.0502691 -7.7320571 -0.54449707
10.976149 -9.3774233 -0.54017413
13.956723 -11.923864 -0.53412479
19.144577 -16.356083 -0.52325934
30.430092 -25.997812 -0.498983
1.6046706 -1.3371639 -0.55968434
1.6559906 -1.3799286 -0.55842477
1.7217387 -1.434716 -0.56076169
1.7670116 -1.4724418 -0.55523556
1.8593487 -1.5493858 -0.56300479
1.9188342 -1.5989547 -0.5591765
1.9966953 -1.663836 -0.55922431
2.0796978 -1.7330016 -0.55897212
2.1678455 -1.8064547 -0.55825293
2.2749956 -1.8957423 -0.56031197
2.3817668 -1.9847143 -0.55996078
2.4974639 -2.0811238 -0.55930275
2.6203353 -2.1835122 -0.55767369
2.7676179 -2.306242 -0.55831856
2.9270217 -2.4390724 -0.55809027
3.0954082 -2.5793879 -0.55603117
3.3070724 -2.7557666 -0.55763501
3.5166082 -2.9303718 -0.55432498
3.7983143 -3.1651161 -0.55707717
4.089437 -3.4077072 -0.55501258
4.453774 -3.711307 -0.55579442
4.8558917 -4.0463901 -0.55300063
5.3543816 -4.4617786 -0.55144167
5.9943461 -4.9950581 -0.55213714
6.7565117 -5.6301665 -0.54892075
7.7625504 -6.4684939 -0.54639089
9.1483889 -7.6233058 -0.5447194
11.097412 -9.2474174 -0.54050493
14.088697 -11.74004 -0.5336104
19.319283 -16.09866 -0.52258438
30.708399 -25.589151 -0.49834925
1.6228292 -1.3188267 -0.56031919
1.6847922 -1.3691822 -0.56241715
1.7262065 -1.4028386 -0.55655658
1.8057553 -1.4674855 -0.56169713
1.865025 -1.5156524 -0.55903804
1.9315351 -1.5697032 -0.5572108
2.0143747 -1.6370246 -0.55849588
2.1025603 -1.7086904 -0.5594275
2.2001531 -1.7880014 -0.56086844
2.2865341 -1.8582007 -0.55748409
2.4068816 -1.9560037 -0.56016833
2.5238063 -2.0510252 -0.55951172
2.6492317 -2.1529546 -0.55814707
2.7982059 -2.2740216 -0.55880594
2.9541678 -2.4007673 -0.55759525
3.125634 -2.540113 -0.55580795
3.3299987 -2.7061944 -0.5558477
3.5629315 -2.8954923 -0.55597258
3.8382199 -3.1192112 -0.55726236
4.1340246 -3.3596034 -0.55541521
4.4959431 -3.6537242 -0.55540818
4.9173646 -3.9962013 -0.55436325
5.4146538 -4.4003339 -0.55203474
