# .PCD v0.7 - Point Cloud Data file format
VERSION 0.7
FIELDS x y z
SIZE 4 4 4
TYPE F F F
COUNT 1 1 1
WIDTH 1459
HEIGHT 1
VIEWPOINT 0 0 0 1 0 0 0
POINTS 1459
DATA ascii
-27.842611 10.763206 -0.62031579
-49.752468 19.232969 -0.66501087
-15.743731 6.0861034 -0.070142381
-15.650536 6.0500765 0.069727175
-15.897015 6.145359 0.21248569
-17.339327 6.7029181 0.38630924
-17.422853 6.7352071 0.5435133
-17.454121 6.7472944 0.70018595
-17.440397 6.7419891 0.85530698
-17.401884 6.7271013 1.0088643
-17.303232 6.6889648 1.1578487
-17.127441 6.6210089 1.2993766
-16.370438 6.328372 1.3886348
-15.7703 6.0963745 1.4792242
-15.524401 6.0013165 1.5956525
-20.912098 8.0840559 2.3376224
-20.044809 7.748785 2.4213848
-1.9835713 0.73889214 -0.56717336
-2.0534654 0.7649281 -0.56768173
-2.1183033 0.78908068 -0.56560087
-2.2048435 0.82131737 -0.56797135
-2.289906 0.85300374 -0.56843352
-2.3783441 0.88594741 -0.56819439
-2.4790959 0.92347801 -0.56921762
-2.5814109 0.96159101 -0.56879771
-2.692636 1.003023 -0.56844842
-2.8054919 1.0450624 -0.56645989
-2.9708264 1.1066506 -0.57259351
-3.0960956 1.1533141 -0.56842458
-3.2735147 1.2194039 -0.57114762
-3.4523461 1.2860196 -0.57095391
-3.6515491 1.3602239 -0.57077694
-3.879549 1.4451553 -0.57131183
-4.1509681 1.5462604 -0.57380784
-4.430243 1.650292 -0.57250434
-4.760458 1.773299 -0.57237935
-5.1498313 1.9183429 -0.57298476
-5.6339145 2.0986669 -0.57637751
-6.1711946 2.2988069 -0.57615137
-6.8391604 2.5476282 -0.57743597
-7.6665177 2.8558238 -0.57891399
-8.7297888 3.2518985 -0.58143562
-10.12888 3.7730682 -0.58448207
-12.046316 4.4873247 -0.58802158
-14.870645 5.5394039 -0.59377038
-19.421206 7.2345152 -0.60303205
-27.996098 10.428714 -0.62083143
-50.018902 18.632339 -0.66545939
-15.633063 5.8234096 -0.06932506
-15.73615 5.8618097 0.069782197
-17.922571 6.6762652 0.23844475
-18.019047 6.7122025 0.39958391
-18.09193 6.7393517 0.5617578
-18.120098 6.749845 0.72351789
-18.107767 6.7452517 0.88390154
-18.033072 6.7174273 1.0405897
-17.904837 6.6696587 1.1925272
-17.719833 6.6007438 1.3380598
-17.454653 6.5019622 1.4737107
-17.122749 6.3783259 1.5986038
-15.574673 5.8016586 1.5933665
-15.74114 5.8636689 1.7514036
-19.876877 7.4042554 2.38992
-1.9901797 0.71361291 -0.56651103
-2.0601923 0.7387172 -0.56698745
-2.1436486 0.76864189 -0.56980151
-2.2095194 0.79226094 -0.56662345
-2.2946606 0.82278973 -0.5670594
-2.3874123 0.85604745 -0.56780308
-2.4756646 0.88769186 -0.56588078
-2.6077049 0.93503714 -0.57201475
-2.7121241 0.97247845 -0.56999505
-2.8321791 1.0155262 -0.56928396
-2.9644747 1.062963 -0.56880707
-3.1295383 1.1221495 -0.57198793
-3.2846518 1.177768 -0.57052082
-3.4681859 1.2435772 -0.57100141
-3.679704 1.3194207 -0.57259852
-3.8985088 1.397877 -0.57152939
-4.1502604 1.4881468 -0.57113731
-4.4510422 1.5959972 -0.5726127
-4.8013968 1.7216228 -0.57471281
-5.1690564 1.8534535 -0.57254469
-5.6537194 2.0272377 -0.57580984
-6.2036872 2.2244382 -0.57658768
-6.873735 2.4646952 -0.57775259
-7.7059002 2.7630823 -0.57927847
-8.7693615 3.1444044 -0.58145213
-10.186511 3.6525476 -0.5851717
-12.10785 4.3414764 -0.58837485
-14.942817 5.3580022 -0.5939765
-19.520649 6.9994626 -0.60340178
-28.143303 10.091262 -0.62129706
-16.082193 5.7665453 -0.2130006
-15.661392 5.6156597 -0.069139242
-15.794022 5.6632166 0.069724753
-18.529413 6.6440377 0.24541277
-18.643335 6.6848865 0.41157392
-18.714605 6.7104416 0.5784862
-18.748228 6.7224979 0.74524152
-18.710312 6.7089019 0.90921813
-18.619509 6.676343 1.0696115
-18.45512 6.6173983 1.2236658
-18.244314 6.5418105 1.3714864
-17.994205 6.4521298 1.5124526
-17.62476 6.3196588 1.6380934
-15.592275 5.5908766 1.588014
-15.667095 5.6177049 1.7353481
-19.684116 7.0580764 2.3561299
-2.0020108 0.69019437 -0.56742007
-2.0712931 0.71407944 -0.56758302
-2.1568906 0.74358922 -0.57084769
-2.224858 0.76702112 -0.56809533
-2.3038199 0.79424322 -0.56686652
-2.4031336 0.82848173 -0.56907624
-2.5066605 0.86417264 -0.57049364
-2.5924525 0.89374948 -0.56621552
-2.7046578 0.93243229 -0.5659734
-2.8433242 0.98023766 -0.56905836
-2.9877176 1.0300174 -0.57079345
-3.1240242 1.0770091 -0.56851661
-3.2985921 1.1371915 -0.57047021
-3.4901628 1.2032356 -0.57214051
-3.6796808 1.2685721 -0.57012445
-3.9095864 1.3478322 -0.57068056
-4.2002134 1.4480259 -0.57551771
-4.4627109 1.5385221 -0.57163686
-4.829402 1.664939 -0.57557088
-5.2064643 1.7949317 -0.57420003
-5.665843 1.9533026 -0.57455498
-6.2323747 2.1486146 -0.57675475
-6.9111824 2.3826342 -0.57839388
-7.7390647 2.668047 -0.57926148
-8.8040752 3.0352101 -0.58123523
-10.209011 3.5195622 -0.58393395
-12.159933 4.1921439 -0.58835638
-15.016429 5.1769228 -0.59432733
-19.619394 6.7637978 -0.60383755
-28.255638 9.741148 -0.62108576
-16.124063 5.5587802 -0.21263374
-15.711511 5.4165521 -0.069061242
-15.66156 5.3993316 0.068841681
-19.087957 6.5805845 0.25171968
-19.219385 6.6258941 0.42246035
-19.292952 6.6512561 0.59379041
-19.292768 6.6511931 0.7635783
-19.242619 6.633904 0.93105096
-19.122561 6.592514 1.0937703
-18.951719 6.5336161 1.2511714
-18.724592 6.4553137 1.4015175
-18.426971 6.3527088 1.5421453
-18.043293 6.2204356 1.6697576
-15.546177 5.3595533 1.5764879
-15.831513 5.4579234 1.745994
-16.484684 5.683104 1.9646541
-2.0081582 0.66480219 -0.56680268
-2.0905342 0.69207281 -0.57048047
-2.1525548 0.71260476 -0.56733817
-2.2369027 0.74052823 -0.56880271
-2.3165982 0.76691145 -0.5676474
-2.3927977 0.79213738 -0.56427938
-2.5200088 0.83425069 -0.57115376
-2.6222842 0.86810905 -0.57035649
-2.7408283 0.90735316 -0.57116449
-2.8500385 0.94350725 -0.56803721
-3.0015364 0.99366075 -0.57105595
-3.1402049 1.0395671 -0.56909192
-3.310925 1.0960841 -0.57022905
-3.5063148 1.160768 -0.57240522
-3.714844 1.2298017 -0.57318622
-3.9426942 1.3052317 -0.57312715
-4.1876311 1.3863183 -0.57141477
-4.4902864 1.4865125 -0.57278442
-4.833519 1.6001399 -0.57367319
-5.2336187 1.7325932 -0.57480168
-5.6892595 1.8834335 -0.57453758
-6.261375 2.0728326 -0.57703614
-6.94139 2.2979519 -0.57851338
-7.7908349 2.5791614 -0.5807187
-8.8325672 2.9240277 -0.58069861
-10.257187 3.395649 -0.58425707
-12.223019 4.0464392 -0.58895677
-15.0937 4.9967799 -0.59490877
-19.690994 6.5187173 -0.6035285
-28.381842 9.3958292 -0.62127328
-16.307707 5.3986778 -0.21416388
-15.864046 5.2518034 -0.069442615
-15.655499 5.1827641 0.068529725
-15.662301 5.1850157 0.20568798
-19.691072 6.5187435 0.43103394
-19.785807 6.5501056 0.60643452
-19.793341 6.5525994 0.78014219
-19.706375 6.5238094 0.9495365
-19.576277 6.4807401 1.1150794
-19.395655 6.4209452 1.2751706
-19.134882 6.3346162 1.4262893
-18.80035 6.2238693 1.5668699
-15.559738 5.1510625 1.4339552
-15.685314 5.1926346 1.5840027
-16.394655 5.4274621 1.8006041
-16.838427 5.5743728 1.998493
-2.0234332 0.64236301 -0.56884158
-2.0896425 0.66338193 -0.56796813
-2.1693552 0.68868768 -0.56949115
-2.2524707 0.7150737 -0.57048243
-2.3347244 0.74118608 -0.56981266
-2.4236519 0.76941717 -0.56928134
-2.5044737 0.795075 -0.56537414
-2.6226375 0.83258754 -0.56816357
-2.7483537 0.87249768 -0.57045382
-2.8721101 0.9117856 -0.5701586
-3.0016942 0.95292366 -0.56881368
-3.1547916 1.0015262 -0.56946051
-3.3324664 1.0579312 -0.57165539
-3.5117249 1.114839 -0.57100731
-3.7114446 1.1782423 -0.57038313
-3.9381483 1.2502121 -0.57018852
-4.2161331 1.3384616 -0.5730148
-4.5089188 1.4314101 -0.57287264
-4.8580718 1.5422529 -0.57429308
-5.2643123 1.6712188 -0.57587218
-5.7361689 1.8210152 -0.57696986
-6.2828016 1.9945502 -0.57670689
-6.9648786 2.2110839 -0.5781613
-7.8164859 2.4814367 -0.58031243
-8.8971252 2.8244987 -0.58261555
-10.304675 3.2713418 -0.5846265
-12.265058 3.8936889 -0.58863086
-15.133683 4.804368 -0.59411126
-19.789963 6.2825594 -0.60414839
-28.525095 9.0556316 -0.62192458
-16.754372 5.3188748 -0.2191543
-16.133512 5.1217756 -0.070341162
-15.869642 5.0380073 0.069190703
-15.712585 4.9881477 0.20552731
-15.633738 4.9631166 0.34085795
-15.620296 4.958849 0.47685671
-20.351625 6.4608665 0.7989549
-20.236984 6.4244719 0.97122359
-20.039259 6.361702 1.1369095
-19.766747 6.2751899 1.2943972
-15.574276 4.9442396 1.1562672
-15.606343 4.9544196 1.2954977
-15.767467 5.0055704 1.4473172
-16.110065 5.1143327 1.6204234
-17.474415 5.547461 1.9115564
-17.615219 5.5921612 2.0823691
-2.0369222 0.61918122 -0.57045013
-2.0989685 0.63804197 -0.56832761
-2.1890554 0.66542649 -0.5724715
-2.2424974 0.68167174 -0.56579071
-2.3320456 0.70889252 -0.56698859
-2.4143763 0.73391926 -0.56494015
-2.5298278 0.76901412 -0.56892002
-2.6460102 0.804331 -0.57104117
-2.7525635 0.836721 -0.56914902
-2.8729174 0.8733061 -0.56814414
-3.0124886 0.91573274 -0.56868237
-3.1623361 0.96128321 -0.56864572
-3.3474982 1.0175686 -0.57204425
-3.5179904 1.0693946 -0.56984484
-3.7439115 1.1380697 -0.57317871
-3.9607077 1.2039713 -0.57126814
-4.2246499 1.2842041 -0.57198286
-4.5337834 1.3781742 -0.57383525
-4.875824 1.4821472 -0.57419372
-5.2823968 1.6057369 -0.57564706
-5.7358513 1.7435772 -0.57473791
-6.3049994 1.9165864 -0.57653761
-7.0026741 2.1286645 -0.57908213
-7.8462157 2.3850834 -0.58029842
-8.9134274 2.7094934 -0.58145738
-10.340001 3.1431415 -0.5843938
-12.31922 3.744782 -0.58897573
-15.193829 4.6186023 -0.59419805
-19.87084 6.0403147 -0.60430431
-28.639662 8.7058506 -0.6220414
-17.355564 5.2757239 -0.22615249
-16.586712 5.0420094 -0.072041333
-16.258179 4.9421425 0.070614405
-16.05238 4.8795834 0.20917128
-15.903295 4.8342648 0.34541288
-15.809576 4.8057766 0.48079473
-15.74781 4.7870007 0.61586303
-15.732412 4.78232 0.75215876
-15.739487 4.7844706 0.8895607
-15.775811 4.7955127 1.0291172
-15.858506 4.8206501 1.1728796
-16.001017 4.8639703 1.323195
-16.311731 4.9584212 1.4915667
-18.311966 5.5664501 1.834877
-18.299023 5.5625153 1.9941286
-18.465363 5.6130795 2.1745446
-2.0442684 0.59405655 -0.5704186
-2.1031454 0.61116594 -0.56738079
-2.1906695 0.63660014 -0.57080334
-2.2649195 0.65817684 -0.56936288
-2.3437169 0.6810751 -0.56774712
-2.4450877 0.71053302 -0.57003886
-2.5361102 0.73698384 -0.56825191
-2.6374519 0.76643336 -0.56711745
-2.7704926 0.80509442 -0.57076609
-2.8931141 0.84072781 -0.57005066
-3.0339258 0.88164711 -0.57063955
-3.1859016 0.92581069 -0.57079297
-3.3545177 0.97480994 -0.57115227
-3.5387106 1.0283357 -0.57110971
-3.7449431 1.088266 -0.57124478
-3.9817171 1.1570716 -0.57220298
-4.2513542 1.2354271 -0.57349825
-4.5403252 1.319401 -0.57256651
-4.8770981 1.4172659 -0.57224822
-5.2955523 1.5388671 -0.57497513
-5.7632174 1.6747688 -0.57537305
-6.3371587 1.8415539 -0.57736403
-7.0129666 2.037941 -0.57781732
-7.8623052 2.2847555 -0.57936674
-8.9547977 2.6022298 -0.58202475
-10.379292 3.0161822 -0.58447409
-12.359902 3.5917401 -0.58876473
-15.254308 4.4328432 -0.59438658
-19.949238 5.7971716 -0.60447496
-28.762814 8.3583632 -0.62243688
-51.504921 14.967132 -0.6686886
-17.303806 5.0284195 -0.07488168
-16.890253 4.9082427 0.073092043
-16.600164 4.8239441 0.21551999
-16.446075 4.7791657 0.35589853
-16.330259 4.7455106 0.4948175
-16.293226 4.7347488 0.6348682
-16.268213 4.7274799 0.77493733
-16.255583 4.7238097 0.9153772
-16.334 4.7465973 1.0616423
-16.497692 4.7941661 1.2157012
-16.827677 4.890058 1.3864778
-17.794516 5.1710172 1.6212175
-19.141243 5.5623713 1.9109734
-18.806358 5.4650555 2.0419378
-18.737129 5.4449377 2.1984978
-2.0370049 0.5648793 -0.56641084
-2.1208904 0.58814144 -0.5701738
-2.1836526 0.605546 -0.56699198
-2.2697635 0.62942529 -0.56859195
-2.362747 0.65521044 -0.57036215
-2.4481435 0.67889166 -0.56876206
-2.5485563 0.70673698 -0.56905043
-2.6514516 0.73527074 -0.56814069
-2.7781665 0.77040988 -0.57035226
-2.9063818 0.80596513 -0.570669
-3.0366905 0.84210092 -0.56916887
-3.1916184 0.88506377 -0.56982428
-3.3776827 0.93666101 -0.57309204
-3.5512552 0.9847942 -0.57113677
-3.7615843 1.0431203 -0.57178336
-3.9976392 1.1085804 -0.5724889
-4.2613449 1.1817083 -0.57284254
-4.5587716 1.2641872 -0.57288903
-4.9026389 1.3595448 -0.57324016
-5.3092418 1.4722993 -0.5744524
-5.7757683 1.6016712 -0.57461637
-6.3322892 1.7559992 -0.57490963
-7.0438943 1.9533336 -0.57834285
-7.8995981 2.1906278 -0.58008599
-8.9867449 2.4921031 -0.5820654
-10.435707 2.8939133 -0.58560282
-12.393997 3.436964 -0.58833116
-15.327598 4.2504773 -0.59516078
-20.027813 5.5538878 -0.60474074
-28.874487 8.0071478 -0.62267572
-51.717602 14.341744 -0.66910964
-18.388334 5.099246 -0.079297602
-17.681105 4.9031253 0.076247752
-17.406404 4.8269482 0.22519977
-17.228512 4.777617 0.37153131
-17.142006 4.7536287 0.5176037
-17.08168 4.7368999 0.66327071
-17.070099 4.7336879 0.81030124
-17.093256 4.7401094 0.95919311
-17.242966 4.7816257 1.1168153
-17.531235 4.8615651 1.2873597
-20.157442 5.5898352 1.6550379
-20.163174 5.5914245 1.830618
-20.116861 5.5785818 2.001375
-19.22875 5.3323011 2.0805233
-18.714954 5.1898212 2.1882427
-2.035639 0.53763604 -0.56415015
-2.1118662 0.55776858 -0.56586123
-2.2009971 0.58130908 -0.56959647
-2.2722182 0.60011941 -0.56731546
-2.3736274 0.62690276 -0.57108468
-2.4623501 0.65033543 -0.57016164
-2.5671701 0.67801964 -0.57130182
-2.6569598 0.70173419 -0.56742913
-2.7900636 0.73688841 -0.57089132
-2.9169922 0.77041173 -0.57084912
-3.0532398 0.80639631 -0.57036906
-3.2060909 0.84676611 -0.5705061
-3.3890712 0.89509332 -0.57311356
-3.5516906 0.93804306 -0.56930864
-3.7694893 0.99556625 -0.57108098
-4.008606 1.0587196 -0.57215178
-4.254262 1.1236004 -0.56998998
-4.5767436 1.2087715 -0.57323635
-4.9233317 1.3003094 -0.57374674
-5.3432512 1.4112152 -0.57621104
-5.7928324 1.5299548 -0.57439893
-6.3610926 1.6800389 -0.57560557
-7.0569162 1.8638141 -0.57748663
-7.9291196 2.0941732 -0.58031899
-9.0262957 2.3839502 -0.5826844
-10.460489 2.7627378 -0.58504289
-12.446049 3.287147 -0.58883876
-15.383168 4.0628743 -0.59533364
-20.095888 5.307559 -0.6047799
-28.964445 7.6498485 -0.62254006
-51.91573 13.711551 -0.66944098
-18.477211 4.8800478 0.23825926
-18.203148 4.8076639 0.3912448
-18.049288 4.7670279 0.54318804
-17.998154 4.7535224 0.69653445
-18.006104 4.7556224 0.85189223
-18.147388 4.7929378 1.0149622
-18.590014 4.9098401 1.2000617
-22.027308 5.8176694 1.6121417
-21.763433 5.7479773 1.7809608
-21.520716 5.6838727 1.9473768
-19.841997 5.2405033 1.9674698
-19.022108 5.0239611 2.0513256
-18.582886 4.9079576 2.1655805
-4.7064962 1.2430407 1.3043425
-2.0509033 0.51477689 -0.56658334
-2.1269689 0.53386933 -0.56810588
-2.1972902 0.55151999 -0.56683928
-2.2863531 0.57387477 -0.5690397
-2.36675 0.5940544 -0.56762958
-2.474448 0.6210866 -0.57115132
-2.5691137 0.64484775 -0.56992668
-2.6671636 0.66945827 -0.56780732
-2.7874279 0.69964457 -0.56854868
-2.9180803 0.73243839 -0.56925648
-3.0582829 0.76762915 -0.5695048
-3.2046647 0.804371 -0.56844926
-3.3764901 0.84749925 -0.56918067
-3.5663755 0.8951605 -0.56985503
-3.7732134 0.9470768 -0.56983775
-3.9921782 1.0020369 -0.56800544
-4.2839351 1.075268 -0.57215089
-4.5774374 1.148937 -0.57151049
-4.9453416 1.241281 -0.57448953
-5.3542466 1.3439162 -0.57557118
-5.823236 1.4616326 -0.57558805
-6.3940973 1.6049188 -0.57676274
-7.085669 1.7785034 -0.57800621
-7.9363165 1.992016 -0.57900923
-9.0510273 2.2718084 -0.58243352
-10.494807 2.6341972 -0.58510637
-12.500208 3.137553 -0.58953124
-15.427743 3.8723645 -0.59517097
-20.153797 5.0586042 -0.60460496
-29.086334 7.3006716 -0.62318325
-52.110794 13.079813 -0.66983175
-20.388573 5.1175332 0.61164814
-20.48032 5.1405616 0.79008913
-22.727924 5.7047105 2.0501127
-19.575598 4.913476 1.9349172
-18.798475 4.7184186 2.0207996
-18.441006 4.6286936 2.1422513
-5.1334758 1.2885028 1.3242929
-4.6810393 1.1749412 1.2502892
-4.3784146 1.0989825 1.2095826
-2.0757742 0.49397016 -0.57173294
-2.133219 0.50764024 -0.56806511
-2.2246733 0.52940357 -0.57218075
-2.281146 0.54284233 -0.56603962
-2.3711319 0.56425619 -0.56697357
-2.4737012 0.58866453 -0.56926519
-2.5786393 0.61363655 -0.57032281
-2.6813095 0.63806885 -0.56910545
-2.8050337 0.6675114 -0.57042241
-2.9264717 0.69640988 -0.56917989
-3.0800669 0.73296082 -0.57183981
-3.2190959 0.76604545 -0.56929517
-3.4051566 0.81032211 -0.57229012
-3.5820639 0.85242057 -0.57064384
-3.799145 0.9040792 -0.57203186
-4.0310574 0.95926726 -0.57181567
-4.3048811 1.0244287 -0.57322264
-4.6018944 1.0951087 -0.5728395
-4.9500875 1.1779679 -0.57331479
-5.3700433 1.2779044 -0.57553655
-5.8440757 1.3907095 -0.57591408
-6.4068961 1.5246434 -0.5761826
-7.1221848 1.69486 -0.5792411
-7.9774494 1.8983866 -0.5802632
-9.072587 2.1589954 -0.58206856
-10.518197 2.5030062 -0.58465034
-12.519427 2.9792371 -0.58866543
-15.473236 3.6821525 -0.59513432
-20.232197 4.8146381 -0.60513514
-29.176355 6.9430714 -0.62323564
-52.301476 12.446136 -0.6702649
-20.986881 4.9942298 1.7068448
-20.428137 4.8612661 1.8371357
-19.317858 4.597054 1.9037102
-18.617266 4.4303341 1.9953129
-18.280575 4.3502126 2.1172404
-5.0534601 1.2025675 1.2539568
-4.6678834 1.1108122 1.2005687
-4.3897147 1.0446166 1.1689582
-4.1937017 0.99797153 1.1550763
-2.0740161 0.46668309 -0.56962502
-2.1466472 0.48302615 -0.57001621
-2.2118852 0.49770564 -0.56727475
-2.3103323 0.51985765 -0.57165241
-2.3898108 0.53774142 -0.56981581
-2.4778941 0.5575614 -0.5686093
-2.5801582 0.58057231 -0.56903678
-2.6786227 0.60272825 -0.56691927
-2.7934935 0.6285758 -0.56646109
-2.9215002 0.65737909 -0.566598
-3.0745575 0.69181913 -0.5691945
-3.2329445 0.72745848 -0.57011926
-3.4117086 0.76768297 -0.57176155
-3.5917099 0.80818576 -0.5705542
-3.8161924 0.85869753 -0.5729655
-4.0491867 0.91112459 -0.5727548
-4.3099418 0.96979821 -0.57226539
-4.6178994 1.039093 -0.57319796
-4.9877515 1.122315 -0.57603514
-5.3793564 1.2104317 -0.57489604
-5.8565221 1.3178008 -0.57550025
-6.4420509 1.449553 -0.57769746
-7.1229253 1.6027595 -0.57765478
-7.9917803 1.7982641 -0.57965338
-9.1073771 2.0492892 -0.58263981
-10.573951 2.3792894 -0.58607882
-12.578915 2.8304346 -0.58978146
-15.527267 3.493856 -0.59551501
-20.289177 4.5653534 -0.60511458
-29.264191 6.5848589 -0.62333518
-52.463169 11.804958 -0.67042607
-21.789343 4.9029117 1.580407
-21.173378 4.7643113 1.717118
-20.155416 4.535255 1.8074574
-19.082218 4.2937703 1.8751438
-18.434641 4.148056 1.9701245
-18.149834 4.0839705 2.0961232
-5.5644789 1.2520869 1.2768966
-5.0350771 1.1329639 1.2005413
-4.6960449 1.0566769 1.1619564
-4.4404058 0.99915439 1.1388159
-4.2231436 0.95026737 1.1214046
-4.0455208 0.91029966 1.1110955
-2.079448 0.44111496 -0.56958413
-2.1390839 0.4537656 -0.56648344
-2.2205296 0.47104272 -0.5679633
-2.2886593 0.48549512 -0.56476992
-2.3986742 0.50883269 -0.57039422
-2.4852445 0.52719694 -0.56876546
-2.5880661 0.54900855 -0.56924891
-2.6910856 0.57086217 -0.56802839
-2.8223433 0.59870595 -0.57077515
-2.9463458 0.62501073 -0.56988293
-3.0676966 0.65075296 -0.56640017
-3.244096 0.6881727 -0.57055038
-3.4263361 0.72683144 -0.57267183
-3.6103089 0.76585776 -0.57196951
-3.8143027 0.80913115 -0.57114482
-4.0628386 0.86185318 -0.57314348
-4.3230395 0.91704988 -0.57246393
-4.6305428 0.98228079 -0.57322472
-4.9555826 1.0512317 -0.57078391
-5.3818178 1.1416494 -0.57361543
-5.8733392 1.2459162 -0.57560384
-6.4394035 1.3659959 -0.57591027
-7.1419172 1.5150206 -0.57764053
-8.0250921 1.7023693 -0.5805074
-9.1384573 1.9385483 -0.58305913
-10.582518 2.2448781 -0.58497941
-12.596878 2.6721859 -0.58903855
-15.571923 3.3032846 -0.59562486
-20.355448 4.3180175 -0.60546172
-29.355265 6.2271557 -0.62359691
-52.638836 11.166319 -0.67086554
-22.449362 4.7622013 1.623909
-22.290474 4.7284966 1.8028606
-19.734295 4.1862516 1.7649434
-18.862795 4.00138 1.8486071
-18.254843 3.8724146 1.9456733
-18.00775 3.8199983 2.0741322
-5.4969206 1.1660662 1.2090557
-5.0627856 1.0739728 1.1586535
-4.7260027 1.0025307 1.1238226
-4.4987707 0.95432788 1.1101568
-4.2772789 0.90734261 1.0940351
-4.1009679 0.86994165 1.0860398
-3.9463243 0.83713698 1.0809425
-2.072006 0.41298071 -0.56611192
-2.1535459 0.42923278 -0.56887257
-2.2275953 0.44399193 -0.56833118
-2.2949274 0.45741215 -0.56488609
-2.4029629 0.4789452 -0.56997049
-2.505502 0.4993827 -0.57195288
-2.5833304 0.51489502 -0.56677186
-2.6993008 0.53800958 -0.56832302
-2.8091798 0.55991006 -0.56667787
-2.9495227 0.58788246 -0.56905621
-3.1006758 0.61800945 -0.57104295
-3.2511919 0.64800948 -0.57035387
-3.4423816 0.68611634 -0.57390016
-3.604027 0.71833462 -0.56953186
-3.8395667 0.76528102 -0.5734753
-4.0638494 0.80998391 -0.57183784
-4.3367639 0.86437964 -0.5728305
-4.6580143 0.92840952 -0.57516879
-4.9953718 0.9956497 -0.57391328
-5.4133725 1.0789633 -0.57552105
-5.8819437 1.1723562 -0.57499081
-6.4759655 1.2907534 -0.57771707
-7.163362 1.4277614 -0.57791132
-8.0392122 1.6023309 -0.58005965
-9.1659451 1.826905 -0.58333552
-10.617226 2.1161664 -0.58541536
-12.627147 2.5167725 -0.58896226
-15.613681 3.1120319 -0.59571332
-20.40901 4.0678101 -0.60552132
-29.4296 5.8657441 -0.62359667
-52.808655 10.525527 -0.67132962
-19.4076 3.8682151 1.7313405
-18.653881 3.7179878 1.8235146
-18.102961 3.6081815 1.9246109
-17.8622 3.5601943 2.0521705
-18.355999 3.6586156 2.2665877
-6.1676455 1.2293007 1.2441596
-5.5065327 1.0975314 1.1593703
-5.1020169 1.0169055 1.119361
-4.7835612 0.9534328 1.0919855
-4.5487814 0.90663773 1.0789475
-4.3498945 0.86699682 1.0707071
-4.1524525 0.82764375 1.0594242
-3.9955819 0.79637712 1.0554578
-3.8511498 0.76758975 1.0522082
-2.0806518 0.38816789 -0.56712711
-2.1576927 0.40254071 -0.5686174
-2.2415552 0.41818619 -0.57053775
-2.310833 0.43111068 -0.56745338
-2.4084723 0.44932637 -0.5699237
-2.4965272 0.46575394 -0.56855381
-2.6023982 0.48550528 -0.56960237
-2.6984918 0.50343257 -0.5668065
-2.8153911 0.52524137 -0.56658512
-2.950861 0.55051476 -0.56796539
-3.1032679 0.5789479 -0.57016611
-3.2660093 0.60930908 -0.57159567
-3.4254577 0.63905585 -0.56972551
-3.6190748 0.67517722 -0.57055473
-3.8314402 0.7147963 -0.57090563
-4.0606813 0.75756371 -0.57003814
-4.3509479 0.81171596 -0.57334226
-4.6575389 0.86891383 -0.57374734
-5.0256815 0.93759483 -0.57602745
-5.4161901 1.0104483 -0.57445621
-5.8939843 1.099586 -0.57480264
-6.4828639 1.2094479 -0.57696211
-7.1876817 1.3409392 -0.57849938
-8.0602112 1.503719 -0.5801968
-9.1756325 1.7118127 -0.58256841
-10.632293 1.9835682 -0.58485705
-12.679928 2.3655765 -0.5900228
-15.643531 2.9184685 -0.59543794
-20.444948 3.8142245 -0.60515034
-29.511686 5.5057216 -0.62385434
-52.957512 9.8797922 -0.67162681
-19.089355 3.5613241 1.698915
-18.413572 3.4352493 1.795758
-17.951218 3.3489921 1.9039562
-17.739193 3.3094368 2.0332093
-18.083961 3.3737571 2.2277055
-6.1104302 1.1399664 1.1761019
-5.5316806 1.0319943 1.1132265
-5.1668873 0.96393824 1.0852822
-4.8550587 0.90576321 1.0626556
-4.6041036 0.85894489 1.0485288
-4.3999224 0.82085276 1.0411662
-4.2125039 0.78588784 1.0344321
-4.066371 0.75862509 1.0350037
-3.9104605 0.72953832 1.0305248
-3.7717569 0.70366174 1.0280749
-2.0996063 0.36504889 -0.57102686
-2.1462922 0.37316597 -0.56436116
-2.237469 0.38901845 -0.56823713
-2.3234253 0.40396327 -0.56928277
-2.4237843 0.42141223 -0.57227755
-2.5198298 0.43811122 -0.57259047
-2.6064892 0.45317829 -0.56923509
-2.7248044 0.47374922 -0.57106656
-2.8434222 0.49437273 -0.57095969
-2.9617739 0.51495004 -0.56880409
-3.1122985 0.54112101 -0.57055968
-3.2699034 0.56852305 -0.57101053
-3.44398 0.59878898 -0.57153833
-3.6295712 0.63105685 -0.570943
-3.8403773 0.66770875 -0.57097071
-4.0769377 0.7088384 -0.57105345
-4.3510132 0.75649071 -0.57208186
-4.66079 0.81035006 -0.57287705
-5.003716 0.86997306 -0.57224041
-5.4357877 0.94509542 -0.57525873
-5.9088225 1.0273398 -0.57497424
-6.5032496 1.1306901 -0.57749534
-7.201685 1.2521238 -0.57834345
-8.0837126 1.4054779 -0.58060056
-9.2019625 1.5999029 -0.58294696
-10.679221 1.8567472 -0.58613825
-12.702758 2.2085702 -0.58977681
-15.702601 2.7301393 -0.59636348
-20.514156 3.5667021 -0.60585487
-29.578932 5.1427531 -0.62389189
-53.099403 9.2321491 -0.6719358
-20.166553 3.5062659 1.6195091
-18.815546 3.2713726 1.67084
-18.224043 3.1685307 1.7733408
-17.799707 3.0947533 1.883708
-17.608891 3.0615768 2.0138073
-17.887774 3.110065 2.1986606
-7.3546848 1.2787251 1.28432
-6.1418052 1.0678474 1.1259416
-5.625442 0.97806972 1.0803574
-5.2524219 0.91321445 1.0546874
-4.9317908 0.85746777 1.0336084
-4.7046771 0.81798053 1.0274614
-4.4727569 0.77765763 1.0163616
-4.3038745 0.74829483 1.0161839
-4.1269927 0.71754122 1.0111905
-3.9732275 0.69080681 1.0090578
-3.8287904 0.66569418 1.0067691
-3.7206161 0.64688641 1.0118906
-2.0888798 0.33677804 -0.56694049
-2.1518872 0.34693637 -0.56466788
-2.2459533 0.36210215 -0.56921804
-2.3347862 0.37642416 -0.57088917
-2.4181325 0.38986158 -0.56976807
-2.5243733 0.40699017 -0.57244247
-2.6131303 0.42129996 -0.569511
-2.72492 0.43932319 -0.56991553
-2.851274 0.4596945 -0.57135808
-2.9855864 0.4813489 -0.57219726
-3.1100605 0.50141716 -0.56897604
-3.2576895 0.52521855 -0.567707
-3.4575486 0.5574407 -0.57260931
-3.6318016 0.58553445 -0.57011813
-3.852407 0.62110138 -0.57158053
-4.0869236 0.65891117 -0.57127404
-4.3668923 0.70404893 -0.57298809
-4.6716251 0.75317925 -0.57302719
-5.0312243 0.81115532 -0.5742023
-5.440661 0.87716645 -0.57458955
-5.9395723 0.95760304 -0.57677698
-6.5216208 1.0514433 -0.57793492
-7.2171621 1.1635815 -0.57839364
-8.0931616 1.3048139 -0.58008301
-9.2226858 1.4869206 -0.58305746
-10.685575 1.7227738 -0.58528006
-12.718821 2.0505822 -0.58930737
-15.714293 2.533525 -0.59557933
-20.544224 3.3122268 -0.6054942
-29.663826 4.7825279 -0.62439495
-53.225506 8.5812416 -0.67214543
-19.44701 3.1353297 1.5585111
-18.560627 2.9924231 1.6448112
-18.028011 2.9065523 1.7506551
-17.664043 2.8478723 1.8655041
-17.482397 2.8185863 1.9952265
-17.720423 2.8569617 2.1736083
-7.1324492 1.1499237 1.1812145
-6.210535 1.0012889 1.0822898
-5.7185583 0.92197025 1.0461928
-5.3433003 0.86146957 1.0240608
-5.0476656 0.81380612 1.0114864
-4.772141 0.76938486 0.99809068
-4.5635915 0.73576158 0.99459851
-4.3877182 0.70740652 0.99498606
-4.2056398 0.67805111 0.99094635
-4.0520396 0.65328699 0.99078256
-3.9076116 0.63000172 0.99035138
-3.7770429 0.60895091 0.99111831
-3.669039 0.59153801 0.99580973
-2.1057007 0.31297684 -0.57041818
-2.1618145 0.3213172 -0.56619328
-2.2524755 0.33479244 -0.56978458
-2.3225546 0.3452085 -0.56681752
-2.4144056 0.35886061 -0.56780732
-2.5151558 0.37383544 -0.56926686
-2.6252139 0.3901937 -0.57105565
-2.7255592 0.40510833 -0.5689643
-2.8398395 0.42209417 -0.56798381
-2.9853828 0.44372675 -0.57106942
-3.1298614 0.46520105 -0.57150888
-3.263597 0.48507857 -0.56765407
-3.4677098 0.5154165 -0.57319909
-3.6234541 0.53856528 -0.56772524
-3.8695896 0.57514912 -0.57303727
-4.0960107 0.60880286 -0.5714547
-4.3686042 0.64931923 -0.5721218
-4.6933951 0.69759387 -0.57460189
-5.0341806 0.74824595 -0.57344627
-5.4539547 0.81063825 -0.57489729
-5.9351659 0.88216215 -0.57525223
-6.5156698 0.96844429 -0.57630867
-7.2258768 1.0740045 -0.57799
-8.1223974 1.2072572 -0.58107048
-9.2295332 1.3718143 -0.58237988
-10.70675 1.5913776 -0.58532381
-12.754986 1.8958131 -0.58985829
-15.754827 2.3416889 -0.59597921
-20.592056 3.0606616 -0.60574895
-29.723185 4.4178495 -0.62445366
-53.345268 7.9288735 -0.6723758
-19.04751 2.8310907 1.5235895
-18.323542 2.723485 1.6207107
-17.871008 2.6562235 1.7321063
-17.532984 2.6059821 1.8481389
-17.364952 2.5810068 1.9780511
-17.567873 2.6111674 2.1507955
-7.1409492 1.0613815 1.1188487
-6.3435726 0.94286495 1.0485682
-5.8228984 0.86547548 1.0128064
-5.4565806 0.81102854 0.99636489
-5.1459737 0.76486206 0.98436558
-4.8848004 0.72604305 0.97698736
-4.6711473 0.69428718 0.97510862
-4.4602175 0.66293597 0.97021902
-4.2860827 0.63705379 0.97008884
-4.1264095 0.61332107 0.97042739
-3.9936979 0.59359574 0.97465867
-3.8445616 0.57142913 0.97251755
-3.7120106 0.55172765 0.97219974
-3.6180878 0.53776765 0.98011225
-2.1011531 0.28594154 -0.56819081
-2.1592979 0.29385436 -0.56454515
-2.2557869 0.30698535 -0.5696243
-2.335901 0.3178879 -0.56907773
-2.4266939 0.33024374 -0.56969911
-2.5130243 0.34199226 -0.56778967
-2.6282682 0.35767555 -0.5707202
-2.7357125 0.37229741 -0.57008511
-2.8504534 0.38791227 -0.56910962
-2.9911165 0.40705481 -0.5711655
-3.1419253 0.42757806 -0.57270837
-3.2772584 0.44599527 -0.56903338
-3.4633508 0.47132021 -0.57147741
-3.6632106 0.49851868 -0.57295054
-3.8633969 0.5257616 -0.57111967
-4.1013589 0.5581454 -0.57120013
-4.3856153 0.59682924 -0.57334518
-4.6931601 0.63868237 -0.57356822
-5.0419354 0.6861465 -0.57332516
-5.4718251 0.74464929 -0.57577235
-5.9471626 0.80933696 -0.57540697
-6.531487 0.88885641 -0.57669735
-7.2417793 0.98551869 -0.57824898
-8.1126575 1.1040348 -0.57935876
-9.245657 1.2582222 -0.58237702
-10.740184 1.4616092 -0.58612472
-12.785515 1.7399541 -0.59023607
-15.777685 2.1471522 -0.59580004
-20.620186 2.8061581 -0.6055156
-29.768368 4.051115 -0.62430918
-53.4632 7.2756953 -0.67268372
-18.708475 2.5459974 1.4938533
-18.098036 2.462924 1.5979652
-17.671766 2.4049139 1.7097998
-17.389622 2.3665175 1.8298215
-17.141874 2.3328021 1.9492254
-17.443394 2.3738351 2.1318209
-8.5227032 1.159837 1.1869649
-7.2622147 0.98829967 1.0735614
-6.5012331 0.88473922 1.0168362
-5.9645128 0.81169814 0.98418689
-5.5902495 0.76076537 0.97064006
-5.2635522 0.71630585 0.95943725
-4.9903998 0.67913312 0.95293659
-4.7594604 0.64770502 0.9502539
-4.5536151 0.61969197 0.94891113
-4.3686905 0.59452599 0.9486475
-4.2284946 0.57544702 0.95538092
-4.0689316 0.55373245 0.95523655
-3.9176013 0.53313822 0.95441538
-3.8022792 0.51744425 0.96013969
-3.6711776 0.49960291 0.95982373
-3.5872319 0.48817891 0.97005415
-2.1034622 0.25995564 -0.56790799
-2.1808629 0.26952115 -0.56927371
-2.2478933 0.27780509 -0.56672555
-2.3457522 0.28989893 -0.57056618
-2.4386308 0.3013773 -0.57158828
-2.5143969 0.31074083 -0.56719357
-2.6188195 0.32364586 -0.5677613
-2.7385435 0.33844191 -0.56976473
-2.8748684 0.35528955 -0.57306862
-2.984005 0.36877716 -0.56889862
-3.1363301 0.38760224 -0.57077658
-3.2994554 0.40776202 -0.57197362
-3.4747014 0.42941973 -0.5724358
-3.6524899 0.45139167 -0.57036251
-3.8800077 0.47950935 -0.57266033
-4.1050291 0.5073185 -0.57079929
-4.3875742 0.54223675 -0.57268625
-4.6906619 0.57969373 -0.57234848
-5.0642738 0.62586647 -0.57494676
-5.4745712 0.67657292 -0.57514238
-5.9632077 0.73696089 -0.57603902
-6.5351324 0.80764192 -0.5760988
-7.2619638 0.8974672 -0.57893568
-8.1504107 1.0072656 -0.58112645
-9.2627831 1.1447377 -0.58252507
-10.758897 1.3296344 -0.58620936
-12.792822 1.5809963 -0.58963132
-15.824574 1.9556743 -0.59661752
-20.669851 2.554476 -0.60600579
-29.833332 3.6869416 -0.6246736
-53.559292 6.6191058 -0.67281783
-19.468273 2.4059796 1.388093
-18.429832 2.2776444 1.4692566
-17.883575 2.2101352 1.5765108
-17.233398 2.1297834 1.6647266
-16.421974 2.0295038 1.7252444
-15.979269 1.9747922 1.8141255
-15.715089 1.9421436 1.9175348
-8.5254316 1.0536124 1.1127784
-7.4326673 0.91856349 1.0335033
-6.6966867 0.82760757 0.98838115
-6.1368051 0.7584148 0.95830613
-5.7395186 0.70931631 0.94555056
-5.4098387 0.66857296 0.93781692
-5.1358037 0.63470644 0.93465805
-4.8843431 0.60362977 0.93119693
-4.6737685 0.57760602 0.9316566
-4.4823227 0.5539462 0.9325648
-4.3074198 0.53233087 0.93385065
-4.1540513 0.51337689 0.93706417
-4.0261912 0.49757537 0.94369495
-3.8822927 0.47979176 0.9443047
-3.7643802 0.46521956 0.94905329
-3.6583405 0.45211467 0.95494181
-3.5390346 0.4373703 0.95549417
-2.1075015 0.23418412 -0.56817812
-2.1776328 0.24197705 -0.56761098
-2.2554314 0.25062197 -0.56780618
-2.3449109 0.26056486 -0.56953907
-2.4298875 0.2700074 -0.56871772
-2.5269458 0.28079247 -0.56920242
-2.6206505 0.29120487 -0.56733912
-2.7447827 0.30499834 -0.57023942
-2.8633235 0.31817049 -0.56994426
-2.985996 0.3318018 -0.56845742
-3.1354544 0.3484095 -0.56979442
-3.2836974 0.36488217 -0.56842113
-3.4716921 0.38577202 -0.57111531
-3.6539545 0.4060249 -0.56976849
-3.8753247 0.43062338 -0.5711444
-4.11408 0.45715371 -0.57123297
-4.3907299 0.48789486 -0.57227188
-4.7028704 0.52257973 -0.5730108
-5.064487 0.56276226 -0.57414186
-5.4715405 0.60799372 -0.57399511
-5.9564047 0.66187155 -0.5745523
-6.5467134 0.72746623 -0.57628757
-7.270165 0.80785567 -0.57875383
-8.1570177 0.90640217 -0.58075893
-9.2624464 1.0292367 -0.58166403
-10.773625 1.1971577 -0.58616543
-12.826084 1.4252255 -0.590312
-15.822336 1.7581669 -0.59567297
-20.695917 2.299716 -0.60589516
-29.851185 3.3170428 -0.62414616
-53.643356 5.9608121 -0.67290217
-23.15554 2.5730274 1.4541239
-16.988487 1.8877488 1.209537
-16.155277 1.7951632 1.2860683
-15.71166 1.7458688 1.3830504
-15.386747 1.7097646 1.484199
-15.098452 1.6777294 1.5839119
-10.506676 1.1674945 1.1911024
-8.696764 0.96637833 1.0596379
-7.6691256 0.85218787 0.99956608
-6.9349275 0.77060431 0.96290284
-6.3535085 0.70599741 0.93637854
-5.9205523 0.65788764 0.92320365
-5.5686088 0.61877996 0.91607147
-5.2782989 0.58652091 0.91369462
-5.0240459 0.55826849 0.91300112
-4.8062119 0.53406298 0.91498011
-4.5887351 0.50989705 0.91338736
-4.4313159 0.49240473 0.9206233
-4.2650461 0.47392896 0.92333078
-4.1105146 0.45675755 0.9259063
-3.968931 0.44102484 0.92893249
-3.8395879 0.42665234 0.93257082
-3.7199252 0.4133555 0.93649328
-3.6233115 0.40261984 0.9444344
-3.5030186 0.38925299 0.94440663
-2.1131246 0.20854002 -0.56895971
-2.1702447 0.21417709 -0.56495607
-2.2423604 0.22129405 -0.56378788
-2.3495066 0.23186809 -0.56991976
-2.42681 0.23949701 -0.56726527
-2.526778 0.24936263 -0.56843096
-2.6236351 0.25892127 -0.56725305
-2.7400548 0.27041051 -0.56852341
-2.8596556 0.28221366 -0.56848049
-2.9923239 0.29530644 -0.56892782
-3.1301315 0.30890638 -0.5680939
-3.3050618 0.32616991 -0.57138193
-3.4714539 0.34259081 -0.57034004
-3.6623378 0.36142877 -0.57033962
-3.8786654 0.38277769 -0.5708999
-4.1333857 0.4079155 -0.57317376
-4.393405 0.43357632 -0.57188243
-4.7056422 0.46439034 -0.57260942
-5.0665622 0.50000888 -0.57363683
-5.479598 0.54077053 -0.57409948
-5.9791288 0.59006816 -0.57600075
-6.5596981 0.64736342 -0.57668626
-7.2710047 0.71756083 -0.57807457
-8.1634111 0.80563062 -0.5804649
-9.2901487 0.91682613 -0.58265167
-10.772827 1.0631486 -0.58536655
-12.842798 1.2674299 -0.5903194
-15.862694 1.5654573 -0.59642261
-20.736904 2.0464833 -0.60631251
-29.907928 2.9515533 -0.62452656
-53.73098 5.3026023 -0.67313254
-16.914049 1.6692134 0.91906404
-16.252722 1.6039484 1.0193243
-15.825588 1.5617955 1.1252892
-15.442487 1.523988 1.2277408
-15.135333 1.4936756 1.3306007
-14.891137 1.4695764 1.4345411
-10.501032 1.0363257 1.100197
-8.9687443 0.88510734 1.0154423
-7.9731383 0.78685302 0.97021711
-7.20401 0.71094924 0.93773425
-6.6170897 0.6530273 0.91758734
-6.1179218 0.60376543 0.90049559
-5.7539043 0.56784123 0.89606136
-5.4346108 0.53633082 0.89287549
-5.1744919 0.51066023 0.89457059
-4.9368353 0.48720634 0.89599621
-4.7140346 0.46521857 0.89627504
-4.5489812 0.44892982 0.90430719
-4.3760033 0.43185899 0.90796006
-4.2149849 0.41596839 0.91131699
-4.0614605 0.40081739 0.91367745
-3.9440491 0.38923028 0.92191893
-3.8135185 0.37634847 0.92504507
-3.7021642 0.36535913 0.93082058
-3.5714147 0.35245574 0.92970735
-3.4921823 0.34463644 0.94027162
-2.1087368 0.18195617 -0.56713301
-2.1831739 0.18837909 -0.56767583
-2.2471504 0.19389944 -0.56435007
-2.3602638 0.20365964 -0.57187843
-2.4304807 0.20971842 -0.56747764
-2.5355144 0.21878144 -0.56974804
-2.6396074 0.2277633 -0.57005781
-2.7533312 0.23757616 -0.57062876
-2.8520088 0.24609073 -0.56631595
-3.0238745 0.26092049 -0.57427305
-3.1612597 0.27277499 -0.57309133
-3.3198845 0.28646225 -0.5732922
-3.4679513 0.29923844 -0.56911701
-3.673038 0.31693473 -0.57135582
-3.879385 0.33473974 -0.57035685
-4.1246166 0.35590002 -0.57130772
-4.393414 0.37909368 -0.57123363
-4.7032771 0.40583077 -0.57167119
-5.0734887 0.43777514 -0.57376814
-5.4976511 0.47437477 -0.57533628
-5.9809031 0.51607305 -0.57551688
-6.5689497 0.56681371 -0.57684326
-7.2956247 0.62951618 -0.57937276
-8.1655827 0.70458204 -0.57995939
-9.3009796 0.80255187 -0.58266795
-10.783564 0.93047929 -0.58528399
-12.845232 1.1083741 -0.58976018
-15.879017 1.3701497 -0.59635776
-20.745085 1.7900273 -0.60586238
-29.948372 2.5841494 -0.62466031
-53.813244 4.643373 -0.67339694
-17.173735 1.4818667 0.78849375
-16.41803 1.4166595 0.89109778
-15.864594 1.3689051 0.99385124
-15.459208 1.3339257 1.0979881
-15.157493 1.3078916 1.2037129
-13.565849 1.1705539 1.1912664
-10.791308 0.93114758 1.0384017
-9.3263445 0.80474049 0.9760139
-8.3096638 0.71701431 0.9397518
-7.507565 0.64780384 0.91252518
-6.9060163 0.59589809 0.89792323
-6.3896108 0.55133915 0.88503599
-5.9618173 0.51442617 0.87652129
-5.6231704 0.48520541 0.87470675
-5.3460112 0.46129021 0.87732083
-5.0755091 0.43794948 0.87646109
-4.8581724 0.41919619 0.8807174
-4.6674829 0.40274221 0.88641566
-4.5026641 0.38852051 0.89408231
-4.319272 0.37269622 0.89517057
-4.1682725 0.35966694 0.9001931
-4.0228496 0.34711882 0.90396279
-3.9004352 0.33655611 0.91068804
-3.7859166 0.32667467 0.91730595
-3.6839225 0.3178739 0.92518145
-3.5695159 0.30800214 0.92815697
-3.4722483 0.29960921 0.93384182
-2.1213589 0.1567937 -0.56996602
-2.1870456 0.16164874 -0.5681228
-2.2704127 0.16781054 -0.56963086
-2.3375254 0.17277098 -0.56581151
-2.4431748 0.18057972 -0.56987995
-2.5373147 0.18753777 -0.56959134
-2.6397309 0.19510756 -0.56952327
-2.7627153 0.20419759 -0.57201004
-2.8789909 0.21279173 -0.57111096
-3.0101361 0.22248493 -0.57110119
-3.1419044 0.23222417 -0.56902182
-3.2999995 0.24390927 -0.56929737
-3.4912579 0.25804555 -0.5723778
-3.6704757 0.27129188 -0.57039523
-3.8858652 0.28721175 -0.57074726
-4.1346707 0.30560142 -0.57213658
-4.403029 0.32543629 -0.57192016
-4.7302456 0.3496215 -0.5743832
-5.0820379 0.37562314 -0.57416922
-5.4913898 0.40587914 -0.57411528
-5.9908552 0.44279557 -0.57590705
-6.5766883 0.48609564 -0.57695436
-7.2937789 0.53909713 -0.57865596
-8.1705999 0.60390472 -0.57974452
-9.3145943 0.68845952 -0.58294642
-10.79212 0.79766625 -0.58517176
-12.865723 0.95093018 -0.59011954
-15.883505 1.1739802 -0.5959391
-20.774803 1.5355054 -0.60613298
-29.978874 2.215796 -0.62468106
-53.864906 3.9812584 -0.6733799
-18.024174 1.3322012 0.67625564
-16.909718 1.2498295 0.77560771
-16.201128 1.1974565 0.87845975
-15.674733 1.1585495 0.98099071
-15.282392 1.1295508 1.0843613
-13.616836 1.0064464 1.0802991
-11.270252 0.83300591 0.98870748
-9.7963514 0.72406709 0.9417333
-8.7222576 0.64467871 0.91189688
-7.9126635 0.58484012 0.89397365
-7.2180319 0.53349853 0.87646949
-6.6741233 0.49329725 0.86691821
-6.2006235 0.45829996 0.85801357
-5.8298421 0.43089482 0.85627425
-5.5214577 0.4081015 0.8580395
-5.2577534 0.3886106 0.86198771
-5.0264177 0.37151217 0.86712939
-4.7998824 0.35476848 0.86929369
-4.6072264 0.34052891 0.87411082
-4.4431386 0.32840088 0.88139397
-4.2929611 0.31730101 0.88884181
-4.1458244 0.30642581 0.89446372
-4.0113959 0.29648995 0.90050185
-3.8905005 0.28755435 0.90747422
-3.7535443 0.27743167 0.90856713
-3.650207 0.26979378 0.91581172
-3.5383337 0.26152503 0.9191432
-3.4553974 0.25539503 0.92839503
-2.1416464 0.13183868 -0.57493782
-2.1895785 0.13478935 -0.56830728
-2.275645 0.14008756 -0.57046831
-2.3650656 0.14559224 -0.57200122
-2.4395959 0.1501803 -0.56857145
-2.5262194 0.15551279 -0.56662852
-2.6378574 0.16238518 -0.5686453
-2.7496543 0.16926733 -0.56883186
-2.8797231 0.1772743 -0.57078069
-3.009007 0.18523295 -0.57041174
-3.1492817 0.1938682 -0.56988311
-3.3044763 0.20342189 -0.5695951
-3.4674761 0.21345608 -0.56800562
-3.6869519 0.2269669 -0.57247865
-3.9026959 0.24024799 -0.57274204
-4.1408901 0.25491109 -0.5725202
-4.4105525 0.27151138 -0.57242054
-4.7241273 0.29081488 -0.57316267
-5.0902672 0.31335428 -0.57462019
-5.505703 0.33892828 -0.57513249
-6.001152 0.36942789 -0.57641661
-6.595974 0.40604484 -0.57816446
-7.2910504 0.44883338 -0.57795793
-8.1772356 0.5033865 -0.5797323
-9.3096504 0.57309735 -0.58215195
-10.80151 0.66493547 -0.58519328
-12.886372 0.79327852 -0.59057456
-15.919555 0.97999978 -0.59679443
-20.788078 1.2797036 -0.60601544
-30.026102 1.8483917 -0.62514424
-53.925991 3.3196566 -0.67358226
-17.793842 1.0953799 0.66705799
-16.79771 1.0340586 0.76982886
-16.100945 0.99116606 0.87230074
-15.601835 0.96044111 0.97561556
-14.225098 0.8756898 1.0085008
-11.912528 0.73332924 0.94430023
-10.383389 0.63919622 0.91014713
-9.2460566 0.56918257 0.88809294
-8.3398361 0.51339608 0.87118953
-7.6286159 0.46961373 0.86116439
-7.0194693 0.43211496 0.85164887
-6.5214934 0.40145984 0.84638751
-6.092382 0.37504396 0.84233379
-5.7554789 0.35430437 0.84464812
-5.4584556 0.33601975 0.8475427
-5.1989088 0.32004219 0.85163081
-4.9634147 0.3055453 0.85554761
-4.7628174 0.29319665 0.8618629
-4.5802712 0.28195918 0.86827326
-4.4101424 0.27148613 0.87412018
-4.2435908 0.26123333 0.87788844
-4.1240354 0.25387353 0.88902205
-3.9718556 0.24450544 0.89088333
-3.8572779 0.23745209 0.89897591
-3.74492 0.23053539 0.90572488
-3.6434331 0.2242879 0.91335118
-3.5342388 0.21756595 0.91731519
-3.4326882 0.21131456 0.92152578
-2.1166487 0.10419365 -0.56784022
-2.1926539 0.10793506 -0.56871802
-2.2696648 0.11172597 -0.56858176
-2.3458409 0.1154758 -0.56696534
-2.4493763 0.12057241 -0.57046217
-2.5419495 0.1251294 -0.56976855
-2.6488385 0.13039109 -0.5706237
-2.7531164 0.13552426 -0.56916028
-2.8783202 0.1416875 -0.5701142
-2.9984353 0.14760026 -0.56802064
-3.1492469 0.15502408 -0.56948876
-3.2988312 0.16238748 -0.56823492
-3.4923863 0.17191538 -0.5716967
-3.6797514 0.18113858 -0.57097161
-3.9043429 0.19219425 -0.57259363
-4.1471806 0.20414813 -0.57299954
-4.4191175 0.21753442 -0.57314163
-4.7238088 0.23253308 -0.57273382
-5.0825858 0.25019416 -0.57336247
-5.5153995 0.27149972 -0.57575315
-6.0042982 0.29556617 -0.57632619
-6.5836658 0.32408598 -0.5766927
-7.3085146 0.3597672 -0.5789479
-8.2041082 0.40385351 -0.58124149
-9.3144484 0.45851082 -0.58205545
-10.831623 0.5331949 -0.58642519
-12.867402 0.63340771 -0.58930373
-15.91529 0.78344226 -0.5962283
-20.812939 1.0245328 -0.60632706
-30.052521 1.4793582 -0.62526828
-53.976074 2.6570132 -0.67374885
-21.597881 1.0631722 0.6291942
-17.758801 0.87419051 0.66529107
-16.746855 0.8243767 0.76697564
-16.073235 0.79121727 0.87020665
-15.197265 0.74809694 0.94966984
-12.773292 0.628775 0.90495723
-11.120236 0.54740208 0.8808955
-9.8657866 0.48565087 0.86418837
-8.8850908 0.43737534 0.85284072
-8.0914268 0.39830664 0.84466493
-7.4099026 0.3647581 0.83590519
-6.8643522 0.33790296 0.83226204
-6.4028811 0.31518671 0.83042771
-5.9982529 0.29526857 0.82875484
-5.672195 0.27921811 0.83185899
-5.4084363 0.2662344 0.83920437
-5.1541224 0.2537156 0.84371954
-4.9218249 0.24228059 0.84780109
-4.7324476 0.23295833 0.85578418
-4.5508046 0.22401682 0.86209995
-4.3811131 0.21566363 0.86777514
-4.2284665 0.20814949 0.87416399
-4.0916114 0.20141268 0.88143176
-3.966327 0.19524547 0.88903755
-3.8436718 0.18920767 0.89519501
-3.7184978 0.18304588 0.89872223
-3.6340349 0.17888813 0.91037494
-3.4992566 0.17225358 0.90761715
-3.4320459 0.16894507 0.92072606
-2.1185892 0.078190662 -0.56805986
-2.2011313 0.081237048 -0.57061464
-2.2737026 0.083915435 -0.56929177
-2.3380604 0.08629068 -0.56478572
-2.4328749 0.089789994 -0.56631899
-2.5490735 0.094078526 -0.57106292
-2.6366997 0.097312547 -0.56770802
-2.7652969 0.10205868 -0.57137579
-2.8605154 0.1055729 -0.56628758
-3.0001092 0.11072488 -0.56803691
-3.1539695 0.11640339 -0.57004082
-3.3234758 0.12265936 -0.57217699
-3.4771938 0.12833261 -0.56890833
-3.6913826 0.13623768 -0.57247317
-3.887749 0.14348495 -0.56985819
-4.146935 0.15305072 -0.57266223
-4.415278 0.16295443 -0.57234049
-4.7358036 0.17478406 -0.57388413
-5.1068754 0.1884792 -0.57579756
-5.5129895 0.20346762 -0.57519692
-6.0120716 0.22188723 -0.57676679
-6.5997224 0.24357562 -0.57779312
-7.2985101 0.26936576 -0.57784933
-8.1850967 0.30208695 -0.57958752
-9.3293276 0.34431705 -0.58267665
-10.815358 0.39916188 -0.58523464
-12.88068 0.47538665 -0.58959955
-15.916562 0.58743179 -0.59596032
-20.841419 0.76919323 -0.60683537
-30.058191 1.1093562 -0.62505519
-53.990101 1.9926101 -0.67356718
-21.525362 0.7944355 0.62674958
-17.76091 0.65550107 0.66501784
-16.749054 0.61815649 0.76667023
-16.075354 0.5932923 0.86986065
-13.927839 0.51403409 0.8698833
-12.043056 0.44447246 0.85277003
-10.638819 0.39264637 0.84231359
-9.5386219 0.35204142 0.83508819
-8.6511126 0.3192862 0.82994264
-7.9134946 0.29206297 0.82565325
-7.2978649 0.26934195 0.8228305
-6.7649865 0.24967502 0.81978035
-6.29951 0.23249571 0.8165884
-5.9469709 0.21948457 0.82123441
-5.6155972 0.20725457 0.82312268
-5.3484735 0.19739586 0.82946092
-5.1010261 0.18826333 0.83458573
-4.8915973 0.18053393 0.84214824
-4.6953816 0.17329222 0.84863192
-4.5290909 0.16715492 0.85753232
-4.3681307 0.16121438 0.86474562
-4.2157526 0.15559056 0.8710742
-4.0799384 0.15057808 0.87845182
-3.9546375 0.14595361 0.88594812
-3.8267376 0.14123322 0.89077914
-3.7170322 0.13718432 0.89789242
-3.6048713 0.13304481 0.90259099
-3.5199525 0.12991072 0.91250181
-3.4315364 0.12664755 0.920102
-2.1217749 0.052194208 -0.56869894
-2.1841824 0.053729396 -0.56600678
-2.2664106 0.055752151 -0.56725144
-2.3623991 0.058113404 -0.57044929
-2.4466162 0.060185086 -0.56930238
-2.5316746 0.062277462 -0.56695068
-2.6468191 0.065109938 -0.56967139
-2.7647977 0.068012133 -0.5710566
-2.8845389 0.070957683 -0.5708276
-2.9988284 0.07376913 -0.56757975
-3.156867 0.077656768 -0.57034886
-3.3176758 0.081612557 -0.57096249
-3.4872837 0.085784793 -0.57034343
-3.6841481 0.090627521 -0.57113516
-3.8988874 0.095909961 -0.57127482
-4.1635771 0.10242115 -0.57474303
-4.4172444 0.1086612 -0.57237893
-4.7360525 0.11650366 -0.57369739
-5.0959063 0.12535581 -0.57434356
-5.5219321 0.13583575 -0.57591212
-6.008574 0.14780681 -0.57621336
-6.5864539 0.16202226 -0.57641351
-7.3364592 0.18047188 -0.5806343
-8.1945257 0.20157973 -0.58003587
-9.3471622 0.22993381 -0.58356982
-10.834646 0.26652491 -0.58605671
-12.897026 0.317258 -0.59012455
-15.919587 0.39161095 -0.5958482
-20.809103 0.5118897 -0.60566533
-30.066135 0.73960632 -0.62498403
-54.037971 1.3292972 -0.67390954
-21.518631 0.52934361 0.62631667
-17.770781 0.43714905 0.66513586
-16.741245 0.41182318 0.7660231
-15.512275 0.38159135 0.83907425
-13.282955 0.32675162 0.82929254
-11.629627 0.28608087 0.82318377
-10.359716 0.25484195 0.819906
-9.3397226 0.22975078 0.81736583
-8.4911871 0.2088774 0.81429225
-7.7891822 0.19160856 0.8123759
-7.2051964 0.1772429 0.81207508
-6.6904755 0.16458112 0.81044459
-6.2483368 0.15370481 0.80964869
-5.8799734 0.14464332 0.81167555
-5.5780773 0.1372169 0.81731397
-5.3200502 0.1308696 0.82474101
-5.0884323 0.12517196 0.83221048
-4.8650956 0.11967803 0.83726901
-4.6649342 0.11475419 0.84281021
-4.505487 0.1108319 0.85274076
-4.3614731 0.10728925 0.8631013
-4.2005773 0.10333133 0.86761051
-4.054069 0.099727325 0.87255198
-3.9513545 0.097200617 0.88487792
-3.8356073 0.094353318 0.8925063
-3.7199652 0.091508605 0.89826125
-3.6054986 0.088692799 0.90240681
-3.5074697 0.086281359 0.90892202
-3.4248266 0.084248394 0.9179557
-2.1157494 0.026021866 -0.56695533
-2.1862197 0.026888588 -0.56640613
-2.2778616 0.028015705 -0.56998819
-2.3673453 0.029116277 -0.57151401
-2.4380248 0.029985569 -0.56717455
-2.5467284 0.031322531 -0.57019252
-2.6382046 0.032447606 -0.56768847
-2.7460532 0.033774052 -0.56705642
-2.875982 0.035372064 -0.56900519
-3.0225434 0.037174638 -0.57193846
-3.1561112 0.038817409 -0.57008296
-3.3298509 0.040954255 -0.57292783
-3.5062704 0.043124057 -0.57331866
-3.6877789 0.045356452 -0.57156837
-3.8916097 0.047863394 -0.57007915
-4.14781 0.051014435 -0.57243663
-4.436018 0.054559141 -0.57468122
-4.7324028 0.058204412 -0.57312524
-5.0959048 0.062675171 -0.57421315
-5.5143971 0.067822263 -0.57499582
-5.9977283 0.073766813 -0.57504278
-6.5997186 0.08117076 -0.57744336
-7.3048582 0.089843363 -0.5780021
-8.2110415 0.10098863 -0.58107311
-9.3228254 0.11466259 -0.58191836
-10.831311 0.13321565 -0.58574343
-12.892731 0.15856931 -0.58979422
-15.938031 0.19602384 -0.59640324
-20.832258 0.25621855 -0.60620177
-30.071392 0.3698518 -0.62495148
-54.035908 0.66459441 -0.67373097
-21.515593 0.26462296 0.62608624
-17.752798 0.21834388 0.66431212
-16.732061 0.2057897 0.7654292
-15.001636 0.18450698 0.81126922
-12.965389 0.15946294 0.80928236
-11.425336 0.14052163 0.80853993
-10.212762 0.12560803 0.80809206
-9.2179985 0.11337332 0.80653018
-8.4235201 0.10360192 0.80761981
-7.7132277 0.094865948 0.8042717
-7.1537414 0.087984763 0.80609286
-6.6507454 0.081798352 0.80544919
-6.2191887 0.076490581 0.80568904
