# .PCD v0.7 - Point Cloud Data file format
VERSION 0.7
FIELDS x y z
SIZE 4 4 4
TYPE F F F
COUNT 1 1 1
WIDTH 1445
HEIGHT 1
VIEWPOINT 0 0 0 1 0 0 0
POINTS 1445
DATA ascii
0.082316428 -2.9744983 -0.56302005
0.086384073 -3.1214826 -0.5640012
0.09082114 -3.2818155 -0.56483638
0.095347129 -3.4453619 -0.56353241
0.10043438 -3.6291893 -0.5626604
0.10629526 -3.8409717 -0.56283408
0.11304361 -4.0848231 -0.5639171
0.12026186 -4.345654 -0.5631476
0.12927838 -4.6714649 -0.56591904
0.13836467 -4.9997978 -0.56355679
0.14935762 -5.397027 -0.56293035
0.16271099 -5.8795505 -0.56388545
0.17838044 -6.445765 -0.5641464
0.19697466 -7.1176658 -0.56336343
0.21994537 -7.9477105 -0.56261063
0.24973683 -9.0242233 -0.56345302
0.288414 -10.42182 -0.56377178
0.34052631 -12.304894 -0.56307584
0.41626114 -15.041568 -0.56303042
0.5356456 -19.355516 -0.56340277
0.74946278 -27.081785 -0.56299365
1.2482417 -45.105125 -0.56255281
0.083879322 -2.0978153 -0.56255621
0.086969644 -2.1751041 -0.56393397
0.089536615 -2.2393038 -0.56074518
0.093602806 -2.3409989 -0.56556237
0.097488895 -2.4381897 -0.56762326
0.10059389 -2.5158455 -0.56368554
0.10406536 -2.6026666 -0.56044656
0.1090527 -2.7273996 -0.56361187
0.11330032 -2.8336322 -0.56103188
0.119372 -2.9854844 -0.56533462
0.12505315 -3.1275694 -0.56533611
0.13044275 -3.2623632 -0.56172204
0.13722266 -3.4319282 -0.56156874
0.14570214 -3.6439991 -0.56519151
0.15376242 -3.8455861 -0.56374466
0.16333888 -4.0850925 -0.5641889
0.1739997 -4.3517189 -0.56416816
0.18566762 -4.6435328 -0.56276929
0.19976546 -4.9961185 -0.56337631
0.21611223 -5.4049501 -0.56399125
0.23501341 -5.877667 -0.56393933
0.25751412 -6.4404082 -0.56391209
0.28479269 -7.122643 -0.5639919
0.31794634 -7.9518132 -0.56313527
0.36024308 -9.0096512 -0.56277722
0.41612518 -10.407258 -0.5632183
0.4921273 -12.308065 -0.56345522
0.60134053 -15.03948 -0.56318647
0.77233654 -19.316076 -0.56248868
1.0809613 -27.03476 -0.56224984
1.7987218 -44.985893 -0.56129915
0.10930921 -2.0897899 -0.56072211
0.11354937 -2.1708539 -0.56315142
0.11766433 -2.2495241 -0.56362414
0.12262584 -2.3443789 -0.5667004
0.12695457 -2.4271364 -0.56537068
0.13158311 -2.5156255 -0.56395608
0.13666116 -2.6127083 -0.56292826
0.1435677 -2.7447486 -0.56751889
0.14829287 -2.8350852 -0.56163812
0.15592811 -2.9810567 -0.56481659
0.16312414 -3.1186318 -0.56404054
0.17020492 -3.254003 -0.56060058
0.17912392 -3.4245179 -0.56067419
0.19001582 -3.6327507 -0.56376666
0.2008498 -3.8398764 -0.56322712
0.21330911 -4.0780754 -0.56353939
0.2271096 -4.3419151 -0.56321663
0.24273457 -4.6406355 -0.56273735
0.26169175 -5.0030618 -0.56447947
0.28268638 -5.4044404 -0.56425816
0.30602157 -5.8505659 -0.56165767
0.33711275 -6.4449716 -0.56463194
0.37233266 -7.1183114 -0.56396878
0.41560012 -7.9455051 -0.56300783
0.4711557 -9.0076246 -0.56297004
0.54350942 -10.390894 -0.56265187
0.64264423 -12.286167 -0.56277198
0.78622043 -15.031079 -0.56319135
1.0094671 -19.299143 -0.56231451
1.4114654 -26.984606 -0.56152529
2.3462245 -44.855473 -0.55998957
0.13574979 -2.0999475 -0.56385285
0.14026505 -2.1697955 -0.56328171
0.14555284 -2.2515936 -0.56454843
0.15060335 -2.3297212 -0.56356227
0.15644725 -2.4201217 -0.56414217
0.16276219 -2.5178094 -0.56485164
0.16897361 -2.6138954 -0.56358904
0.17693417 -2.7370391 -0.56633186
0.18368419 -2.8414569 -0.56330526
0.19212642 -2.9720521 -0.56351548
0.20080456 -3.1062963 -0.56221354
0.21065715 -3.2587085 -0.56181502
0.22215623 -3.4365907 -0.56305546
0.23408794 -3.6211653 -0.56237292
0.24951932 -3.8598771 -0.56656802
0.26413059 -4.0859027 -0.56502712
0.28021663 -4.3347416 -0.56269056
0.30033198 -4.6459112 -0.56378227
0.32192469 -4.9799337 -0.5622741
0.34748334 -5.3753071 -0.56162012
0.37938672 -5.8688283 -0.56381613
0.41526887 -6.4238987 -0.56319052
0.45866874 -7.0952625 -0.56254697
0.51262027 -7.929852 -0.56230289
0.58216578 -9.0056696 -0.56325263
0.6712777 -10.384164 -0.56269187
0.79272461 -12.262856 -0.56210822
0.96965367 -14.999817 -0.56242418
1.2455763 -19.268133 -0.56181479
1.7406994 -26.927317 -0.56073618
2.8915792 -44.730564 -0.55883181
0.16195066 -2.1031995 -0.56521797
0.16662695 -2.1639287 -0.56224811
0.17284584 -2.2446916 -0.56330818
0.1795173 -2.3313315 -0.56444311
0.18608032 -2.4165633 -0.56380343
0.19341037 -2.5117562 -0.56398457
0.20027615 -2.6009197 -0.56127989
0.20917617 -2.7165015 -0.562572
0.21946356 -2.8501003 -0.56551099
0.22929223 -2.977742 -0.56508619
0.2397092 -3.1130238 -0.56392205
0.25140208 -3.2648752 -0.56336856
0.26553807 -3.4484546 -0.5654915
0.27969688 -3.6323304 -0.56459832
0.29560483 -3.8389215 -0.56398302
0.31303385 -4.0652666 -0.5626632
0.33277422 -4.3216281 -0.56147701
0.35734996 -4.6407852 -0.56365085
0.38366559 -4.9825377 -0.5630582
0.41340581 -5.3687639 -0.56142509
0.45102778 -5.8573475 -0.56320339
0.49359846 -6.4101992 -0.56247914
0.54533398 -7.0820713 -0.56199032
0.60899329 -7.9087934 -0.56129813
0.69138443 -8.9787798 -0.56206006
0.79786217 -10.36157 -0.56195676
0.94407797 -12.260427 -0.56248647
1.1521968 -14.963196 -0.56153989
1.4816614 -19.241844 -0.56153709
2.0697923 -26.879705 -0.56023234
3.4327335 -44.579769 -0.55743307
0.18775947 -2.1006138 -0.56510085
0.19355236 -2.1654234 -0.56321228
0.20091988 -2.2478495 -0.56467801
0.20791814 -2.3261447 -0.56376368
0.21654579 -2.4226689 -0.56580639
0.22481689 -2.5152042 -0.56533682
0.23235805 -2.5995734 -0.56156343
0.2424091 -2.7120223 -0.5622192
0.25320521 -2.8328068 -0.56265491
0.2652204 -2.9672306 -0.56366771
0.2773577 -3.1030197 -0.56268513
0.29127109 -3.2586799 -0.56287497
0.30681756 -3.4326108 -0.56346941
0.32290867 -3.6126349 -0.56211156
0.34094045 -3.8143704 -0.56094962
0.36278519 -4.0587649 -0.56233823
0.38673553 -4.3267159 -0.56271338
0.41446677 -4.6369677 -0.56376356
0.4448697 -4.9771094 -0.56302041
0.48154163 -5.3873868 -0.56394917
0.5222367 -5.8426747 -0.5623675
0.57413089 -6.4232564 -0.56420165
0.63303721 -7.0822878 -0.56258267
0.70792007 -7.9200616 -0.56267315
0.80191702 -8.9716797 -0.56219035
0.92607564 -10.360741 -0.56248677
1.0937748 -12.236923 -0.56198275
1.3353951 -14.940122 -0.56124771
1.7152749 -19.190136 -0.56060123
2.3974245 -26.821884 -0.55959934
3.9730856 -44.45005 -0.55637985
0.21191169 -2.0818212 -0.56070393
0.2206724 -2.1678863 -0.56451595
0.22891092 -2.2488215 -0.56558651
0.23620813 -2.3205094 -0.56305927
0.24506181 -2.4074881 -0.56292212
0.25651827 -2.5200362 -0.56708896
0.26563737 -2.6096222 -0.56439716
0.27622709 -2.7136557 -0.56321943
0.28726134 -2.8220561 -0.5611788
0.30117568 -2.9587507 -0.56271785
0.3149403 -3.0939744 -0.56170464
0.33244014 -3.265893 -0.56478429
0.34907874 -3.4293504 -0.56359625
0.36788017 -3.6140559 -0.56299394
0.38869971 -3.8185871 -0.56223017
0.41224003 -4.0498471 -0.56176251
0.4402816 -4.3253279 -0.56319433
0.47050515 -4.6222439 -0.56263435
0.50575173 -4.9685063 -0.5627082
0.54653668 -5.3691778 -0.56270403
0.59325111 -5.8281007 -0.56162441
0.65158814 -6.4012036 -0.56292582
0.71942669 -7.0676498 -0.56208009
0.80494481 -7.9077802 -0.56246132
0.91223657 -8.9618149 -0.56223261
1.0511945 -10.326938 -0.56131095
1.242278 -12.204143 -0.56113636
1.5165743 -14.898829 -0.56035471
1.9495577 -19.15246 -0.56015855
2.7219322 -26.740271 -0.55855268
4.5092688 -44.299068 -0.5551421
0.2397069 -2.0984409 -0.56593126
0.24690057 -2.1614158 -0.56357902
0.2550177 -2.2324746 -0.56222141
0.2650657 -2.3204367 -0.5637899
0.27434552 -2.4016743 -0.56230903
0.28639403 -2.5071492 -0.56493872
0.29802826 -2.6089973 -0.56501192
0.31019163 -2.7154779 -0.56434655
0.32290676 -2.8267887 -0.56286687
0.33826137 -2.961206 -0.56393319
0.35366777 -3.0960765 -0.56283325
0.37222594 -3.2585382 -0.56426132
0.3912437 -3.4250236 -0.5636332
0.41096762 -3.5976906 -0.56118941
0.43670461 -3.8229971 -0.56362748
0.46359244 -4.0583787 -0.56369406
0.49272576 -4.3134174 -0.56238985
0.52659541 -4.6099191 -0.56187981
0.56697214 -4.9633842 -0.56287509
0.61172467 -5.3551569 -0.56198037
0.66540354 -5.8250723 -0.56207854
0.73046744 -6.3946543 -0.56309724
0.80760974 -7.069973 -0.56301212
0.90121424 -7.8894048 -0.56190008
1.0210134 -8.9381495 -0.56149316
1.1796597 -10.326971 -0.56205869
1.3918841 -12.184824 -0.56099266
1.7001399 -14.883356 -0.56051666
2.1825349 -19.106335 -0.55955213
3.0468807 -26.672987 -0.55788767
5.0424142 -44.142277 -0.5539124
0.2627542 -2.0737412 -0.56009901
0.2724779 -2.1504836 -0.56155968
0.28353986 -2.2377884 -0.56439495
0.29394668 -2.3199222 -0.56450045
0.30362266 -2.3962884 -0.56187963
0.31728441 -2.5041113 -0.5650906
0.3287636 -2.5947087 -0.56275046
0.34316215 -2.7083466 -0.56369889
0.35977235 -2.8394399 -0.5662241
0.37378299 -2.9500163 -0.562635
0.39280796 -3.1001675 -0.56441236
0.41140753 -3.2469614 -0.56309003
0.43182701 -3.4081182 -0.56168258
0.45746458 -3.6104586 -0.56401587
0.48314938 -3.8131714 -0.56301218
0.51393461 -4.056138 -0.56421798
0.54663426 -4.3142142 -0.56332761
0.58527899 -4.6192112 -0.56384695
0.62767297 -4.9537978 -0.5626207
0.67830431 -5.3533969 -0.56262851
0.73709726 -5.81741 -0.56217128
0.80803323 -6.3772593 -0.5623979
0.89282066 -7.0464296 -0.56196898
1.0006553 -7.8974957 -0.56331009
1.131271 -8.9283571 -0.5617094
1.3055787 -10.304049 -0.56164247
1.5404812 -12.157976 -0.56058633
1.8812178 -14.84718 -0.55998307
2.414747 -19.057964 -0.55896288
3.3683395 -26.584024 -0.55685115
5.5711122 -43.969017 -0.55255616
0.28971636 -2.0810151 -0.56298321
0.29982787 -2.1536453 -0.5633055
0.31038964 -2.2295101 -0.56322712
0.32169151 -2.3106906 -0.56317407
0.33216694 -2.3859348 -0.56036735
0.34728613 -2.4945352 -0.5638507
0.35944444 -2.5818677 -0.56088161
0.37561786 -2.6980402 -0.56247258
0.39272255 -2.8209021 -0.56344777
0.41169536 -2.9571826 -0.56492466
0.43071389 -3.0937917 -0.56417316
0.45001143 -3.2324047 -0.56148279
0.4764576 -3.4223659 -0.56495351
0.49991712 -3.5908742 -0.56187427
0.53097266 -3.8139443 -0.56404769
0.56199932 -4.0368071 -0.56244773
0.59878606 -4.3010435 -0.5625267
0.63944602 -4.593102 -0.56157726
0.68812102 -4.9427314 -0.56228232
0.74354225 -5.3408189 -0.56222498
0.8069433 -5.7962246 -0.56104046
0.88443398 -6.3528357 -0.56116062
0.97864032 -7.0295138 -0.56153721
1.0939052 -7.8574548 -0.56137103
1.2404027 -8.9097376 -0.56145507
1.4313571 -10.281351 -0.56132215
1.6873535 -12.120157 -0.55975693
2.060425 -14.799907 -0.55911344
2.6469159 -19.012636 -0.55854577
3.6939182 -26.53319 -0.5566957
6.0988913 -43.807964 -0.55143297
0.31539017 -2.0780103 -0.56317699
0.32699776 -2.1544893 -0.5645352
0.33835718 -2.2293332 -0.5641908
0.34960231 -2.3034239 -0.56240821
0.36284027 -2.3906448 -0.5624789
0.37762737 -2.4880724 -0.56339687
0.39427781 -2.5977771 -0.56534827
0.41105324 -2.7083054 -0.56562358
0.42593729 -2.8063719 -0.56154919
0.44510135 -2.9326379 -0.56123888
0.46552441 -3.0671995 -0.56032538
0.48889953 -3.221211 -0.56054026
0.51644444 -3.4026961 -0.56271225
0.5467335 -3.6022613 -0.56466532
0.57691997 -3.8011513 -0.56316227
0.61008787 -4.0196843 -0.5610649
0.65038115 -4.2851648 -0.56145346
0.69686884 -4.5914578 -0.56238139
0.74808753 -4.9289222 -0.56171542
0.80893183 -5.3298068 -0.56207031
0.88253129 -5.8147316 -0.56383961
0.9638952 -6.3508139 -0.56198651
1.0646838 -7.0148797 -0.56137156
1.1916009 -7.8510976 -0.56192118
1.3486711 -8.8859854 -0.56096101
1.5560174 -10.252128 -0.56072891
1.8394727 -12.119728 -0.56073934
2.2436535 -14.782754 -0.55946541
2.8778956 -18.961582 -0.55804336
4.0099053 -26.420053 -0.55531448
6.6194324 -43.613438 -0.54996735
0.34021419 -2.0697024 -0.56201661
0.35180321 -2.1402044 -0.56188327
0.36502081 -2.220614 -0.56307757
0.37759221 -2.2970924 -0.56195349
0.39275059 -2.3893089 -0.56325829
0.40658301 -2.4734588 -0.56117743
0.42203525 -2.5674629 -0.55983812
0.440254 -2.6782973 -0.56044465
0.4628244 -2.8156049 -0.56449282
0.48239473 -2.9346614 -0.56271881
0.50717354 -3.0854039 -0.56474763
0.53192395 -3.2359741 -0.56420481
0.5601604 -3.4077511 -0.56464463
0.58853787 -3.5803864 -0.56232822
0.62275928 -3.7885733 -0.5623908
0.66172731 -4.0256362 -0.56298882
0.7019704 -4.2704563 -0.56061488
0.75358593 -4.5844607 -0.56261683
0.80858171 -4.9190288 -0.56167859
0.87472445 -5.3214102 -0.56227666
0.95264745 -5.7954569 -0.56306392
1.0405689 -6.3303299 -0.56126374
1.150328 -6.9980521 -0.56111449
1.2870626 -7.8298802 -0.56149292
1.4562157 -8.8589277 -0.56034094
1.6787839 -10.212928 -0.55967164
1.9838839 -12.069012 -0.55947924
2.4236782 -14.744512 -0.55910373
3.1078806 -18.906876 -0.55751592
4.328959 -26.33534 -0.55461085
7.1437712 -43.459328 -0.54909021
0.36722803 -2.0743523 -0.56446278
0.37808421 -2.1356752 -0.5618723
0.39183077 -2.2133253 -0.56240857
0.40618828 -2.2944262 -0.56248057
0.42446595 -2.3976707 -0.56641716
0.43665937 -2.4665475 -0.56078523
0.45423445 -2.5658233 -0.56065619
0.47627109 -2.6903012 -0.56413937
0.49750921 -2.8102686 -0.56460673
0.51748157 -2.9230859 -0.56167686
0.54249507 -3.064379 -0.56207782
0.57299018 -3.2366359 -0.56550592
0.59885758 -3.3827527 -0.5616802
0.63077712 -3.563056 -0.56078213
0.66937685 -3.7810931 -0.56245977
0.70907295 -4.0053239 -0.56132501
0.75828964 -4.2833328 -0.56348675
0.80925119 -4.571198 -0.56216788
0.86887527 -4.9079952 -0.56159621
0.93801993 -5.2985711 -0.56103975
1.0214385 -5.7697754 -0.56174666
1.1196716 -6.3246627 -0.56193948
1.2345917 -6.9738088 -0.56034547
1.3821427 -7.8072762 -0.56104833
1.563977 -8.8343992 -0.55996358
1.8063637 -10.203564 -0.56033337
2.1308177 -12.0363 -0.55913514
2.6035883 -14.706828 -0.55884653
3.3353472 -18.840298 -0.55671996
4.6480079 -26.255093 -0.55408263
7.6610589 -43.274845 -0.54790813
0.39320597 -2.0723176 -0.56518209
0.40461344 -2.1324384 -0.56228715
0.42154574 -2.2216771 -0.56580514
0.43681532 -2.3021524 -0.56564873
0.45062032 -2.3749092 -0.56230646
0.46906203 -2.4721024 -0.56331694
0.48885593 -2.5764227 -0.56424302
0.50694102 -2.6717367 -0.56151122
0.53058559 -2.796351 -0.56307882
0.55370021 -2.9181721 -0.56199843
0.58246136 -3.0697522 -0.56433439
0.60869676 -3.2080209 -0.56177157
0.64091116 -3.3778007 -0.56212401
0.6739471 -3.5519106 -0.56028992
0.71795183 -3.7838292 -0.56413734
0.75787616 -3.9942427 -0.56103569
0.81195068 -4.279232 -0.5642181
0.86468935 -4.5571814 -0.56170928
0.93322819 -4.9184022 -0.56405747
1.0019648 -5.2806659 -0.56040603
1.0928217 -5.7595096 -0.56201297
1.1950374 -6.2982183 -0.56085312
1.3214369 -6.9643831 -0.56085134
1.4769524 -7.783998 -0.56063819
1.6750789 -8.828186 -0.56083286
1.9299779 -10.171583 -0.55983806
2.278163 -12.006626 -0.55901575
2.7814798 -14.659263 -0.5582965
3.5631061 -18.778675 -0.55615169
4.9625773 -26.154324 -0.55320203
8.1735525 -43.07716 -0.5466364
0.41710237 -2.0596519 -0.56308401
0.43192548 -2.1328483 -0.56375307
0.44615942 -2.2031357 -0.56243783
0.45979512 -2.2704687 -0.55921078
0.48175114 -2.3788877 -0.56460834
0.50030309 -2.4704971 -0.56431031
0.51941174 -2.5648556 -0.56306601
0.54207623 -2.6767731 -0.56392795
0.56433398 -2.7866819 -0.56248659
0.5920043 -2.9233177 -0.5643487
0.61876035 -3.0554392 -0.56305933
0.65028077 -3.211087 -0.56366616
0.68543488 -3.3846781 -0.56462848
0.71890628 -3.5499599 -0.56133425
0.7603901 -3.754807 -0.56116199
0.8075254 -3.9875612 -0.56144953
0.86201274 -4.2566195 -0.56259167
0.92048347 -4.5453482 -0.56160343
0.99126685 -4.894877 -0.56271482
1.0688089 -5.2777796 -0.56145203
1.1625967 -5.7409034 -0.56154996
1.2744263 -6.2931185 -0.56175202
1.4072961 -6.9492292 -0.56098217
1.5711496 -7.7583385 -0.56013924
1.7791398 -8.7853937 -0.55946189
2.0560482 -10.152768 -0.56015164
2.4245729 -11.972543 -0.55877477
2.9582574 -14.607878 -0.55768275
3.7924814 -18.727276 -0.55596852
5.2799158 -26.072229 -0.55279708
8.6832151 -42.877724 -0.54541928
0.44155234 -2.0504529 -0.562011
0.45760638 -2.1250036 -0.5631243
0.4730376 -2.1966622 -0.56222761
0.48968625 -2.2739739 -0.56151474
0.50793314 -2.3587079 -0.56125885
0.53042912 -2.4631732 -0.56408459
0.55143088 -2.5606999 -0.56359971
0.57476819 -2.6690724 -0.56375194
0.59836972 -2.7786715 -0.56231242
0.62431955 -2.8991756 -0.56112766
0.65696508 -3.0507729 -0.56364548
0.68587142 -3.1850061 -0.56052607
0.72446775 -3.3642375 -0.56266218
0.76468289 -3.5509861 -0.56294078
0.80655259 -3.7454178 -0.56119859
0.85810035 -3.9847922 -0.5625028
0.9117893 -4.2341094 -0.56105596
0.97679013 -4.5359564 -0.56188458
1.0488886 -4.8707623 -0.56138289
1.1341066 -5.2664928 -0.56169242
1.2341961 -5.7312813 -0.56205076
1.3507086 -6.2723355 -0.56133699
1.488964 -6.9143567 -0.55960274
1.6647475 -7.7306495 -0.55957574
1.887183 -8.7635813 -0.55950832
2.1782632 -10.115281 -0.55951893
2.5691106 -11.930274 -0.55823416
3.1337628 -14.55237 -0.55699265
4.0186472 -18.661539 -0.55544198
5.5927086 -25.971066 -0.55206847
9.1911659 -42.681358 -0.54431796
0.46875989 -2.0537605 -0.56445479
0.48484275 -2.1242237 -0.56445485
0.49908924 -2.1866415 -0.56119114
0.51937252 -2.2755079 -0.56342793
0.53738159 -2.3544104 -0.56176615
0.56265152 -2.4651246 -0.56607306
0.5802595 -2.5422695 -0.56107122
0.60428053 -2.6475122 -0.56072515
0.62955314 -2.7582381 -0.55970156
0.66024154 -2.8926921 -0.56140167
0.69275862 -3.0351579 -0.56229186
0.7273075 -3.1865258 -0.56232488
0.76524103 -3.3527224 -0.5622676
0.80807775 -3.5404015 -0.56279546
0.85476184 -3.7449367 -0.56265885
0.90769541 -3.9768524 -0.56291503
0.96412271 -4.2240753 -0.56125486
1.0292172 -4.5092721 -0.56010443
1.1088916 -4.858346 -0.56148094
1.1984978 -5.2509346 -0.56156242
1.301613 -5.7027092 -0.56077594
1.4288774 -6.2602882 -0.5617888
1.575536 -6.9028378 -0.5601961
1.7633157 -7.7255502 -0.56073374
1.9915074 -8.7253189 -0.55858666
2.2980573 -10.068395 -0.55844623
2.7126117 -11.884666 -0.55761874
3.3100221 -14.502079 -0.55658352
4.2455935 -18.601063 -0.55515385
5.9042554 -25.868099 -0.55138135
9.6950359 -42.476505 -0.54318476
0.49719149 -2.0611696 -0.56812847
0.50890309 -2.1097214 -0.56222153
0.52817053 -2.1895969 -0.5635739
0.54804718 -2.2719982 -0.56418484
0.57241422 -2.3730147 -0.56784171
0.58959681 -2.4442475 -0.56290126
0.61358869 -2.5437088 -0.56301147
0.63849515 -2.6469615 -0.56222886
0.66699302 -2.7651029 -0.56271636
0.69597566 -2.8852541 -0.56157666
0.73130512 -3.0317168 -0.56327772
0.76480335 -3.170588 -0.56112957
0.80707037 -3.3458111 -0.56273031
0.85140246 -3.5295956 -0.56269944
0.8990643 -3.7271836 -0.56161004
0.95512354 -3.959584 -0.56209064
1.016539 -4.2141895 -0.56155974
1.0864784 -4.5041323 -0.56108302
1.1652893 -4.8308525 -0.55991721
1.2640102 -5.2401123 -0.56202477
1.3721292 -5.688333 -0.56097901
1.4999349 -6.2181678 -0.55962181
1.6614026 -6.8875523 -0.56057119
1.8560157 -7.694345 -0.56008297
2.0986128 -8.7000618 -0.55857962
2.4234786 -10.046834 -0.55886102
2.8603044 -11.85775 -0.55796385
3.4892166 -14.464984 -0.55676448
4.4670181 -18.518581 -0.55428964
6.2116318 -25.751097 -0.55047387
10.193175 -42.257084 -0.54194069
0.51788706 -2.0367699 -0.56311578
0.53410101 -2.1005368 -0.56148171
0.55524957 -2.1837111 -0.56377363
0.57695651 -2.2690811 -0.56517947
0.5964691 -2.3458211 -0.56304699
0.61974204 -2.4373498 -0.56302524
0.64421415 -2.5335948 -0.56248367
0.66976851 -2.6340961 -0.56120312
0.69868511 -2.7478206 -0.56090528
0.73238969 -2.8803756 -0.56233746
0.76496512 -3.0084898 -0.56066751
0.80492175 -3.165633 -0.56196183
0.84936696 -3.3404291 -0.56353909
0.89188015 -3.507627 -0.56090313
0.94702506 -3.7245035 -0.56291831
1.0037317 -3.9475217 -0.56208789
1.0656128 -4.1908908 -0.56015879
1.1421272 -4.4918098 -0.5612551
1.2297705 -4.8364973 -0.56228167
1.3244636 -5.2089114 -0.56038272
1.4413594 -5.6686444 -0.5607428
1.5776083 -6.2044902 -0.56009436
1.7503934 -6.884027 -0.56199354
1.9479089 -7.6608253 -0.55934423
2.2060308 -8.6759796 -0.55873281
2.5468259 -10.016273 -0.55886084
3.0079648 -11.829862 -0.55834985
3.6610286 -14.398261 -0.55588698
4.6894579 -18.442913 -0.55370885
6.518795 -25.637415 -0.5497157
10.689249 -42.039165 -0.54079074
0.54109114 -2.0235171 -0.56124884
0.55774564 -2.0857997 -0.55933338
0.57860273 -2.1637988 -0.56042737
0.6046958 -2.2613792 -0.56507045
0.62461931 -2.335887 -0.56246358
0.64766616 -2.4220753 -0.56129408
0.67505115 -2.5244868 -0.56226194
0.70360774 -2.6312799 -0.56240386
0.73205549 -2.7376657 -0.56062752
0.76776594 -2.871212 -0.56234902
0.80548179 -3.0122578 -0.563173
0.84196913 -3.1487095 -0.56075311
0.88839591 -3.3223317 -0.56228644
0.93764621 -3.5065126 -0.56252611
0.9916566 -3.7084951 -0.56229931
1.0485837 -3.9213853 -0.56015998
1.1182423 -4.1818871 -0.5607509
1.198136 -4.4806657 -0.56166101
1.2857877 -4.8084564 -0.56081736
1.3903576 -5.1995163 -0.56116885
1.5106745 -5.6494651 -0.56064075
1.6553371 -6.1904593 -0.56062287
1.8256392 -6.8273377 -0.559156
2.0396221 -7.6275687 -0.55870503
2.3136806 -8.6524649 -0.55900836
2.665863 -9.9695196 -0.55803901
3.1508095 -11.783073 -0.55792797
3.8360534 -14.345677 -0.55563599
4.9101739 -18.362562 -0.55306739
6.8301935 -25.542854 -0.54944742
11.182014 -41.817345 -0.53966522
0.56850171 -2.0258737 -0.56379873
0.58276743 -2.07671 -0.55877525
0.60473543 -2.1549935 -0.5600304
0.62958521 -2.2435465 -0.56250644
0.65332377 -2.3281398 -0.56248999
0.67285466 -2.3977387 -0.55752945
0.70289606 -2.5047922 -0.55975819
0.73501164 -2.6192369 -0.56171918
0.76586652 -2.7291894 -0.56077784
0.80383486 -2.8644907 -0.56292599
0.84099942 -2.9969277 -0.5621978
0.88227886 -3.1440284 -0.561809
0.92671561 -3.3023801 -0.5607959
0.9798882 -3.4918623 -0.56206632
1.0342386 -3.6855416 -0.56070489
1.1010427 -3.9236002 -0.56236786
1.1717365 -4.1755195 -0.56178653
1.2511777 -4.458611 -0.56078261
1.3475382 -4.8019948 -0.56195384
1.4530852 -5.1781144 -0.56074506
1.5822481 -5.6383905 -0.5614301
1.7284858 -6.1595135 -0.55970281
1.9132029 -6.8177586 -0.56025583
2.1324844 -7.599175 -0.55850375
2.4189668 -8.6200638 -0.5587945
2.7869606 -9.9314213 -0.55778259
3.2877963 -11.716165 -0.55663204
4.0120564 -14.297088 -0.55562282
5.1329579 -18.291456 -0.55278504
7.1321254 -25.415552 -0.54855412
11.674611 -41.60284 -0.53870893
0.59606826 -2.0279171 -0.56636447
0.61033863 -2.0764673 -0.56068689
0.63466424 -2.1592269 -0.56311613
0.65652388 -2.2335968 -0.56199336
0.68358874 -2.3256755 -0.56388289
0.70942849 -2.4135864 -0.56320029
0.73775184 -2.5099471 -0.56289494
0.76815516 -2.6133838 -0.56244707
0.80134112 -2.7262876 -0.56216377
0.83749586 -2.8492918 -0.5619204
0.87753803 -2.9855216 -0.56203985
0.9215517 -3.135263 -0.5622251
0.96544766 -3.2846036 -0.55975091
1.0172772 -3.4609361 -0.55905956
1.0795001 -3.6726282 -0.56071734
1.1505145 -3.9142301 -0.56300998
1.2227319 -4.159925 -0.56166887
1.3043106 -4.4374681 -0.56009829
1.4044411 -4.7781281 -0.5611394
1.514747 -5.1534057 -0.56004399
1.648409 -5.6081448 -0.56039435
1.8090888 -6.1548028 -0.56125379
1.9948478 -6.7867837 -0.55968392
2.2254355 -7.571279 -0.55842251
2.521811 -8.5795956 -0.55813915
2.9068034 -9.8893986 -0.55738777
3.4292521 -11.666851 -0.55625051
4.1841917 -14.235273 -0.55517805
5.3526511 -18.210556 -0.55228746
7.4367843 -25.301102 -0.54801619
12.157654 -41.362236 -0.53748852
0.61591274 -2.0040207 -0.56176323
0.63484877 -2.0656335 -0.55982715
0.66170394 -2.1530132 -0.56357497
0.68638587 -2.2333219 -0.56400514
0.7119385 -2.3164635 -0.56372929
0.73598725 -2.394712 -0.5608654
0.76653874 -2.4941187 -0.56141663
0.80226117 -2.6103501 -0.56387466
0.83140856 -2.7051883 -0.55987883
0.87348402 -2.8420908 -0.562576
0.91532648 -2.9782352 -0.5627445
0.96034664 -3.1247191 -0.56240946
1.0096993 -3.2853003 -0.56194293
1.0653611 -3.4664092 -0.56201726
1.1302371 -3.6774988 -0.56354022
1.1964381 -3.8928998 -0.56201553
1.2751884 -4.1491332 -0.56228638
1.3597294 -4.4242077 -0.56049252
1.4619864 -4.7569256 -0.56071824
1.5784247 -5.1357851 -0.56019604
1.7170869 -5.586956 -0.56034452
1.8798419 -6.116519 -0.55982822
2.0771148 -6.7583938 -0.5594067
2.320276 -7.5495777 -0.55888397
2.6279576 -8.5506935 -0.55831897
3.0270872 -9.8493576 -0.55718678
3.574028 -11.628962 -0.55649728
4.3543868 -14.168048 -0.55460256
5.5706077 -18.125315 -0.55173796
7.7358212 -25.170359 -0.5472033
12.642616 -41.135799 -0.53652567
0.6428498 -2.0035989 -0.56381828
0.66259414 -2.0651371 -0.5618583
0.68924111 -2.1481888 -0.56448793
0.71115398 -2.2164857 -0.56191927
0.73803818 -2.300277 -0.56195623
0.76944667 -2.398169 -0.56384844
0.79996037 -2.4932725 -0.56339777
0.8305673 -2.5886664 -0.5613544
0.86846852 -2.706795 -0.562379
0.90968305 -2.8352501 -0.56339353
0.94874769 -2.9570045 -0.56089485
0.99732113 -3.1083958 -0.56163627
1.0494877 -3.2709856 -0.5616594
1.1076823 -3.4523635 -0.56190586
1.1712875 -3.6506047 -0.56158358
1.2442715 -3.8780773 -0.562042
1.3213778 -4.1183977 -0.56028074
1.4148951 -4.4098673 -0.56083751
1.5190021 -4.7343421 -0.56021559
1.6407228 -5.1137147 -0.55994689
1.786728 -5.5687757 -0.5606823
1.9558692 -6.0959458 -0.56010413
2.1629884 -6.7414837 -0.56016612
2.413739 -7.5230088 -0.55907208
2.7304237 -8.5100346 -0.55781418
3.1493576 -9.8157454 -0.5574339
3.7136924 -11.574633 -0.55604064
4.5232992 -14.097971 -0.55399477
5.7866421 -18.035488 -0.55112797
8.0296602 -25.026403 -0.54617894
13.117535 -40.88401 -0.5353049
0.66583431 -1.9907529 -0.56246477
0.68288827 -2.0417418 -0.55773562
0.7107653 -2.1250904 -0.56067252
0.74222749 -2.2191579 -0.56486779
0.76759177 -2.2949936 -0.5629288
0.79807717 -2.3861408 -0.56328511
0.82703477 -2.4727199 -0.56100911
0.864959 -2.5861082 -0.5630635
0.89898628 -2.687845 -0.56069624
0.94020474 -2.8110826 -0.56084609
0.98761302 -2.952827 -0.56236345
1.0349053 -3.0942242 -0.56133258
1.0920925 -3.2652061 -0.56293029
1.1502792 -3.4391763 -0.56201917
1.2128949 -3.6263885 -0.56011033
1.2872088 -3.848577 -0.56001818
1.369238 -4.093833 -0.55918717
1.4733449 -4.4050984 -0.56249255
1.5768735 -4.7146344 -0.56013566
1.7051485 -5.0981588 -0.56049711
1.8571978 -5.5527654 -0.56132716
2.0292408 -6.0671506 -0.55970877
2.2375524 -6.6899734 -0.55813003
2.5042453 -7.4873481 -0.55866814
2.8296275 -8.4601965 -0.556786
3.26811 -9.7711992 -0.55714417
3.8535733 -11.521653 -0.55572993
4.694983 -14.037352 -0.55383945
6.0048299 -17.953613 -0.55084074
8.3300734 -24.905773 -0.54574049
13.591459 -40.636593 -0.53421324
0.68624747 -1.9708877 -0.55919403
0.71419048 -2.0511394 -0.56265914
0.73713583 -2.117038 -0.56089711
0.76467341 -2.1961253 -0.56135601
0.79304928 -2.2776203 -0.56101692
0.82253838 -2.3623123 -0.56000537
0.85899979 -2.4670286 -0.56207186
0.8941645 -2.5680211 -0.56147689
0.9352529 -2.6860261 -0.56267321
0.97571778 -2.8022401 -0.5614332
1.0179275 -2.9234657 -0.5591132
1.0746371 -3.086334 -0.56225592
1.126489 -3.2352519 -0.56011188
1.1882811 -3.4127176 -0.56004083
1.2626806 -3.6263912 -0.56246632
1.3345901 -3.8329134 -0.56008458
1.4203144 -4.0791121 -0.55951965
1.5237348 -4.376133 -0.56114399
1.6340555 -4.6929717 -0.55990684
1.7679821 -5.0776062 -0.56058526
1.9186041 -5.5101891 -0.55936575
2.0975997 -6.024261 -0.55808938
2.3243268 -6.6754155 -0.55925769
2.5952752 -7.4535737 -0.558487
2.9359789 -8.4320679 -0.55726862
3.3810833 -9.7103977 -0.5560059
3.9907556 -11.461363 -0.55514681
4.8662229 -13.975685 -0.55372542
6.2197123 -17.862879 -0.55036181
8.6219873 -24.762157 -0.5448755
14.064258 -40.392242 -0.53323418
0.71560693 -1.976604 -0.56326991
0.74088842 -2.0464349 -0.56382507
0.76853794 -2.1228065 -0.56488651
0.7893275 -2.1802301 -0.55973166
0.82373327 -2.2752635 -0.5628888
0.85512018 -2.3619585 -0.56237167
0.88803369 -2.4528701 -0.56129146
0.92147279 -2.5452335 -0.55892974
0.96440226 -2.6638105 -0.56046134
1.0109177 -2.7922926 -0.56188822
1.0562789 -2.9175863 -0.56043047
1.1133873 -3.0753276 -0.56270242
1.1700855 -3.2319357 -0.56198621
1.2329093 -3.4054637 -0.56129587
1.3007313 -3.5927973 -0.55969429
1.3826553 -3.8190823 -0.56050551
1.470979 -4.0630445 -0.55975443
1.5753927 -4.3514495 -0.56042057
1.6933249 -4.6771941 -0.56046629
1.8302982 -5.0555329 -0.56059068
1.9872348 -5.4890137 -0.55965441
2.1695278 -5.9925318 -0.55757922
2.4051318 -6.643302 -0.5590027
2.6842542 -7.4142761 -0.55797344
3.0419099 -8.4021702 -0.55772263
3.5015786 -9.6718369 -0.55622137
4.1317286 -11.412398 -0.55519402
5.0331349 -13.902205 -0.55322438
6.4327784 -17.768211 -0.54984063
8.9157686 -24.626568 -0.54426318
14.525146 -40.120434 -0.53196359
0.73876005 -1.9647404 -0.56243533
0.75901181 -2.0186 -0.55868536
0.78894669 -2.0982122 -0.56088102
0.8204639 -2.1820326 -0.56274194
0.84933817 -2.2588241 -0.5613631
0.8843441 -2.3519228 -0.56252879
0.91859251 -2.4430068 -0.56157672
0.9598158 -2.5526404 -0.56310552
0.99316967 -2.6413455 -0.55826199
1.0432484 -2.7745304 -0.560853
1.0929725 -2.9067724 -0.5608924
1.150528 -3.0598416 -0.56241494
1.2033064 -3.2002065 -0.5589996
1.2751989 -3.3914053 -0.56152076
1.3487496 -3.5870144 -0.56133461
1.4326767 -3.8102193 -0.56174779
1.5222082 -4.0483294 -0.56026351
1.6258842 -4.3240566 -0.55942518
1.7515758 -4.6583352 -0.56074494
1.8928125 -5.0339556 -0.56073648
2.0511012 -5.454926 -0.55870819
2.2494087 -5.982327 -0.55916107
2.4865901 -6.6131134 -0.5589931
2.773248 -7.375483 -0.55757821
3.1396191 -8.3498507 -0.55677027
3.6157885 -9.6162291 -0.5555383
4.2728763 -11.363761 -0.55534196
5.1963863 -13.819845 -0.55244792
6.6469798 -17.677715 -0.54952794
9.2033033 -24.476286 -0.54340184
14.986043 -39.855545 -0.53085458
0.76570767 -1.9628036 -0.56453353
0.7880531 -2.0200834 -0.56173539
0.81523132 -2.0897517 -0.56125665
0.84731942 -2.1720059 -0.56280059
0.87738693 -2.2490804 -0.56158036
0.91136819 -2.3361876 -0.56140316
0.95044017 -2.4363441 -0.56268919
0.98501319 -2.5249681 -0.55963063
1.032198 -2.6459208 -0.56186914
1.0825422 -2.7749724 -0.56359059
1.1258961 -2.8861051 -0.5595336
1.1851788 -3.0380692 -0.5610494
1.2442946 -3.1896062 -0.55977827
1.3145461 -3.3696878 -0.56055897
1.3903055 -3.5638885 -0.56034857
1.4788128 -3.7907665 -0.56151831
1.5707687 -4.026485 -0.55987114
1.6796858 -4.3056817 -0.55967772
1.8033757 -4.6227465 -0.55908799
1.9527608 -5.0056777 -0.56021899
2.1220539 -5.439641 -0.55977297
2.3251739 -5.9603157 -0.55973381
2.5601017 -6.5625262 -0.55733585
2.8663089 -7.3474536 -0.55808151
3.2449238 -8.3179893 -0.55726421
3.7281687 -9.5567322 -0.55470759
4.4068947 -11.296568 -0.55466455
5.3629284 -13.74725 -0.5521403
6.8521652 -17.564737 -0.54859364
9.493865 -24.336432 -0.54284763
15.452962 -39.611893 -0.53010011
0.78692329 -1.9461666 -0.56248903
0.80789655 -1.9980363 -0.55832487
0.84498209 -2.0897539 -0.56400514
0.87263507 -2.1581435 -0.56194651
0.90570569 -2.2399316 -0.56203425
0.94051236 -2.3260131 -0.56169486
0.97377241 -2.4082694 -0.55892837
1.0195884 -2.5215783 -0.56161565
1.0643177 -2.6322002 -0.56169218
1.1097339 -2.7445204 -0.56013495
1.1668131 -2.885685 -0.56219131
1.2214673 -3.0208519 -0.56060117
1.286267 -3.1811106 -0.56102067
1.3521243 -3.3439846 -0.55900669
1.4365236 -3.5527151 -0.56132668
1.5196795 -3.7583709 -0.55944532
1.6204047 -4.0074778 -0.55995649
1.7340521 -4.2885427 -0.56017923
1.8655027 -4.6136379 -0.56071836
2.0146935 -4.9826069 -0.56036717
2.1839924 -5.4013052 -0.55854934
2.3935337 -5.9195294 -0.55862528
2.6439183 -6.538764 -0.55803668
2.9525397 -7.3020258 -0.55734652
3.3402019 -8.260767 -0.55614024
3.8502991 -9.5223055 -0.55541539
4.5361814 -11.218585 -0.55353248
5.526063 -13.666694 -0.55159235
7.0668383 -17.477238 -0.54853338
9.7821207 -24.192495 -0.54227912
15.909713 -39.346851 -0.52913129
0.81263053 -1.9407324 -0.56376386
0.83335924 -1.9902369 -0.5589667
0.86219722 -2.059108 -0.55855328
0.89601403 -2.1398697 -0.56001484
0.92998016 -2.220988 -0.56010801
0.97151816 -2.3201895 -0.5631308
1.006308 -2.4032748 -0.56059867
1.0492557 -2.5058432 -0.56094223
1.0963714 -2.618365 -0.56157428
1.1444281 -2.7331347 -0.56064087
1.2004108 -2.8668332 -0.56135184
1.2614868 -3.0126953 -0.56192362
1.3221465 -3.1575637 -0.55969286
1.3987774 -3.3405743 -0.56126946
1.4805673 -3.5359058 -0.5615049
1.5680242 -3.744771 -0.56024867
1.6686146 -3.9850023 -0.55964065
1.7855755 -4.2643294 -0.55984205
1.9167631 -4.5776329 -0.5591647
2.0689206 -4.9410172 -0.55850875
2.2507358 -5.3752294 -0.55867261
2.4618752 -5.8794746 -0.55765998
2.7240098 -6.5055075 -0.55801487
3.0408385 -7.2621608 -0.55711561
3.440429 -8.2164669 -0.55596393
3.9617331 -9.4614506 -0.55466545
4.6736937 -11.161761 -0.55352253
5.694356 -13.599319 -0.55165738
7.2701721 -17.362698 -0.54770285
10.063837 -24.034555 -0.54147184
16.358936 -39.068573 -0.5280543
0.83171642 -1.919711 -0.56058592
0.86031163 -1.9857124 -0.56062472
0.89506459 -2.065927 -0.56334591
0.92174113 -2.1274998 -0.5597015
0.96284521 -2.2223735 -0.56340069
1.0000472 -2.3082407 -0.56317276
1.035403 -2.3898466 -0.56039381
1.0811037 -2.4953296 -0.56152219
1.1250745 -2.5968199 -0.55987823
1.1816201 -2.727335 -0.56238914
1.2351536 -2.8508971 -0.56116289
1.2920855 -2.9823036 -0.55917615
1.3640558 -3.1484203 -0.56100285
1.4401493 -3.324054 -0.56142676
1.5231607 -3.5156555 -0.56122094
1.6139685 -3.7252517 -0.56025523
1.717967 -3.9652941 -0.55979729
1.837456 -4.2410903 -0.55971515
1.9756776 -4.5601239 -0.55995119
2.1344025 -4.9264817 -0.55979013
2.3171008 -5.3481736 -0.5587796
2.5368512 -5.8553867 -0.55829179
2.8028462 -6.4693384 -0.55782658
3.1291816 -7.2225633 -0.55698764
3.5370827 -8.164053 -0.5553183
4.0797653 -9.4166355 -0.55493724
4.8072052 -11.095662 -0.5531342
5.8509479 -13.504758 -0.5506984
7.475996 -17.255583 -0.54718244
10.354299 -23.899084 -0.54124731
16.798244 -38.77256 -0.5268054
0.85709935 -1.9134514 -0.56179315
0.88874143 -1.9840915 -0.56320989
0.92109811 -2.0563271 -0.56377405
0.95331883 -2.1282589 -0.56294262
0.98623896 -2.2017522 -0.56120491
1.0293877 -2.2980807 -0.5637396
1.0691749 -2.3869045 -0.56274426
1.1093808 -2.4766634 -0.56034911
1.166454 -2.6040773 -0.56449264
1.2055056 -2.6912594 -0.55796462
1.2637285 -2.8212402 -0.55834186
1.3364459 -2.9835801 -0.56245422
1.4027021 -3.1314952 -0.56101799
1.4764231 -3.2960756 -0.55972522
1.5652496 -3.4943781 -0.56085443
1.6615859 -3.7094464 -0.56090856
1.7617689 -3.9331024 -0.55826879
1.8893678 -4.2179637 -0.55968678
2.0278773 -4.5271821 -0.55892581
2.1899669 -4.8890429 -0.55855364
2.3834395 -5.3209653 -0.55895674
2.6080744 -5.8224568 -0.55816764
2.8850114 -6.440711 -0.55837488
3.2180266 -7.1841593 -0.55703545
3.633914 -8.1126165 -0.55481708
4.1931906 -9.361187 -0.55466622
4.9405589 -11.029666 -0.55283093
6.0156493 -13.429777 -0.55061561
7.6804748 -17.146456 -0.5466755
10.624713 -23.719389 -0.54009563
17.245344 -38.499771 -0.52594048
0.87885451 -1.8990798 -0.56070417
0.90613908 -1.9580379 -0.55893487
0.94529009 -2.0426378 -0.56316519
0.97382343 -2.1042941 -0.5597288
1.0140004 -2.1911111 -0.56162822
1.0541186 -2.2778008 -0.56190193
1.0903649 -2.3561237 -0.55860609
1.1405071 -2.464474 -0.56072181
1.1932688 -2.5784845 -0.56208307
1.243549 -2.6871328 -0.56023705
1.3014468 -2.8122418 -0.55968589
1.3688923 -2.9579821 -0.56075943
1.4363086 -3.1036589 -0.5591529
1.5157413 -3.2753019 -0.55932033
1.6067383 -3.4719336 -0.56038076
1.6997674 -3.6729558 -0.55850905
1.8136656 -3.9190738 -0.5594008
1.9410738 -4.1943846 -0.55968285
2.0881867 -4.5122752 -0.56021315
2.2538784 -4.8703113 -0.55953765
2.4512448 -5.2967925 -0.5595414
2.6774232 -5.7855315 -0.55774176
2.9557877 -6.3870373 -0.55683053
3.3003454 -7.131578 -0.55606306
3.7347662 -8.0702991 -0.55502188
4.3052182 -9.3029661 -0.55431134
5.0800891 -10.977351 -0.553298
6.1753969 -13.344156 -0.55017692
7.8851285 -17.038643 -0.54628813
10.903591 -23.561113 -0.53950381
17.678251 -38.200191 -0.52477783
0.89686984 -1.8771038 -0.55742967
0.9413386 -1.9701746 -0.56566077
0.96606898 -2.021934 -0.56068981
1.0088567 -2.1114864 -0.56489897
1.0397733 -2.1761935 -0.56103939
1.0824679 -2.2655511 -0.56212115
1.127856 -2.3605464 -0.56290013
1.1714908 -2.4518716 -0.56108958
1.2203625 -2.5541577 -0.56000894
1.2758547 -2.6703 -0.55995613
1.3453286 -2.8157053 -0.56362486
1.4084746 -2.9478669 -0.56208265
1.4812535 -3.1001894 -0.5617668
1.5571269 -3.2589886 -0.55976194
1.6459436 -3.4448779 -0.55923826
1.7503474 -3.6633894 -0.56028485
1.8625426 -3.8982086 -0.55964929
1.988963 -4.1627998 -0.55868953
2.1393335 -4.4775181 -0.55912173
2.3070674 -4.8285766 -0.55795985
2.5161457 -5.2661672 -0.55953234
2.7463281 -5.7479272 -0.55733001
3.0333042 -6.3485541 -0.55668521
3.3890629 -7.0931392 -0.55627322
3.8348083 -8.026062 -0.55518049
4.4196959 -9.2502022 -0.55436373
5.2065659 -10.897081 -0.55243731
6.3424802 -13.274493 -0.55047864
8.0892477 -16.930389 -0.54596525
11.187421 -23.414713 -0.53926075
18.119436 -37.923073 -0.52399212
0.92921293 -1.8848615 -0.56308395
0.95198333 -1.9310502 -0.55774647
0.99567932 -2.0196853 -0.56341875
1.0284671 -2.0861933 -0.56147307
1.0650325 -2.1603646 -0.56029248
1.1099409 -2.2514589 -0.56196856
1.154026 -2.3408835 -0.56155276
1.2038081 -2.441864 -0.5621444
1.2478678 -2.5312366 -0.5583055
1.314248 -2.6658857 -0.56237674
1.3757164 -2.7905715 -0.56193745
1.4339777 -2.9087515 -0.5579443
1.510697 -3.0643728 -0.55860054
1.6046454 -3.2549422 -0.56241345
1.6867435 -3.421474 -0.55876374
1.7946157 -3.6402874 -0.56008422
1.9141825 -3.8828225 -0.56077719
2.0448432 -4.1478615 -0.56001693
2.2009656 -4.4645476 -0.56083924
2.3655996 -4.7984996 -0.55780345
2.5690887 -5.2112665 -0.55701357
2.8173873 -5.7149277 -0.55744731
3.1079993 -6.3044195 -0.55612433
3.4695837 -7.0378757 -0.55524313
3.9318676 -7.975595 -0.55499202
4.5245643 -9.1778507 -0.55332017
5.3349471 -10.821671 -0.5518983
6.5024686 -13.18993 -0.55024606
8.2916937 -16.819281 -0.54562891
11.45165 -23.229094 -0.53818816
18.54797 -37.623619 -0.52296633
0.95257586 -1.873801 -0.56323642
0.97881413 -1.925414 -0.55955261
1.0197191 -2.0058777 -0.56302232
1.0486339 -2.0627556 -0.55859327
1.0921499 -2.1483552 -0.5606184
1.135869 -2.2343547 -0.5611431
1.1811554 -2.3234372 -0.56080931
1.2355514 -2.4304388 -0.56296921
1.2842566 -2.5262463 -0.56064552
1.3412975 -2.6384506 -0.56002623
1.4065189 -2.766747 -0.56058031
1.4823896 -2.9159913 -0.56278694
1.5542343 -3.0573163 -0.56075567
1.6456126 -3.2370656 -0.56277847
1.7318609 -3.4067233 -0.55979031
1.8373934 -3.6143153 -0.55952209
1.9589158 -3.8533604 -0.5599587
2.0962195 -4.1234488 -0.56015873
2.2520359 -4.4299536 -0.55992991
2.4301798 -4.7803788 -0.55912846
2.6333914 -5.1801138 -0.55710274
2.8849864 -5.6750231 -0.55697316
3.1906447 -6.2762804 -0.55706084
3.5616586 -7.0060978 -0.55614924
4.024447 -7.9164429 -0.55427748
4.637044 -9.1214762 -0.55331719
5.461132 -10.74253 -0.55124515
6.6568522 -13.094617 -0.5496431
8.4875202 -16.695704 -0.54496449
11.735918 -23.085588 -0.53816617
18.979725 -37.334797 -0.52215624
0.9757027 -1.8622512 -0.56332844
1.0130727 -1.9335766 -0.56550229
1.0397527 -1.9844986 -0.56056774
1.0779179 -2.0573418 -0.56067413
1.1163855 -2.1307621 -0.55956739
1.1625166 -2.2188089 -0.56078655
1.2107491 -2.3108668 -0.56132627
1.2562324 -2.3976774 -0.55891645
1.3176187 -2.5148408 -0.56166762
1.3765094 -2.6272411 -0.56119722
1.4469743 -2.7617321 -0.56312668
1.5088112 -2.8797557 -0.55933189
1.5914816 -3.0375426 -0.56067586
1.6800658 -3.2066164 -0.56103396
1.7730901 -3.3841653 -0.5596239
1.8777837 -3.583986 -0.55835927
2.0030584 -3.8230886 -0.55909663
2.1385806 -4.0817499 -0.55802417
2.3011944 -4.3921189 -0.55868208
2.4847512 -4.7424598 -0.5582248
2.6997199 -5.1527548 -0.55768847
2.9527583 -5.6357102 -0.55663621
3.2688518 -6.2390141 -0.55727869
3.652431 -6.9711232 -0.55689597
4.1261787 -7.8753309 -0.55490947
4.7494259 -9.0648756 -0.5533846
5.5966206 -10.681853 -0.55162126
6.81039 -12.998486 -0.54908162
8.6866407 -16.579544 -0.54461831
12.004573 -22.912235 -0.53752548
19.389271 -37.006859 -0.52086484
0.99909627 -1.8511696 -0.56365001
1.0270605 -1.902983 -0.560206
1.0631148 -1.9697859 -0.56006211
1.1036422 -2.0448768 -0.56093311
1.1426661 -2.1171823 -0.55964875
1.1900761 -2.2050254 -0.56095904
1.2312479 -2.2813106 -0.55778229
1.2934982 -2.3966503 -0.56234217
1.3477298 -2.497133 -0.56137156
1.4021146 -2.5978997 -0.55857027
1.4790777 -2.7405005 -0.56246346
1.5450028 -2.8626494 -0.55965704
1.6310952 -3.0221651 -0.56149715
1.7123436 -3.1727057 -0.55874258
1.8164274 -3.3655567 -0.56019789
1.9282793 -3.5728009 -0.56026834
2.0454583 -3.7899151 -0.55788136
2.1939943 -4.0651293 -0.55939794
2.3521132 -4.3580995 -0.55799156
2.5366209 -4.6999631 -0.55685198
2.7649858 -5.1230879 -0.55811518
3.0244458 -5.603826 -0.55711818
3.3428521 -6.1937838 -0.55686814
3.7244234 -6.9007759 -0.55489278
4.2119441 -7.8040762 -0.55349624
4.8516536 -8.9893579 -0.55237466
5.7255797 -10.608606 -0.55143279
6.9617229 -12.898987 -0.54845327
8.8793449 -16.452042 -0.54397547
12.259297 -22.714567 -0.53638417
19.811977 -36.708504 -0.52005512
1.0214456 -1.8381402 -0.56346452
1.0529113 -1.8947642 -0.56155545
1.0899297 -1.9613806 -0.56144047
1.1316414 -2.0364428 -0.56239414
1.1749716 -2.1144176 -0.56269455
1.2143726 -2.1853216 -0.55970287
1.2717413 -2.288559 -0.56333548
1.3139639 -2.3645408 -0.55855691
1.371272 -2.4676695 -0.55849636
1.4342542 -2.5810089 -0.55868828
1.5061135 -2.7103233 -0.56002855
1.5802507 -2.8437366 -0.55971611
1.6684791 -3.0025077 -0.56161427
1.7558087 -3.1596618 -0.56020534
1.8563058 -3.3405108 -0.55978608
1.9711219 -3.547128 -0.56000096
2.0959866 -3.7718279 -0.55897051
2.2362607 -4.0242581 -0.5575155
2.4102247 -4.3373146 -0.55908269
2.6022003 -4.6827836 -0.55856544
2.8159297 -5.0674 -0.55577868
3.0924511 -5.5650129 -0.55699784
3.4156644 -6.1466513 -0.55636466
3.8109417 -6.8579712 -0.55517703
4.318316 -7.7710161 -0.55487561
4.9768825 -8.9561377 -0.55405194
5.848937 -10.525441 -0.5508067
7.1173182 -12.807954 -0.54826236
9.0806341 -16.341036 -0.54395592
12.530354 -22.548969 -0.5360716
20.218843 -36.384773 -0.51895183
1.0395601 -1.8177322 -0.56108469
1.075981 -1.8814162 -0.56147832
1.1109868 -1.9426261 -0.55994016
1.1580309 -2.0248852 -0.56309229
1.1940298 -2.0878315 -0.55948442
1.2468517 -2.1801939 -0.56227386
1.2975578 -2.2688565 -0.56237054
1.346525 -2.3544784 -0.56004888
1.4097129 -2.4649663 -0.56176531
1.4683391 -2.5674775 -0.55962527
1.5477033 -2.7062504 -0.56307679
1.6172569 -2.8278692 -0.5604648
1.7005178 -2.9734557 -0.560049
1.7948369 -3.1383781 -0.56030244
1.8883517 -3.3018944 -0.55716389
2.0159585 -3.5250225 -0.56038225
2.1395183 -3.7410738 -0.5582695
2.2834435 -3.9927356 -0.55699629
2.4579704 -4.2979059 -0.55785668
2.6521087 -4.6373682 -0.55699611
2.886965 -5.0480289 -0.55750543
3.157259 -5.5206537 -0.55640161
3.4814751 -6.0875645 -0.55484945
3.8980892 -6.8160391 -0.55562079
4.4030313 -7.6989598 -0.55355465
5.0726066 -8.8697519 -0.55252481
5.9706464 -10.440027 -0.55013734
7.2625685 -12.69903 -0.5473811
9.267807 -16.205307 -0.5431903
12.787826 -22.360268 -0.53528333
20.630106 -36.07296 -0.51808345
1.0610372 -1.8034626 -0.56066495
1.0953135 -1.8617228 -0.5595783
1.1404816 -1.9384956 -0.56274933
1.1776758 -2.0017152 -0.56063372
1.2257993 -2.0835116 -0.56232345
1.2733594 -2.1643503 -0.56218344
1.3196002 -2.2429466 -0.55992806
1.3804593 -2.3463898 -0.56212008
1.4354811 -2.4399114 -0.56003571
1.5060818 -2.5599124 -0.56197047
1.5830867 -2.690799 -0.56386954
1.6466593 -2.7988544 -0.55868506
1.7417731 -2.960521 -0.56160432
1.8312786 -3.1126549 -0.55968791
1.9332935 -3.2860513 -0.5584597
2.0569491 -3.4962308 -0.55978382
2.1872859 -3.7177663 -0.55876273
2.3371158 -3.9724348 -0.5581311
2.515296 -4.275291 -0.55889356
2.7121737 -4.6099272 -0.55766368
2.9451921 -5.0059924 -0.55682045
3.2312915 -5.4922805 -0.55750442
3.5641127 -6.057982 -0.55610561
3.9763672 -6.758698 -0.55489033
4.4948525 -7.639976 -0.55324584
5.1724868 -8.7917624 -0.55158693
6.0948596 -10.359535 -0.5498035
7.4213352 -12.614167 -0.54761529
9.4640484 -16.086201 -0.54305774
13.052342 -22.185286 -0.53489614
21.037647 -35.758041 -0.51723677
1.0801624 -1.7853726 -0.55912805
1.1219468 -1.8544371 -0.56149262
1.1602325 -1.9177185 -0.56081694
1.2067581 -1.9946195 -0.56275982
1.246002 -2.0594845 -0.55993158
1.2967861 -2.1434245 -0.56084752
1.3545183 -2.2388484 -0.56302035
1.4029458 -2.318893 -0.5596233
1.4682435 -2.4268219 -0.56113285
1.5302315 -2.5292802 -0.55933434
1.6105497 -2.6620362 -0.56194973
1.6816853 -2.7796144 -0.55893004
1.7720535 -2.9289818 -0.55971265
1.8629506 -3.0792232 -0.55775344
1.9778854 -3.269196 -0.55968618
2.0964603 -3.4651856 -0.55889839
2.2300451 -3.6859841 -0.55806518
2.3884764 -3.9478514 -0.55876136
2.5643661 -4.238575 -0.55817378
2.7621372 -4.5654655 -0.55635178
3.0108831 -4.9766116 -0.55762839
3.2910039 -5.4396162 -0.55622435
3.6350248 -6.0082393 -0.55560046
4.0569854 -6.7056875 -0.55459195
4.586946 -7.581645 -0.55306447
5.2818751 -8.7302761 -0.55176246
6.2235141 -10.286687 -0.54995716
7.5668912 -12.50712 -0.54696614
9.6499872 -15.950217 -0.54243189
13.312752 -22.004305 -0.53443909
21.433784 -35.427353 -0.51622671
1.1143911 -1.7918274 -0.56539816
1.1394095 -1.8320544 -0.55891544
1.1911746 -1.9152874 -0.56434673
1.2271754 -1.9731729 -0.56092393
1.2706813 -2.0431261 -0.55968976
1.3179259 -2.1190906 -0.55867851
1.3729708 -2.2075973 -0.55936468
1.4353939 -2.3079672 -0.56120372
1.4983268 -2.4091568 -0.56126595
1.5624009 -2.5121815 -0.55975938
1.6324183 -2.6247623 -0.55827647
1.7183936 -2.7630019 -0.55979609
1.8032098 -2.8993776 -0.55825043
1.9037194 -3.0609868 -0.55864817
2.0120037 -3.2350969 -0.55804181
2.1347222 -3.4324157 -0.55780458
2.2724061 -3.6537976 -0.5573805
2.4302995 -3.9076738 -0.55726236
2.61324 -4.2018237 -0.55752355
2.8260705 -4.5440335 -0.55793262
3.0651176 -4.9283967 -0.55640703
3.353466 -5.3920317 -0.55553317
3.7120411 -5.9685841 -0.55611235
4.1394582 -6.655827 -0.55463606
4.670928 -7.5103765 -0.55201364
5.3926444 -8.6708231 -0.55215406
6.347549 -10.206212 -0.54978609
7.7136426 -12.402751 -0.54650855
9.8337994 -15.811747 -0.54179412
13.561703 -21.805836 -0.53362858
21.826942 -35.095501 -0.51526308
1.1270226 -1.7634139 -0.560763
1.1736075 -1.8363036 -0.56457174
1.2063872 -1.8875929 -0.56051511
1.2529664 -1.9604738 -0.56165129
1.3020208 -2.0372274 -0.56241721
1.3565494 -2.1225464 -0.56394476
1.4049987 -2.1983533 -0.56135762
1.455012 -2.2766075 -0.5578866
1.5281923 -2.3911102 -0.56139702
1.5951265 -2.4958401 -0.5604462
1.6716141 -2.6155174 -0.56063968
1.7577107 -2.7502301 -0.56154501
1.846118 -2.8885579 -0.56049556
1.9482586 -3.0483737 -0.56067604
2.0496783 -3.2070615 -0.55751127
2.1828499 -3.4154308 -0.55936402
2.3208847 -3.6314089 -0.55827647
2.485158 -3.8884418 -0.55883539
2.6725352 -4.1816244 -0.5591616
2.8758509 -4.4997458 -0.5567947
3.1309714 -4.8989244 -0.55738407
3.4278038 -5.3633676 -0.55688047
3.7801552 -5.91468 -0.55537891
4.2142339 -6.5938678 -0.55374932
4.7718582 -7.4663634 -0.55304962
5.4956932 -8.5989237 -0.55183721
6.4654546 -10.116277 -0.54918259
7.858407 -12.295782 -0.54601169
10.025425 -15.68644 -0.54168361
13.820677 -21.624743 -0.53331548
22.224628 -34.77412 -0.51451808
1.1470118 -1.7469745 -0.55997807
1.184563 -1.8041675 -0.55912751
1.2287742 -1.8715039 -0.56018192
1.2758756 -1.9432424 -0.56116694
1.3286836 -2.0236726 -0.56314301
1.3779597 -2.0987234 -0.56207454
1.4278941 -2.1747768 -0.55977839
1.4910159 -2.2709153 -0.56094217
1.5538111 -2.3665566 -0.56007576
1.6211307 -2.4690888 -0.55887318
1.7047029 -2.5963748 -0.56098717
1.796448 -2.7361085 -0.56312948
1.8786106 -2.8612475 -0.55963641
1.9820887 -3.0188515 -0.5596866
2.0933206 -3.1882651 -0.55867612
2.2256594 -3.3898258 -0.55961043
2.3635771 -3.5998836 -0.55785584
2.5303624 -3.8539085 -0.55830187
2.7209222 -4.1441436 -0.55858135
2.9293125 -4.4615355 -0.55648166
3.1936996 -4.8642149 -0.55786097
3.4944973 -5.3223495 -0.55704105
3.8545113 -5.8706741 -0.5556553
4.2959647 -6.5430374 -0.55387497
4.8605828 -7.4029875 -0.55274063
5.6041775 -8.535531 -0.55214959
6.5906019 -10.037921 -0.54928684
8.0072155 -12.195517 -0.54589033
10.208322 -15.547946 -0.54119492
14.060012 -21.414324 -0.53234965
22.611248 -34.438419 -0.51362604
1.1746465 -1.7419952 -0.56296939
1.2132862 -1.7992977 -0.56219941
1.2513428 -1.8557354 -0.56002539
1.2985202 -1.9256995 -0.56066948
1.3447552 -1.9942656 -0.55951893
1.4056046 -2.0845051 -0.56285298
1.4611859 -2.1669319 -0.56234139
1.5164014 -2.2488163 -0.56004691
1.5812509 -2.3449876 -0.5595305
1.6610595 -2.4633434 -0.56215346
1.7385581 -2.5782735 -0.56165278
1.8081671 -2.6815033 -0.55642498
1.9196558 -2.8468406 -0.56139296
2.0131118 -2.9854355 -0.55803853
2.134913 -3.1660662 -0.55934405
2.2620683 -3.3546367 -0.55835092
2.4071367 -3.5697725 -0.55773437
2.5711663 -3.8130276 -0.55691761
2.768019 -4.104959 -0.55784535
2.9865439 -4.4290309 -0.55696577
3.2502975 -4.8201761 -0.55735183
3.5518639 -5.2673974 -0.5558188
3.9219964 -5.8163023 -0.55503166
4.3844457 -6.5021124 -0.55493248
4.9424152 -7.3295784 -0.55175555
5.6966147 -8.4480534 -0.55098045
6.7132092 -9.955658 -0.54926097
8.1586924 -12.099303 -0.54603297
