# .PCD v0.7 - Point Cloud Data file format
VERSION 0.7
FIELDS x y z
SIZE 4 4 4
TYPE F F F
COUNT 1 1 1
WIDTH 1509
HEIGHT 1
VIEWPOINT 0 0 0 1 0 0 0
POINTS 1509
DATA ascii
3.8856835 1.8127302 -0.55542713
4.1571817 1.9393883 -0.55551118
4.4688196 2.0847719 -0.55561072
4.8045778 2.2414081 -0.55277431
5.2360692 2.4427056 -0.55391705
5.7133889 2.6653824 -0.55157393
6.317647 2.947278 -0.55156791
7.0253468 3.2774305 -0.54856265
7.9481611 3.7079375 -0.54740298
9.1352177 4.2617173 -0.54509383
10.719099 5.0006218 -0.541053
12.995949 6.0628066 -0.53658593
16.474239 7.685482 -0.528947
22.53047 10.510805 -0.51664114
35.568398 16.593195 -0.4893215
1.8807335 0.9057126 -0.55933136
1.9464922 0.93738031 -0.55968559
2.0157151 0.97071624 -0.55978972
2.0945742 1.0086927 -0.5612008
2.1639297 1.0420927 -0.5587005
2.2513645 1.084199 -0.55942512
2.3497145 1.1315618 -0.56114364
2.4528334 1.1812211 -0.5621376
2.5492043 1.2276309 -0.55974722
2.6680269 1.2848529 -0.5603047
2.7846751 1.3410275 -0.55823565
2.920959 1.4066583 -0.55777347
3.0791204 1.4828248 -0.55877197
3.2486935 1.5644867 -0.55881667
3.4350445 1.6542287 -0.55846447
3.6315005 1.7488368 -0.55622691
3.8601961 1.8589706 -0.55500942
4.1272588 1.9875811 -0.55473661
4.4385977 2.1375139 -0.5550791
4.7880778 2.3058145 -0.55409616
5.1923318 2.5004928 -0.55250102
5.6845527 2.7375338 -0.55199808
6.2637272 3.0164492 -0.55005711
7.0023475 3.3721495 -0.549963
7.889832 3.7995393 -0.54656219
9.0836563 4.374454 -0.54518563
10.674854 5.1407337 -0.54196948
12.925053 6.2243714 -0.53677833
16.395779 7.8957834 -0.52950513
22.41605 10.794991 -0.51702213
35.398354 17.046932 -0.48982888
1.8745854 0.93131763 -0.5608663
1.9304824 0.95908791 -0.55843103
2.0020423 0.99463981 -0.55934697
2.0675468 1.0271832 -0.55730134
2.1483674 1.067336 -0.55802888
2.2431695 1.1144348 -0.56075156
2.3211758 1.1531893 -0.55767244
2.4297533 1.207132 -0.56020761
2.5229785 1.2534474 -0.55733091
2.6513028 1.3172005 -0.56015158
2.7613938 1.3718951 -0.55690819
2.9009206 1.4412138 -0.557289
3.0477562 1.5141636 -0.55641699
3.2217224 1.6005923 -0.55752063
3.4044666 1.6913819 -0.55683237
3.6030471 1.7900392 -0.55519819
3.8512511 1.9133501 -0.55706394
4.1248918 2.049298 -0.55776328
4.3947377 2.1833611 -0.55290979
4.7510581 2.3603854 -0.55312908
5.1618643 2.5644789 -0.55257273
5.6415019 2.8027692 -0.55112261
6.2286987 3.094496 -0.55028099
6.9583025 3.4569724 -0.54980075
7.8433247 3.8966622 -0.54661834
9.0299997 4.4862175 -0.54523492
10.589129 5.2608123 -0.54086059
12.845683 6.381897 -0.53670055
16.293434 8.0947828 -0.52937442
22.297958 11.077907 -0.51740116
35.210709 17.493124 -0.49017182
1.8649343 0.95529085 -0.5614509
1.920148 0.98357344 -0.55889791
1.9937922 1.0212967 -0.56050825
2.0541151 1.0521965 -0.55712628
2.1482868 1.1004349 -0.56148028
2.2302363 1.1424125 -0.56098771
2.3093624 1.1829439 -0.55828679
2.410701 1.2348535 -0.55927354
2.5163927 1.2889929 -0.55933511
2.6347268 1.3496081 -0.56011337
2.7452896 1.4062426 -0.5571056
2.8767488 1.4735811 -0.55608433
3.0330088 1.5536234 -0.55717027
3.1927235 1.6354355 -0.55594045
3.3875036 1.7352092 -0.55750561
3.5769954 1.8322742 -0.55461365
3.8182652 1.9558618 -0.55572945
4.094142 2.0971763 -0.55705017
4.3820939 2.2446764 -0.55474973
4.7310457 2.4234231 -0.55422664
5.1434088 2.6346509 -0.55402327
5.6183882 2.8779538 -0.55228001
6.1991782 3.1754568 -0.55108094
6.9045458 3.536773 -0.54894799
7.8288875 4.0102563 -0.54900736
8.9747381 4.5972052 -0.54527026
10.54134 5.3996782 -0.54177004
12.771551 6.542078 -0.53692371
16.202644 8.2996159 -0.52970046
22.167305 11.354944 -0.51757026
35.016701 17.936895 -0.49050432
1.8471286 0.9750247 -0.55965751
1.9002739 1.003078 -0.55666125
1.9765887 1.0433614 -0.55923635
2.0528653 1.0836247 -0.56035894
2.1334341 1.1261537 -0.56117517
2.2089896 1.1660365 -0.55920768
2.2971504 1.2125731 -0.55889684
2.3846667 1.2587693 -0.55678248
2.4903817 1.314572 -0.55710435
2.6172991 1.3815665 -0.55997765
2.741231 1.4469852 -0.55985039
2.861546 1.5104947 -0.55669391
3.024066 1.5962825 -0.55909103
3.1802213 1.6787105 -0.55731571
3.3642507 1.7758522 -0.55723041
3.5652645 1.8819592 -0.55634081
3.795752 2.0036242 -0.55599654
4.0630126 2.1447003 -0.5563609
4.3619113 2.3024769 -0.5557369
4.7174959 2.4901757 -0.55618435
5.1174827 2.7013128 -0.55476665
5.5904417 2.9509685 -0.55305803
6.159061 3.2511199 -0.55102682
6.8758888 3.6295044 -0.55017638
7.7657285 4.0992146 -0.54807162
8.9121284 4.7043529 -0.5449397
10.47153 5.5274982 -0.5416345
12.71263 6.7104845 -0.537875
16.117926 8.5080032 -0.53031093
22.038563 11.633268 -0.51786512
34.830894 18.385824 -0.49103138
1.8343105 0.99728727 -0.55944711
1.9205507 1.0441748 -0.56631947
1.9579121 1.0644876 -0.55761343
2.0355868 1.1067183 -0.55931497
2.1195574 1.1523718 -0.56120992
2.1987185 1.1954105 -0.56028634
2.2840917 1.2418267 -0.55939263
2.3731039 1.2902211 -0.55774486
2.4821966 1.3495332 -0.55894327
2.5990648 1.4130727 -0.55975163
2.7240117 1.4810045 -0.56001061
2.8394127 1.5437462 -0.55603886
2.998009 1.6299728 -0.55793697
3.1548405 1.7152396 -0.55652189
3.3367419 1.8141367 -0.55632687
3.5428224 1.9261796 -0.55649275
3.7780435 2.0540659 -0.55706024
4.0340686 2.1932631 -0.55604845
4.3262954 2.3521423 -0.55484229
4.6754818 2.5419898 -0.55487424
5.0697212 2.7563319 -0.5532214
5.5459981 3.0152762 -0.55228752
6.106173 3.3198352 -0.54990578
6.8286853 3.7126541 -0.55001068
7.7016163 4.187254 -0.54713935
8.8599901 4.8170443 -0.54533219
10.401273 5.6550164 -0.5415563
12.616971 6.8596587 -0.53735584
16.011505 8.7052164 -0.53029132
21.899158 11.906245 -0.51799041
34.636944 18.831589 -0.49152443
1.8299121 1.0242449 -0.56190437
1.8878915 1.0566972 -0.56047821
1.9532746 1.0932938 -0.5600791
2.0203907 1.1308603 -0.55891812
2.0988214 1.1747597 -0.55950201
2.1855497 1.2233037 -0.5607214
2.2736592 1.2726206 -0.5606277
2.3594072 1.3206158 -0.5583002
2.4738193 1.3846549 -0.56084853
2.5871007 1.4480612 -0.56096745
2.6902425 1.5057921 -0.55683273
2.8341317 1.5863302 -0.55878234
2.980772 1.6684083 -0.55850488
3.1336105 1.7539555 -0.55653936
3.3231688 1.8600557 -0.55783504
3.5251195 1.9730924 -0.55748087
3.7442288 2.0957329 -0.55583209
4.0035696 2.2408919 -0.55560064
4.2989559 2.4062266 -0.55508864
4.6299667 2.5915015 -0.55321264
5.0374012 2.8195519 -0.55343604
5.5019751 3.0795848 -0.55163288
6.0802445 3.4032559 -0.55129778
6.7882209 3.7995269 -0.55047297
7.652451 4.283257 -0.54734683
8.7886171 4.9191957 -0.54462111
10.337729 5.7862697 -0.54191136
12.529182 7.0128779 -0.53724897
15.917042 8.9091425 -0.53075087
21.759624 12.179374 -0.51819324
34.418495 19.264841 -0.49174896
1.8200018 1.0482924 -0.56277686
1.8714823 1.0779444 -0.55949944
1.9343487 1.1141545 -0.55853844
2.0121267 1.1589534 -0.56053197
2.0926731 1.2053467 -0.56177163
2.1639745 1.2464154 -0.55907595
2.2501142 1.2960304 -0.55870944
2.3420649 1.3489926 -0.55807948
2.4519932 1.4123096 -0.55979514
2.5554497 1.4718988 -0.55798674
2.6718705 1.5389553 -0.55690473
2.8218813 1.6253593 -0.56026524
2.9637899 1.7070965 -0.55921382
3.1216972 1.7980485 -0.55830806
3.2987516 1.9000291 -0.55761606
3.4902997 2.0103579 -0.55584168
3.7197156 2.1424978 -0.55606204
3.9863937 2.2961001 -0.55709314
4.2775335 2.4637921 -0.5561924
4.6059656 2.6529636 -0.55420077
5.0028472 2.8815613 -0.55349082
5.4700994 3.1506915 -0.55227959
6.0389991 3.4783685 -0.55139446
6.7323079 3.8777037 -0.54976398
7.6053071 4.3805375 -0.54778618
8.742404 5.0354872 -0.54555315
10.28221 5.9223919 -0.54277754
12.445887 7.1686354 -0.53741652
15.805553 9.1037502 -0.53072596
21.632515 12.459988 -0.51877564
34.214066 19.706764 -0.49225318
1.797909 1.0652198 -0.55995333
1.8688358 1.1072422 -0.56273615
1.9227588 1.1391903 -0.55919439
1.9938833 1.18133 -0.55945414
2.0760329 1.2300018 -0.56132239
2.1419609 1.2690626 -0.55737811
2.2440107 1.3295248 -0.56121087
2.3383327 1.3854083 -0.561207
2.4392645 1.4452082 -0.56090391
2.5398262 1.5047886 -0.55857342
2.6688285 1.5812194 -0.56028098
2.7806787 1.6474882 -0.55606484
2.9332228 1.7378671 -0.55743623
3.0983248 1.8356862 -0.55812281
3.266156 1.9351224 -0.55608642
3.4784362 2.0608935 -0.55794597
3.6793923 2.1799552 -0.55399936
3.9476991 2.3389211 -0.55566281
4.2396922 2.5119202 -0.55524629
4.5661445 2.7053356 -0.55337024
4.9707704 2.9450672 -0.55390662
5.4359856 3.2206964 -0.55279201
6.003366 3.5568562 -0.55209261
6.6708083 3.9523008 -0.54866904
7.5659618 4.4826584 -0.54888093
8.6797342 5.1425428 -0.54554713
10.223821 6.0573788 -0.54358608
12.363886 7.3253183 -0.53772449
15.690239 9.2961054 -0.53065211
21.480421 12.726656 -0.51884192
34.0103 20.15032 -0.49284908
1.7904676 1.0907741 -0.56177062
1.8391041 1.1204039 -0.55788976
1.9062399 1.1613039 -0.55850101
1.9819452 1.2074244 -0.56022799
2.0539837 1.2513111 -0.55947864
2.1294475 1.2972846 -0.5582307
2.2141762 1.3489022 -0.55785549
2.3084884 1.4063584 -0.5581525
2.4161181 1.4719278 -0.55970103
2.5105109 1.5294329 -0.55622017
2.6352067 1.6053991 -0.55732477
2.7772114 1.69191 -0.55948949
2.9153965 1.776094 -0.55815679
3.0674026 1.868698 -0.55664974
3.2419693 1.975046 -0.55606133
3.4482329 2.1007042 -0.55720258
3.6711838 2.2365286 -0.55686218
3.9227622 2.3897932 -0.55624706
4.2097249 2.5646143 -0.55540967
4.5501132 2.7719827 -0.55551624
4.9219298 2.998498 -0.55253106
5.3930426 3.2855051 -0.55249166
5.9475474 3.6233163 -0.55101508
6.6266818 4.0370531 -0.54908115
7.4925942 4.5645771 -0.54758888
8.6206331 5.2517915 -0.54585022
10.127746 6.1699424 -0.54247069
12.277485 7.479589 -0.53792614
15.592484 9.4991264 -0.53125626
21.342134 13.001881 -0.51932418
33.791199 20.585999 -0.49330503
1.7824548 1.1161718 -0.56352025
1.8494866 1.1581471 -0.56531656
1.8962363 1.1874218 -0.55980569
1.9630889 1.2292848 -0.5591284
2.0311189 1.2718852 -0.55746853
2.1217549 1.3286414 -0.56045461
2.1941507 1.3739755 -0.55702466
2.2885976 1.4331181 -0.55756193
2.3971329 1.5010829 -0.55953664
2.5012257 1.5662657 -0.55838788
2.6194069 1.6402707 -0.55820674
2.7484241 1.7210611 -0.55791134
2.8811023 1.8041441 -0.55579638
3.049556 1.9096297 -0.55763024
3.2150126 2.0132384 -0.55564177
3.4119501 2.1365607 -0.55554295
3.6333082 2.2751749 -0.55531865
3.8819535 2.4308763 -0.55465698
4.1746516 2.6141636 -0.55498135
4.5112686 2.8249531 -0.55497277
4.8840671 3.058399 -0.55246061
5.3485451 3.3492548 -0.55211049
5.9056611 3.6981206 -0.55130571
6.5852699 4.1236911 -0.54980975
7.4462171 4.6628156 -0.54834837
8.5623817 5.3617568 -0.54629511
10.053315 6.2953787 -0.54258937
12.198762 7.6388555 -0.53855175
15.479574 9.6932974 -0.53143018
21.18121 13.263659 -0.51933777
33.556374 21.012976 -0.49361163
1.7443702 1.1224155 -0.55580121
1.8033733 1.1603812 -0.55554092
1.8726543 1.20496 -0.55717593
1.9547673 1.2577957 -0.56112105
2.0210402 1.300439 -0.55904889
2.0964942 1.3489898 -0.5581215
2.177232 1.4009407 -0.55706078
2.2697787 1.4604899 -0.55731028
2.3726892 1.5267076 -0.5581708
2.4804521 1.5960476 -0.55808944
2.5908594 1.6670893 -0.55644953
2.7301705 1.756729 -0.55854875
2.8718326 1.8478816 -0.55834931
3.033776 1.9520842 -0.55909175
3.1874959 2.0509953 -0.5552029
3.3905203 2.1816313 -0.55637956
3.6027687 2.3182027 -0.55496591
3.8601031 2.4837847 -0.55585682
4.1414461 2.6648147 -0.55488122
4.4864693 2.8868203 -0.55624688
4.8555174 3.124284 -0.55353498
5.3070569 3.4148276 -0.55212057
5.8661671 3.7745872 -0.55191004
6.5375714 4.2066026 -0.55010444
7.3885083 4.754138 -0.5483622
8.4892826 5.4624314 -0.54587549
9.9826775 6.423357 -0.54299873
12.111354 7.7930546 -0.53888273
15.370827 9.8903637 -0.53183174
21.048695 13.54379 -0.52013272
33.335945 21.450024 -0.49421167
1.7318966 1.1447431 -0.55626982
1.8113647 1.1972696 -0.56249541
1.863507 1.2317344 -0.55891848
1.9309667 1.2763237 -0.55875182
2.002996 1.3239334 -0.55851859
2.0942843 1.3842728 -0.56202215
2.1728284 1.4361887 -0.56041014
2.257128 1.4919087 -0.55866623
2.3499742 1.5532779 -0.55727822
2.4566925 1.6238161 -0.55719405
2.5799379 1.7052785 -0.55856526
2.6967604 1.7824955 -0.55615574
2.8465693 1.8815155 -0.55789357
3.0125341 1.9912144 -0.55964702
3.1673133 2.0935197 -0.55612934
3.3669548 2.2254782 -0.556961
3.5985303 2.3785441 -0.55877602
3.8274677 2.5298662 -0.55559492
4.111486 2.7175958 -0.55530238
4.4344668 2.9310787 -0.55422616
4.8115859 3.1803453 -0.55294323
5.2680941 3.4820867 -0.55247986
5.8073988 3.8385544 -0.55078006
6.4991598 4.2957921 -0.55127543
7.3289404 4.8442578 -0.54832071
8.4358587 5.5759048 -0.54680771
9.8962803 6.5412092 -0.54263335
12.010542 7.9386868 -0.53869987
15.240168 10.073394 -0.53155661
20.889503 13.807471 -0.52035511
33.119133 21.89097 -0.49495065
1.7343351 1.1772493 -0.56166017
1.7701762 1.2015779 -0.55425119
1.8512728 1.2566254 -0.55984128
1.9206812 1.3037392 -0.56037211
1.9875393 1.3491218 -0.55879217
2.0617979 1.3995278 -0.55788016
2.1573598 1.4643943 -0.5610224
2.2396717 1.5202667 -0.55893028
2.3402605 1.5885453 -0.55956459
2.4493229 1.6625758 -0.56011701
2.5545604 1.7340101 -0.55764514
2.6878324 1.8244737 -0.55889893
2.8248849 1.9175036 -0.55822259
2.9824026 2.024425 -0.55863166
3.1483455 2.1370654 -0.55737078
3.3385139 2.2661498 -0.55682373
3.5565789 2.4141703 -0.55682933
3.7962596 2.5768631 -0.55562234
4.0723658 2.7642813 -0.55456769
4.4005117 2.9870234 -0.55453098
4.7742662 3.2407241 -0.55319214
5.2253146 3.5468912 -0.55252558
5.7731972 3.9187884 -0.55206472
6.4323635 4.3662238 -0.55012202
7.286067 4.9457097 -0.5496214
8.3658381 5.678647 -0.54675376
9.8279524 6.6711159 -0.54334366
11.915152 8.0878859 -0.53884131
15.140248 10.277049 -0.53243893
20.720985 14.065197 -0.52042621
32.869911 22.311766 -0.49528882
1.712534 1.1934706 -0.5593102
1.7655758 1.2304356 -0.55750591
1.8424211 1.2839894 -0.56189656
1.9161378 1.3353628 -0.56379467
1.975215 1.3765339 -0.56004375
2.0502224 1.4288068 -0.55945969
2.1410816 1.4921268 -0.56151813
2.2242839 1.5501108 -0.55980462
2.3243103 1.6198196 -0.56047094
2.4248435 1.6898816 -0.55922866
2.5360205 1.7673612 -0.55829984
2.6680646 1.859383 -0.5595004
2.7957222 1.9483482 -0.55715197
2.9541059 2.0587263 -0.55803102
3.1087077 2.1664689 -0.55502778
3.3200595 2.3137605 -0.55844885
3.5227723 2.4550316 -0.55622077
3.7694883 2.6269689 -0.55638981
4.045114 2.8190536 -0.5555352
4.370965 3.0461402 -0.55548579
4.7427702 3.3052523 -0.55421007
5.1807866 3.6105075 -0.55246997
5.7205701 3.9866843 -0.5516783
6.3764062 4.4437385 -0.549968
7.2085524 5.0236645 -0.54839253
8.2871008 5.7753081 -0.5462079
9.7465925 6.7924328 -0.54342216
11.827301 8.242485 -0.53941119
15.009332 10.460053 -0.532318
20.576632 14.339923 -0.52118993
32.612118 22.727493 -0.49557799
1.7020411 1.2175207 -0.56073046
1.7567781 1.2566757 -0.55956501
1.8278463 1.3075129 -0.56231242
1.8793876 1.3443819 -0.55780333
1.9582449 1.4007909 -0.56007361
2.0228047 1.4469725 -0.55679113
2.1167462 1.5141716 -0.55997664
2.2037661 1.5764196 -0.55947709
2.2945609 1.6413678 -0.55812198
2.3989093 1.7160113 -0.55807179
2.5261796 1.8070514 -0.56098264
2.6400387 1.8884983 -0.55845076
2.7635477 1.9768479 -0.55554229
2.9274461 2.0940893 -0.55781698
3.0878232 2.208812 -0.55610627
3.2768583 2.3440342 -0.55598837
3.4859593 2.4936106 -0.55520773
3.726526 2.665695 -0.55484474
4.00353 2.8638444 -0.5546186
4.3163719 3.0876296 -0.55333102
4.6980982 3.3606896 -0.55377704
5.1471353 3.6818991 -0.55366755
5.6731038 4.0581403 -0.55187136
6.3290067 4.5273271 -0.55063969
7.15167 5.1158028 -0.54880935
8.2262545 5.8844848 -0.54692531
9.659421 6.9096713 -0.54325801
11.719378 8.3832207 -0.53914976
14.898209 10.657132 -0.53298426
20.398893 14.591936 -0.52119339
32.373184 23.157501 -0.49623674
1.6985831 1.2469014 -0.56459981
1.743654 1.2799872 -0.56035566
1.7987624 1.3204415 -0.55831796
1.8694878 1.3723598 -0.55983132
1.934582 1.4201443 -0.55825818
2.0074279 1.4736192 -0.55750418
2.0882919 1.5329801 -0.55739379
2.1883557 1.6064353 -0.56053728
2.2731626 1.6686906 -0.55786592
2.3696992 1.7395566 -0.55621064
2.4859324 1.8248813 -0.55698603
2.6121387 1.9175273 -0.55749458
2.7406697 2.0118799 -0.55587441
2.901226 2.1297414 -0.55776876
3.0845342 2.2643049 -0.56048596
3.2625611 2.3949916 -0.55851716
3.4790344 2.553901 -0.55906421
3.7004299 2.7164237 -0.55589056
3.9797297 2.921453 -0.556256
4.2854834 3.1459014 -0.55428833
4.6505594 3.4138978 -0.55307984
5.0977583 3.7421792 -0.55326414
5.6086383 4.1172075 -0.55048358
6.274096 4.6057091 -0.55074805
7.1065745 5.2168174 -0.55022985
8.1419392 5.9768615 -0.54616457
9.5764256 7.0298939 -0.54341084
11.621029 8.5308037 -0.53941029
14.765622 10.839196 -0.53296888
20.241447 14.858909 -0.5217995
32.116394 23.576109 -0.49670681
1.6566833 1.2477781 -0.55573052
1.7225193 1.2973644 -0.55864823
1.8009344 1.3564249 -0.56412655
1.8461874 1.3905085 -0.5579319
1.9269205 1.4513149 -0.56115466
1.9877205 1.4971082 -0.55710149
2.0798378 1.566489 -0.56023633
2.1565032 1.6242316 -0.55745208
2.2571707 1.7000521 -0.55902928
2.3610125 1.7782637 -0.5592618
2.4720497 1.8618945 -0.55896306
2.5892475 1.9501653 -0.55768484
2.7223277 2.0503986 -0.55722582
2.8763459 2.1664016 -0.55806476
3.0383289 2.2884037 -0.55716109
3.218349 2.423991 -0.55600905
3.4377348 2.5892277 -0.55750167
3.6688335 2.7632864 -0.55620641
3.936909 2.9651947 -0.55532515
4.2485209 3.199894 -0.55455488
4.6059351 3.4690907 -0.55280417
5.0606494 3.8115718 -0.55428147
5.5679755 4.1936789 -0.55151212
6.2121668 4.6788697 -0.55032057
7.0271749 5.2927165 -0.54907972
8.0747309 6.0817127 -0.5466314
9.4950418 7.1514606 -0.5437417
11.523145 8.6789837 -0.53977966
14.640684 11.027047 -0.53331321
20.060488 15.109126 -0.5218845
31.876202 24.008467 -0.49752024
1.6575308 1.280659 -0.56125486
1.6944371 1.3091739 -0.55471963
1.7737287 1.370437 -0.56084079
1.8351512 1.4178939 -0.55982333
1.9088608 1.4748442 -0.56113428
1.982268 1.5315608 -0.5608092
2.0575686 1.5897403 -0.55946106
2.1395862 1.6531098 -0.55829149
2.2315989 1.7242016 -0.55790478
2.3356929 1.8046278 -0.55847842
2.4370196 1.8829157 -0.55623543
2.5663731 1.9828583 -0.55796736
2.6964839 2.0833857 -0.55713749
2.8554621 2.2062173 -0.55923408
3.0143154 2.3289521 -0.55796695
3.1938813 2.4676902 -0.5569821
3.4124968 2.6365993 -0.55862433
3.6441178 2.8155568 -0.55766594
3.9176445 3.0268919 -0.55781573
4.2148113 3.2564921 -0.55533969
4.5888224 3.5454645 -0.55594081
5.0077538 3.8691437 -0.55365705
5.5144901 4.2606635 -0.5513621
6.1663699 4.7643256 -0.55141169
6.9635544 5.3802547 -0.54923648
8.0141792 6.1919994 -0.54764527
9.4148197 7.2741776 -0.54422879
11.413141 8.8181419 -0.53966522
14.514853 11.214619 -0.53371251
19.887123 15.365399 -0.52225024
31.604382 24.418512 -0.4979265
1.647429 1.3055148 -0.56322753
1.6885155 1.3380741 -0.55812538
1.742957 1.3812164 -0.55643916
1.8123101 1.4361757 -0.5582006
1.8830823 1.4922596 -0.55890816
1.9597594 1.5530227 -0.55980164
2.0409372 1.6173526 -0.56030411
2.1191335 1.6793197 -0.55830067
2.2157457 1.7558806 -0.55929697
2.3098934 1.8304884 -0.55764937
2.428143 1.9241961 -0.55956757
2.5461817 2.0177364 -0.5589295
2.6796658 2.1235168 -0.55901545
2.8231046 2.237186 -0.55824244
2.9877081 2.3676267 -0.55838865
3.1680322 2.5105257 -0.55781567
3.3637912 2.6656561 -0.55597502
3.6015372 2.8540592 -0.55647832
3.864815 3.0626953 -0.55561382
4.1741605 3.307838 -0.55530083
4.5320687 3.5914645 -0.55437344
4.9569092 3.9281316 -0.55333412
5.4738402 4.3377767 -0.55258906
6.1150417 4.845901 -0.55210853
6.9037585 5.4709239 -0.54978466
7.93751 6.2901263 -0.54765016
9.3233204 7.38832 -0.54415011
11.325011 8.9745712 -0.54067528
14.381428 11.396646 -0.53391898
19.704233 15.614736 -0.52245015
31.348471 24.842279 -0.49866962
1.6230787 1.3190296 -0.56040531
1.6712478 1.3581753 -0.55789584
1.7447034 1.4178704 -0.56252027
1.8036796 1.4657986 -0.56105143
1.8605094 1.5119827 -0.55768448
1.936451 1.5736982 -0.55862898
2.0101988 1.633631 -0.55733806
2.0997372 1.7063962 -0.55867636
2.2006042 1.788368 -0.56098348
2.2906418 1.8615389 -0.55848557
2.4053671 1.9547728 -0.55981582
2.5224869 2.0499527 -0.55921924
2.6507919 2.1542227 -0.55847579
2.7952936 2.2716548 -0.55822438
2.9568512 2.4029481 -0.55810177
3.1294608 2.5432231 -0.55648845
3.3440635 2.7176244 -0.55819541
3.5672426 2.8989959 -0.55664527
3.8273156 3.1103497 -0.5556792
4.1359901 3.3612008 -0.55567932
4.4798856 3.6406746 -0.55342448
4.9073453 3.9880588 -0.55323374
5.4205222 4.4051027 -0.55263299
6.049593 4.9163308 -0.55161583
6.8332734 5.553205 -0.54956788
7.8532948 6.3821473 -0.54721296
9.2382965 7.507699 -0.54453468
11.1996 9.101594 -0.53999025
14.245933 11.577261 -0.53413343
19.534529 15.875151 -0.52308679
31.069414 25.249222 -0.49913171
1.607435 1.3394674 -0.5606485
1.6563398 1.3802195 -0.55854249
1.722164 1.4350705 -0.56090027
1.7747589 1.4788976 -0.55766994
1.8451048 1.5375165 -0.5586918
1.9206433 1.6004622 -0.55970371
1.9991504 1.6658819 -0.55991197
2.0891154 1.7408493 -0.56150335
2.1814616 1.8178009 -0.56175923
2.2744322 1.8952729 -0.56017327
2.3722842 1.9768124 -0.55773139
2.4838376 2.0697694 -0.55625117
2.6209495 2.1840239 -0.55780441
2.7641797 2.3033769 -0.557625
2.9255672 2.4378603 -0.55781287
3.0997508 2.5830066 -0.55681121
3.3028655 2.7522609 -0.55692559
3.5232828 2.9359336 -0.55537707
3.7886145 3.1570332 -0.55565453
4.083879 3.4030757 -0.55425823
4.4439063 3.7030845 -0.55456299
4.8601651 4.0499506 -0.55348724
5.371069 4.4756842 -0.55316025
5.9919095 4.9930277 -0.55191267
6.7688761 5.64047 -0.54992527
7.7817931 6.4845285 -0.54774535
9.155261 7.6290321 -0.54512858
11.095774 9.2460518 -0.54042518
14.107034 11.75532 -0.53430492
19.348965 16.123394 -0.52338725
30.79071 25.657743 -0.49968508
1.5808457 1.3505884 -0.55712491
1.6329669 1.3951179 -0.55640364
1.7132443 1.4637026 -0.56381452
1.7540034 1.4985249 -0.55689603
1.8380519 1.5703313 -0.56236053
1.9056182 1.6280563 -0.5611167
1.9753134 1.6876001 -0.5590055
2.0600657 1.7600079 -0.55947
2.1447682 1.832373 -0.55807018
2.241523 1.915035 -0.55782551
2.3591306 2.0155127 -0.56042331
2.4737451 2.1134331 -0.55976856
2.5896895 2.2124894 -0.55689943
2.7465599 2.3465111 -0.5598489
2.8966689 2.474756 -0.55806291
3.0745041 2.6266887 -0.55803585
3.262892 2.7876372 -0.55592322
3.4906609 2.9822304 -0.55597329
3.7576065 3.2102942 -0.55685431
4.0602021 3.4688153 -0.55679166
4.3968639 3.7564406 -0.55441481
4.8108497 4.1101274 -0.55358481
5.3175721 4.5430436 -0.55336219
5.928658 5.0651221 -0.55178177
6.6978784 5.722302 -0.54983222
7.7057648 6.5833855 -0.54805052
9.0489473 7.730927 -0.5444175
10.988239 9.3877525 -0.54076916
13.972722 11.937532 -0.53473705
19.166922 16.375174 -0.52387005
30.518311 26.073181 -0.50042957
1.5712537 1.3761717 -0.55966586
1.6226448 1.4211823 -0.55879885
1.6798396 1.4712759 -0.55873281
1.7473401 1.5303957 -0.56071293
1.8048518 1.5807669 -0.55810767
1.8780509 1.6448779 -0.55891281
1.9623845 1.7187408 -0.5612852
2.0432184 1.7895386 -0.56082833
2.1285212 1.8642504 -0.55976516
2.2344327 1.9570125 -0.56200725
2.3270774 2.0381548 -0.55872029
2.4344037 2.1321557 -0.55675685
2.5730793 2.2536137 -0.55924451
2.708406 2.3721387 -0.55797529
2.8681371 2.512038 -0.5584749
3.0353804 2.6585169 -0.55682606
3.2302303 2.829175 -0.5562436
3.4538023 3.0249889 -0.55598509
3.7264559 3.2637906 -0.55814326
4.004807 3.5075824 -0.5550679
4.3524404 3.8120546 -0.55468196
4.7513084 4.1614008 -0.55257988
5.2544799 4.6020999 -0.55264372
5.8679104 5.139369 -0.55196792
6.6232224 5.8009038 -0.54951775
7.6313958 6.6839051 -0.54856515
8.959774 7.8473563 -0.54481685
10.873991 9.5239096 -0.54086906
13.833501 12.115976 -0.53507024
18.978172 16.621901 -0.52425796
30.228302 26.47525 -0.50097454
1.5442851 1.3864726 -0.55609041
1.6010307 1.4374193 -0.55740023
1.6696695 1.4990438 -0.56143868
1.7305367 1.5536909 -0.561409
1.790416 1.6074512 -0.55971366
1.8621396 1.6718452 -0.56025326
1.9437903 1.7451519 -0.56206214
2.0110159 1.8055077 -0.55804098
2.0898407 1.8762772 -0.55561829
2.202038 1.9770092 -0.55993152
2.3000708 2.0650237 -0.55829054
2.4175444 2.1704926 -0.55896276
2.5462134 2.2860126 -0.55947256
2.6796739 2.4058347 -0.55810845
2.8398499 2.5496423 -0.55902934
2.996527 2.6903083 -0.55572522
3.1994841 2.872525 -0.55698943
3.4244318 3.0744848 -0.55730081
3.6781428 3.3022687 -0.55694681
3.9659939 3.560704 -0.55571485
4.3086476 3.8683417 -0.555121
4.7245336 4.2417274 -0.55548996
5.1908541 4.6603947 -0.55193734
5.8105922 5.2168007 -0.55256861
6.5627904 5.8921309 -0.55047345
7.5491343 6.777679 -0.54860133
8.87257 7.9658709 -0.54542911
10.769017 9.6685181 -0.5415203
13.692543 12.293284 -0.53542453
18.789259 16.869162 -0.52472985
29.920134 26.862556 -0.50130361
1.5399736 1.4171835 -0.56077063
1.5876201 1.461031 -0.55894381
1.6495298 1.5180043 -0.56090075
1.7138212 1.5771693 -0.5622353
1.7659363 1.6251291 -0.55826581
1.8296617 1.6837733 -0.556669
1.9188975 1.7658939 -0.56110066
1.991262 1.8324884 -0.55877
2.072262 1.9070299 -0.55713707
2.1697655 1.9967589 -0.55792642
2.2804334 2.0986028 -0.55974537
2.3831089 2.1930914 -0.55719393
2.5172846 2.3165684 -0.55933285
2.6551702 2.4434597 -0.55922049
2.7943854 2.5715747 -0.5562622
2.9789217 2.7413969 -0.55866957
3.1636596 2.9114048 -0.55694306
3.3884237 3.1182473 -0.5576387
3.6391385 3.3489714 -0.55723423
3.9286242 3.6153748 -0.55666578
4.2554364 3.9161286 -0.55442762
4.6544809 4.2833552 -0.55340439
5.1486559 4.7381268 -0.55360353
5.7351632 5.2778692 -0.55152559
6.4897428 5.9722824 -0.55046457
7.4489932 6.8550467 -0.54740822
8.774209 8.0745955 -0.54544497
10.638597 9.7903271 -0.54097486
13.53932 12.459761 -0.53538358
18.590914 17.108564 -0.52502608
29.644068 27.280394 -0.50226068
1.5160236 1.4299664 -0.55841011
1.5803839 1.4906734 -0.56280696
1.6337779 1.5410364 -0.5619455
1.6894399 1.5935389 -0.56062275
1.7534016 1.6538697 -0.56068993
1.8283279 1.7245429 -0.56267244
1.8899729 1.7826886 -0.55901045
1.9807988 1.8683587 -0.56223822
2.0659018 1.9486308 -0.56182677
2.1478117 2.0258911 -0.55864465
2.2445986 2.1171839 -0.55729759
2.3582795 2.2244117 -0.55774164
2.4988267 2.3569808 -0.561629
2.6149764 2.4665372 -0.55710083
2.7695656 2.6123512 -0.55767375
2.9397306 2.772857 -0.55767202
3.1280084 2.9504471 -0.55701166
3.3345187 3.1452346 -0.55509031
3.6011178 3.3967004 -0.55776578
3.8865077 3.66589 -0.55704319
4.2032642 3.9646657 -0.55394
4.6194944 4.3572688 -0.55557299
5.0750322 4.7869477 -0.55197465
5.6690526 5.347249 -0.55144942
6.4240651 6.0594029 -0.55117202
7.3779435 6.9591341 -0.54843408
8.6727715 8.1804609 -0.54535109
10.526285 9.9287605 -0.54143107
13.394702 12.634351 -0.53576773
18.401926 17.35734 -0.52567673
29.344053 27.678337 -0.50290602
1.4971427 1.447354 -0.5579688
1.5500427 1.4984949 -0.55852163
1.6092414 1.5557247 -0.56004357
1.6694143 1.6138966 -0.56052047
1.7354199 1.6777071 -0.56149423
1.799422 1.7395809 -0.56031728
1.8696442 1.8074676 -0.55952913
1.9597573 1.8945839 -0.56283581
2.032197 1.9646146 -0.55918813
2.1204593 2.0499415 -0.55804443
2.2160809 2.1423833 -0.55671567
2.325043 2.2477217 -0.55637574
2.4496064 2.3681428 -0.55706912
2.5886507 2.502563 -0.55800605
2.7358332 2.644851 -0.55738801
2.9051738 2.8085599 -0.55762577
3.094131 2.9912331 -0.55748671
3.3089287 3.1988876 -0.55733633
3.5436471 3.4258003 -0.55534697
3.8403497 3.7126358 -0.55692863
4.164639 4.0261407 -0.55533224
4.5534506 4.4020219 -0.55409819
5.0351334 4.8676863 -0.55410331
5.6032763 5.416935 -0.55148876
6.3371296 6.1263828 -0.5501349
7.2946072 7.0520191 -0.54864371
8.5807142 8.2953558 -0.54593527
10.426992 10.080235 -0.54265839
13.252675 12.811946 -0.53634781
18.198221 17.593025 -0.5259977
29.036301 28.070675 -0.50350922
1.4712113 1.4577043 -0.55494285
1.5414317 1.5272799 -0.56214327
1.5971984 1.5825346 -0.56258214
1.642262 1.6271845 -0.55807972
1.7175052 1.7017368 -0.56242579
1.7825645 1.7661989 -0.56178826
1.8498878 1.8329041 -0.5603193
1.9198326 1.9022067 -0.55804497
2.0072305 1.9888022 -0.5590052
2.096508 2.0772603 -0.55842113
2.2062182 2.1859632 -0.56094825
2.3056443 2.2844763 -0.55841357
2.4111571 2.3890204 -0.55496389
2.5565915 2.5331194 -0.55776751
2.7072484 2.6823933 -0.55824202
2.870043 2.8436933 -0.55755222
3.0576863 3.0296137 -0.55759025
3.2743747 3.244313 -0.5581935
3.506238 3.4740474 -0.55613697
3.7912138 3.7564068 -0.55645943
4.1208124 4.0829797 -0.55614084
4.5004177 4.4590993 -0.5542751
4.965641 4.9200516 -0.5530718
5.5518312 5.5008602 -0.55304098
6.2582083 6.2007523 -0.54986125
7.2027707 7.1366425 -0.54829532
8.485569 8.4076633 -0.54641819
10.289169 10.194705 -0.5419687
13.10815 12.987805 -0.53692156
17.991703 17.826521 -0.52632451
28.734293 28.470484 -0.50430483
1.4714313 1.4942205 -0.56191385
1.5224724 1.5460521 -0.5621196
1.5646572 1.5888903 -0.55795974
1.6312052 1.656469 -0.56120175
1.6932455 1.7194703 -0.56136292
1.7586334 1.7858707 -0.56112462
1.8241372 1.8523891 -0.5593766
1.9039768 1.9334652 -0.56030452
1.980142 2.0108101 -0.55830503
2.0787871 2.1109829 -0.56057268
2.1815217 2.2153087 -0.56155258
2.2756157 2.3108599 -0.55798072
2.4038701 2.4411006 -0.56015319
2.5256748 2.5647919 -0.55786085
2.6753879 2.7168238 -0.55851877
2.8279521 2.8717508 -0.55619335
3.0233042 3.0701284 -0.55816257
3.2335689 3.2836497 -0.55807823
3.4692969 3.5230289 -0.55710679
3.7377696 3.7956595 -0.55542362
4.0567088 4.1195383 -0.55428398
4.4540119 4.5229945 -0.55536753
4.9150753 4.991199 -0.55423379
5.4837518 5.5686831 -0.5530386
6.2000251 6.2960496 -0.55150962
7.1205664 7.2308483 -0.54876459
8.3636608 8.4931965 -0.54525191
10.16446 10.321886 -0.54204434
12.943373 13.143837 -0.53675169
17.789776 18.0653 -0.52687597
28.415024 28.855108 -0.5048905
1.4505694 1.5097241 -0.56099403
1.5012337 1.5624547 -0.56132919
1.5606766 1.6243217 -0.56362021
1.6149936 1.6808536 -0.56269258
1.6619827 1.729759 -0.55800778
1.734526 1.8052607 -0.56047314
1.8034499 1.8769952 -0.56006807
1.8833603 1.9601645 -0.56128812
1.9650748 2.0452113 -0.56110513
2.0464249 2.1298788 -0.55886596
2.1488695 2.2365015 -0.5601843
2.2522171 2.3440633 -0.55926865
2.3607714 2.4570446 -0.5571084
2.4972429 2.5990815 -0.55859786
2.6439083 2.7517278 -0.55896854
2.7948732 2.9088495 -0.55668026
2.9734089 3.0946658 -0.55593431
3.1874721 3.3174584 -0.55712074
3.4293361 3.5691857 -0.55769533
3.7020285 3.8529987 -0.55711073
4.0112519 4.1748323 -0.55504531
4.393436 4.5726023 -0.55478334
4.848237 5.0459499 -0.55365169
5.4202991 5.6413407 -0.55359334
6.1257172 6.3755264 -0.5518316
7.0433803 7.3306122 -0.54972142
8.2772474 8.6147966 -0.54648298
10.052237 10.462172 -0.54287916
12.792691 13.314383 -0.53725183
17.574657 18.291359 -0.52712643
28.102774 29.248816 -0.50569463
1.4317745 1.5273151 -0.56094611
1.4757159 1.5741886 -0.55898327
1.5383313 1.6409823 -0.56279504
1.5840797 1.6897835 -0.55911893
1.6485596 1.7585659 -0.56071889
1.7036368 1.8173184 -0.55767065
1.778612 1.8972967 -0.55955756
1.8513273 1.9748641 -0.55893642
1.9376168 2.0669117 -0.56047964
2.0239768 2.1590343 -0.55994344
2.1083395 2.2490265 -0.55678588
2.2279928 2.3766642 -0.56046796
2.334111 2.4898636 -0.55799985
2.4655898 2.6301155 -0.5587095
2.6069007 2.7808559 -0.55833167
2.7749431 2.9601119 -0.55991822
2.9434712 3.1398854 -0.55751348
3.1526449 3.3630171 -0.55821919
3.3818443 3.6075106 -0.55714381
3.6475027 3.8908961 -0.55606323
3.968322 4.2331233 -0.55626553
4.3336458 4.6228247 -0.55436945
4.7920728 5.1118422 -0.55437416
5.3372421 5.6933899 -0.55221897
6.0419121 6.4450817 -0.55137974
6.9436617 7.4070039 -0.54900569
8.1827841 8.7288113 -0.54729134
9.9358282 10.598834 -0.54358983
12.629464 13.472213 -0.5373134
17.358913 18.517252 -0.52744502
27.765787 29.618567 -0.50614613
1.4135486 1.5455273 -0.56120872
1.4724265 1.6099026 -0.56519312
1.5196043 1.6614852 -0.56337565
1.5655229 1.7116911 -0.55995584
1.6209598 1.7723038 -0.55870163
1.6932741 1.8513701 -0.56168813
1.7633373 1.9279747 -0.56216794
1.8300352 2.0009 -0.55989397
1.9100631 2.0883999 -0.55989534
2.0066757 2.1940329 -0.56257838
2.0875323 2.282439 -0.55866057
2.2036703 2.4094203 -0.56175995
2.3037839 2.5188813 -0.55811214
2.4266071 2.653172 -0.55722666
2.5768976 2.8174946 -0.55928361
2.7272642 2.9819007 -0.55765408
2.9112749 3.1830916 -0.55878657
3.1016181 3.3912067 -0.55652571
3.3361897 3.6476796 -0.55696976
3.5949879 3.9306409 -0.55538374
3.9185886 4.2844553 -0.55663705
4.2751794 4.6743398 -0.55420107
4.7240229 5.1650906 -0.55380738
5.2683725 5.7602644 -0.55238014
5.9662595 6.5233111 -0.5517543
6.8628569 7.5036206 -0.54987043
8.0665236 8.8196697 -0.54672766
9.7905293 10.704641 -0.54280096
12.468931 13.633118 -0.53757507
17.152683 18.754177 -0.52814591
27.439087 30.00099 -0.50687718
1.4008163 1.5699385 -0.56377554
1.4434646 1.6177357 -0.56166935
1.4887192 1.6684541 -0.55948919
1.55127 1.7385566 -0.56246179
1.6057545 1.7996191 -0.56104559
1.6689886 1.8704876 -0.56121933
1.7412213 1.9514409 -0.56272471
1.8121843 2.0309715 -0.56203073
1.8862261 2.1139524 -0.56048524
1.9730947 2.2113087 -0.56074452
2.0641797 2.3133905 -0.55998147
2.1695018 2.4314282 -0.56062895
2.2832625 2.5589235 -0.5607211
2.3978009 2.6872902 -0.55815762
2.5390153 2.8455534 -0.55861366
2.6878541 3.0123618 -0.55712759
2.8625772 3.2081795 -0.55696934
3.0705643 3.441277 -0.55850416
3.301985 3.7006376 -0.55881405
3.5556538 3.9849322 -0.556835
3.86128 4.3274565 -0.55601311
4.2263222 4.7365713 -0.55537587
4.6656041 5.228888 -0.55445451
5.2069354 5.8355746 -0.55342031
5.8836966 6.5940418 -0.55157578
6.7733598 7.5911155 -0.5501371
7.9655752 8.927269 -0.54728448
9.6771049 10.845433 -0.54386508
12.312619 13.799136 -0.53811079
16.939049 18.984119 -0.52871567
27.101896 30.37394 -0.50750941
1.3766388 1.5815654 -0.56182945
1.4123944 1.6226437 -0.55730128
1.4799337 1.7002368 -0.56400198
1.5303125 1.7581151 -0.56265897
1.5801244 1.8153418 -0.55984753
1.6432384 1.8878511 -0.56032413
1.7097695 1.964286 -0.56032383
1.7780201 2.0426965 -0.55918288
1.858012 2.1345959 -0.55985868
1.9479036 2.2378688 -0.5613634
2.0397005 2.3433306 -0.56111521
2.132499 2.4499431 -0.55880958
2.2362542 2.5691433 -0.55689293
2.3639946 2.715899 -0.55801988
2.5010211 2.8733234 -0.55798578
2.6560347 3.0514123 -0.55826735
2.8328717 3.2545733 -0.55893391
3.0146139 3.4633698 -0.55603153
3.2417524 3.7243202 -0.55632877
3.5060701 4.0279841 -0.55678445
3.7986293 4.3640938 -0.55467701
4.1653242 4.7853746 -0.55505067
4.600965 5.2858648 -0.55445516
5.1385107 5.90343 -0.55382127
5.7983456 6.6614876 -0.55121177
6.685533 7.6807423 -0.55063307
7.8621311 9.0324888 -0.54776686
9.5421247 10.962566 -0.54381388
12.153661 13.962856 -0.53862661
16.708874 19.196159 -0.5288589
26.771078 30.756224 -0.50835812
1.3629985 1.6053331 -0.56427616
1.3946104 1.6425655 -0.55821151
1.44495 1.7018552 -0.55860269
1.5091913 1.7775182 -0.56288701
1.5604825 1.8379288 -0.56085324
1.6202161 1.9082829 -0.56043279
1.6836214 1.9829613 -0.55970317
1.7592731 2.0720634 -0.5612576
1.8379114 2.1646831 -0.56178004
1.9147619 2.2551975 -0.55976176
2.0033498 2.3595357 -0.55905461
2.1018322 2.475528 -0.55870795
2.2122033 2.6055224 -0.55883986
2.3367062 2.7521615 -0.55952454
2.4612331 2.8988287 -0.55701941
2.6119492 3.0763414 -0.55691004
2.7840781 3.279074 -0.55722016
2.9809279 3.5109227 -0.55773896
3.2081947 3.7785964 -0.55850136
3.4598784 4.0750284 -0.5573644
3.7601366 4.4286709 -0.55696601
4.1110597 4.8419862 -0.55571157
4.530539 5.3360472 -0.55383348
5.0600367 5.9596868 -0.55321997
5.7290173 6.7476091 -0.55246699
6.5788789 7.7485719 -0.54965472
7.743947 9.1207838 -0.54730535
9.4157705 11.08985 -0.54434335
11.987856 14.119239 -0.53893209
16.502138 19.436138 -0.52983993
26.417633 31.114563 -0.50887328
1.3298668 1.6059216 -0.55869281
1.3752112 1.6606786 -0.55857807
1.4214877 1.7165612 -0.55765027
1.4874985 1.7962747 -0.56299186
1.5319839 1.8499943 -0.55874431
1.5942112 1.9251388 -0.55958366
1.6670076 2.0130463 -0.56236655
1.7281426 2.0868719 -0.55947047
1.809121 2.1846597 -0.5611487
1.8883713 2.2803609 -0.5602017
1.9752359 2.3852568 -0.55935174
2.0688844 2.4983449 -0.55807382
2.1786067 2.6308434 -0.55848277
2.3085785 2.7877948 -0.56095529
2.432503 2.9374437 -0.55864966
2.5834849 3.1197667 -0.55897814
2.7514012 3.3225391 -0.55881482
2.9430268 3.5539424 -0.55878192
3.1576135 3.8130734 -0.55781615
3.407937 4.1153593 -0.55710685
3.6951549 4.4621983 -0.55542612
4.0494218 4.8900037 -0.55546576
4.4744267 5.4032316 -0.55505413
4.9834657 6.0179372 -0.55289704
5.6518698 6.825089 -0.55307871
6.4879155 7.834682 -0.5500623
7.642417 9.2288351 -0.54810858
9.27178 11.196423 -0.54393721
11.820636 14.274372 -0.53926462
16.267712 19.644577 -0.53002894
26.078794 31.492249 -0.50976712
1.3143084 1.627461 -0.56052142
1.3688499 1.6949978 -0.5644173
1.4042618 1.7388471 -0.55923831
1.4606423 1.808661 -0.56120229
1.5176402 1.8792396 -0.56189835
1.5759153 1.9513994 -0.56154174
1.6338117 2.0230906 -0.55951786
1.7015185 2.1069295 -0.55919635
1.7791877 2.2031043 -0.56022453
1.8514106 2.2925355 -0.5575577
1.9497081 2.4142537 -0.56048715
2.047967 2.5359242 -0.56080049
2.1461806 2.6575387 -0.55850524
2.2732153 2.814841 -0.56073052
2.3983781 2.9698257 -0.55915713
2.5473604 3.154305 -0.55951184
2.6990609 3.3421504 -0.55648911
2.8869519 3.5748091 -0.55643916
3.1156507 3.8579986 -0.55874145
3.3603873 4.161047 -0.55765587
3.6362774 4.5026722 -0.55485654
3.9907815 4.9416418 -0.55571514
4.406877 5.4568777 -0.55495644
4.9158158 6.087079 -0.55365402
5.5513597 6.8740497 -0.5514729
6.4022846 7.9277196 -0.55102551
7.5338078 9.3288441 -0.54850477
9.1590672 11.341346 -0.54546505
11.646985 14.422044 -0.53939217
16.049871 19.87398 -0.53085345
25.71969 31.847771 -0.51036406
1.2950103 1.644529 -0.56087303
1.3466357 1.710088 -0.56388563
1.383986 1.7575189 -0.55972785
1.4412436 1.8302301 -0.56235343
1.4941562 1.8974237 -0.56179947
1.5490416 1.9671224 -0.56054264
1.6020392 2.0344238 -0.55716199
1.6729287 2.1244462 -0.55834341
1.7441628 2.2149062 -0.55772966
1.8290316 2.3226807 -0.55937707
1.9142487 2.4308977 -0.55884427
2.0151811 2.5590711 -0.56039709
2.110132 2.6796491 -0.55765676
2.2237089 2.82388 -0.557042
2.3567812 2.9928682 -0.55799699
2.5022764 3.1776319 -0.55814952
2.6711006 3.3920212 -0.55928171
2.8506947 3.6200871 -0.55798846
3.0574555 3.8826518 -0.55682492
3.3003752 4.1911345 -0.55620724
3.5929849 4.5627189 -0.55676949
3.9316609 4.9928021 -0.55598968
4.3406425 5.5121665 -0.55510908
4.8394718 6.145628 -0.55352491
5.4748297 6.9524665 -0.55232131
6.2919459 7.9901199 -0.54994351
7.4134359 9.4142962 -0.54812783
9.0205212 11.455128 -0.54556143
11.470372 14.566185 -0.53946722
15.805456 20.071293 -0.53089243
25.370022 32.2173 -0.51124793
1.2733707 1.6586065 -0.56029165
1.3127213 1.7098618 -0.55844617
1.3649577 1.7779015 -0.56083143
1.4238183 1.8545693 -0.56440973
1.4745603 1.9206623 -0.5632689
1.5242885 1.985435 -0.56037748
1.5854564 2.0651081 -0.56018388
1.6483769 2.1470642 -0.55891848
1.7270424 2.2495284 -0.56105793
1.7991509 2.3434522 -0.55900925
1.8844203 2.4545183 -0.55890524
1.9831116 2.5830669 -0.56026942
2.0892081 2.721261 -0.56092787
2.2040148 2.8708005 -0.56090909
2.3264656 3.0302966 -0.55959928
2.4640903 3.2095573 -0.55839288
2.6262057 3.4207177 -0.5586465
2.8063142 3.6553149 -0.55805725
3.0168152 3.9294991 -0.55818117
3.2599065 4.2461333 -0.55814421
3.5329938 4.6018386 -0.55619985
3.8727374 5.0443654 -0.55638665
4.269443 5.5610871 -0.55470681
4.7732892 6.2173634 -0.55465752
5.3941741 7.0260863 -0.55285871
6.1990495 8.0744619 -0.55046046
7.2978001 9.50562 -0.54817873
8.8754549 11.560566 -0.54534405
11.311121 14.733101 -0.54045701
15.576917 20.289436 -0.53155589
25.013475 32.58086 -0.5120976
1.2414904 1.6589173 -0.55519766
1.2976123 1.7339092 -0.56104642
1.3405555 1.7912912 -0.55981302
1.3963155 1.8657993 -0.56255949
1.4378748 1.9213324 -0.55823803
1.4944736 1.9969612 -0.55840176
1.5579185 2.0817385 -0.55945617
1.6164967 2.1600122 -0.55707264
1.702207 2.2745409 -0.56203336
1.7801722 2.3787205 -0.56215811
1.8525374 2.4754171 -0.55843472
1.9508815 2.6068275 -0.56017756
2.0479422 2.7365229 -0.55884069
2.1673577 2.8960896 -0.56060064
2.2806165 3.0474293 -0.55754226
2.4171009 3.229804 -0.55670232
2.5935726 3.465611 -0.56072742
2.7673452 3.6978111 -0.55930775
2.9663827 3.9637713 -0.55782592
3.2017918 4.2783322 -0.55715936
3.4725425 4.6401176 -0.55562353
3.7991936 5.0765986 -0.55474716
4.2009678 5.6134615 -0.55473644
4.69239 6.2701149 -0.55417418
5.3036356 7.0868797 -0.55246896
6.1021276 8.1538496 -0.55071557
7.1883779 9.6053305 -0.54878998
8.7382402 11.676304 -0.54569381
11.14507 14.892384 -0.54123181
15.334066 20.489849 -0.53182632
24.64311 32.928879 -0.512766
1.2336068 1.6913425 -0.56093049
1.280084 1.7550652 -0.56275618
1.3235008 1.8145919 -0.56196636
1.3675678 1.8750103 -0.56022406
1.4237152 1.9519914 -0.5620169
1.4770871 2.0251672 -0.56116766
1.5310676 2.0991776 -0.55904102
1.5929683 2.1840467 -0.55817717
1.6648976 2.2826657 -0.55894005
1.7445153 2.3918259 -0.56014335
1.8330199 2.5131705 -0.56182432
1.9105707 2.6194971 -0.55780947
2.0134246 2.7605155 -0.55864215
2.1231906 2.9110105 -0.558393
2.2504442 3.0854821 -0.55939907
2.3879278 3.2739797 -0.55921322
2.5416629 3.4847591 -0.55872655
2.7157357 3.7234223 -0.55808836
2.9281967 4.0147181 -0.55988616
3.1466935 4.3142886 -0.55676091
3.4131508 4.6796165 -0.55528569
3.7430031 5.1318622 -0.55571461
4.1273646 5.6588426 -0.55416375
4.6177688 6.3312135 -0.55451375
5.2220116 7.1596632 -0.55309534
6.0101743 8.2402773 -0.55151975
7.0728917 9.6973219 -0.54903525
8.5996246 11.790556 -0.54605007
10.948245 15.010643 -0.54059619
15.106047 20.711218 -0.53271049
24.273401 33.280163 -0.51354951
1.210274 1.7029442 -0.55980021
1.25386 1.7642728 -0.56072247
1.2970439 1.8250358 -0.56021911
1.3418875 1.8881339 -0.55917287
1.3931936 1.9603254 -0.55944169
1.4453007 2.033644 -0.5585497
1.5085517 2.1226428 -0.56030768
1.5688598 2.2075005 -0.55919868
1.6388448 2.3059747 -0.55967075
1.7137564 2.4113808 -0.55974543
1.80186 2.5353489 -0.56178677
1.8839514 2.6508577 -0.5595122
1.9774348 2.7823956 -0.55810714
2.0935762 2.9458151 -0.56008875
2.2085891 3.1076465 -0.55845153
2.3535173 3.3115711 -0.56064856
2.5012922 3.5195014 -0.55932325
2.6667423 3.7523017 -0.55745989
2.8659546 4.032608 -0.55742425
3.1021619 4.3649693 -0.55833626
3.3648958 4.7346549 -0.55686474
3.6788354 5.1763906 -0.55559593
4.0636854 5.7179027 -0.55501211
4.5266948 6.369391 -0.55294055
5.1355495 7.2260938 -0.553307
5.8998766 8.3015585 -0.55072403
6.9564371 9.7882166 -0.54929698
8.459816 11.903581 -0.54642558
10.778648 15.166347 -0.54138952
14.871447 20.925215 -0.53347087
23.902071 33.631962 -0.51440394
1.182698 1.7082418 -0.55671895
1.2349446 1.7837048 -0.56202954
1.2770748 1.8445557 -0.5613482
1.3320972 1.9240279 -0.56490922
1.3759452 1.9873602 -0.56228596
1.4341389 2.0714128 -0.56403697
1.4780425 2.1348255 -0.55868375
1.5420877 2.2273297 -0.55937606
1.6099138 2.3252952 -0.55951297
1.6897494 2.4406066 -0.56166393
1.7584984 2.5399048 -0.55796278
1.8560603 2.6808193 -0.56097656
1.9451412 2.8094842 -0.5587008
2.0495579 2.9602997 -0.55800879
2.178715 3.1468489 -0.56063962
2.3042014 3.3280966 -0.55860722
2.45766 3.549746 -0.55928475
2.6180673 3.7814317 -0.55696273
2.8180959 4.0703454 -0.55780846
3.0394392 4.3900447 -0.55672097
3.3027658 4.7703834 -0.55624825
3.623256 5.2332864 -0.55687857
3.9877234 5.7597084 -0.55426848
4.4646316 6.4485359 -0.5550034
5.0554214 7.3018489 -0.55430579
5.8052382 8.3848543 -0.5514726
6.8424706 9.8829918 -0.54985231
8.3237448 12.022484 -0.54714394
10.593249 15.300467 -0.54148638
14.615026 21.10936 -0.53354359
23.520075 33.971455 -0.51513398
1.1778082 1.7466841 -0.56448466
1.2079372 1.7913653 -0.55972087
1.2510626 1.8553201 -0.55990005
1.3098092 1.9424409 -0.56554377
1.343186 1.9919387 -0.55886608
1.4047518 2.0832403 -0.5625115
1.4565527 2.1600609 -0.56055832
1.5190401 2.2527294 -0.56102145
1.5817263 2.3456929 -0.55969876
1.6619523 2.4646673 -0.56245559
1.7324682 2.5692422 -0.55968541
1.821493 2.7012656 -0.56052577
1.9177508 2.8440154 -0.5608359
2.0213742 2.9976885 -0.5603289
2.1370673 3.1692607 -0.55990845
2.2691698 3.3651681 -0.56010383
2.4092021 3.5728354 -0.55821288
2.5788543 3.824429 -0.55858284
2.7684171 4.1055498 -0.55792558
2.9908485 4.4354143 -0.55776858
3.2425003 4.8086128 -0.55601484
3.5643318 5.2858877 -0.55776989
3.9183226 5.810854 -0.55451179
4.3909955 6.511826 -0.55576152
4.9504552 7.3415022 -0.55265313
5.7166896 8.4778242 -0.55292213
6.7327194 9.9845915 -0.55085725
8.1647491 12.108286 -0.54643834
10.415189 15.445676 -0.54205197
14.373322 21.315569 -0.53424799
23.139439 34.315678 -0.51600009
1.151209 1.7533671 -0.56202716
1.1861867 1.8066404 -0.55989385
1.2295464 1.8726801 -0.56053394
1.2696251 1.9337226 -0.5584178
1.3215815 2.0128558 -0.56013292
1.3888944 2.1153777 -0.56653482
1.4332093 2.1828723 -0.56186217
1.4893223 2.2683358 -0.560305
1.5517334 2.3633921 -0.55932683
1.6245168 2.474246 -0.56004053
1.7044898 2.5960503 -0.56091708
1.7872229 2.7220581 -0.56023771
1.876886 2.8586209 -0.55912262
1.9768125 3.0108156 -0.55819678
2.0972776 3.1942918 -0.5597322
2.2237437 3.3869081 -0.55912876
2.3656313 3.6030121 -0.55834067
2.5338011 3.8591456 -0.55906051
2.7232912 4.1477518 -0.55906773
2.9362943 4.4721699 -0.55780804
3.1865556 4.853334 -0.55661303
3.493824 5.3213239 -0.5569337
3.8571692 5.8747225 -0.55603844
4.305491 6.5575461 -0.55510318
4.8743238 7.4239159 -0.55430323
5.6083169 8.5418358 -0.55255747
6.5935712 10.042443 -0.54953432
8.0283899 12.227767 -0.5473339
10.234777 15.58824 -0.54259741
14.12245 21.509422 -0.53471375
22.750221 34.650085 -0.51678294
1.130407 1.7687092 -0.56244689
1.1617684 1.8177795 -0.55887651
1.205781 1.8866445 -0.56023341
1.2481285 1.9529041 -0.55948269
1.3000705 2.0341759 -0.56157482
1.3503056 2.112777 -0.56134903
1.4025218 2.194478 -0.560368
1.4619809 2.2875116 -0.56055868
1.5227451 2.3825872 -0.55939597
1.5971073 2.4989393 -0.56114221
1.6664087 2.6073728 -0.55889386
1.7465044 2.7326958 -0.55796492
1.8475099 2.8907356 -0.56091821
1.9469097 3.0462632 -0.56028783
2.0509822 3.2091019 -0.55786592
2.1852746 3.4192247 -0.5599854
2.3265462 3.6402674 -0.55963832
2.4896128 3.8954122 -0.55983716
2.6679113 4.1743898 -0.55819416
2.8818049 4.5090618 -0.55794746
3.1288822 4.8956552 -0.55701214
3.4247653 5.3586135 -0.55638689
3.7862346 5.924192 -0.55627203
4.2262325 6.6126418 -0.55532598
4.7832789 7.4842329 -0.55437326
5.5031991 8.6106672 -0.55259085
6.4840178 10.145322 -0.55075932
7.8839359 12.335726 -0.54778546
10.041976 15.712337 -0.54257792
13.862558 21.690271 -0.5349316
22.357533 34.982067 -0.51759487
1.1008716 1.7700893 -0.55853885
1.1395752 1.8323209 -0.5589968
1.1881473 1.9104197 -0.56291246
1.2349067 1.985604 -0.56445783
1.2799977 2.0581057 -0.5637933
1.3194414 2.1215274 -0.55932093
1.3761024 2.2126327 -0.56064057
1.4383751 2.3127606 -0.56236923
1.4971752 2.407305 -0.56083453
1.565256 2.516772 -0.56078219
1.6340214 2.6273401 -0.55882472
1.7258465 2.7749853 -0.56222403
1.8140672 2.9168353 -0.56161171
1.9047964 3.0627184 -0.55896419
2.0210707 3.2496758 -0.56055665
2.1369197 3.4359493 -0.55837882
2.2734194 3.6554265 -0.55762899
2.4391408 3.92189 -0.55928969
2.6140146 4.2030692 -0.55768883
2.8239133 4.540565 -0.55750674
3.0675416 4.9322944 -0.55684704
3.3619661 5.4056993 -0.55694133
3.7053142 5.9577675 -0.55510455
4.1430087 6.6615357 -0.55511183
4.6904998 7.5418458 -0.55432665
5.3970799 8.6779547 -0.55260825
6.3624177 10.23012 -0.55107397
7.7307286 12.430223 -0.54771906
9.8647709 15.861547 -0.54350048
13.609313 21.882389 -0.53550202
21.9657 35.318607 -0.51853871
1.0811993 1.7870866 -0.55966479
1.1223817 1.8551558 -0.56171024
1.1584573 1.9147844 -0.55995888
1.2076288 1.9960587 -0.56316584
1.2507627 2.0673535 -0.56207097
1.3014843 2.15119 -0.56287944
1.3488349 2.2294548 -0.56065804
1.4101231 2.3307564 -0.56248629
1.4621699 2.4167831 -0.55881166
1.5355769 2.5381157 -0.56128824
1.6098652 2.6609049 -0.56171089
1.6889352 2.7915976 -0.56133962
1.7719636 2.9288332 -0.55968422
1.8763751 3.1014123 -0.56177264
1.9763668 3.266686 -0.55925649
2.1037819 3.4772871 -0.5608502
2.2386196 3.7001567 -0.56021094
2.3870065 3.9454219 -0.5584175
2.5710845 4.2496796 -0.55963618
2.7715232 4.5809798 -0.55824232
3.0115125 4.9776516 -0.55774498
3.30427 5.4615431 -0.55846649
3.6340508 6.0066295 -0.55545163
4.0610309 6.7123742 -0.55514497
4.5960245 7.5966506 -0.55415905
5.2859383 8.7369919 -0.55218691
6.2381482 10.310875 -0.55125034
7.5791397 12.527366 -0.5478515
9.6763773 15.993835 -0.54391521
13.358309 22.079605 -0.53626794
21.5576 35.632004 -0.51920879
1.0615237 1.8042896 -0.56092203
1.1002167 1.8700569 -0.56208324
1.1432725 1.9432396 -0.56412649
1.1872923 2.0180607 -0.56521165
1.2296472 2.0900519 -0.56408864
1.2710464 2.160419 -0.56116229
