# .PCD v0.7 - Point Cloud Data file format
VERSION 0.7
FIELDS x y z
SIZE 4 4 4
TYPE F F F
COUNT 1 1 1
WIDTH 1403
HEIGHT 1
VIEWPOINT 0 0 0 1 0 0 0
POINTS 1403
DATA ascii
-1.2018899 -3.2571106 -0.56763732
-1.264765 -3.4275017 -0.56619859
-1.3339376 -3.6149588 -0.56441301
-1.4210699 -3.8510864 -0.56647354
-1.5188057 -4.1159496 -0.56831819
-1.6197637 -4.3895445 -0.56659806
-1.7396674 -4.7144828 -0.56620497
-1.8854004 -5.1094179 -0.56783986
-2.0485904 -5.5516615 -0.5673148
-2.247808 -6.0915394 -0.56806606
-2.490139 -6.7482533 -0.56911081
-2.7890134 -7.5582004 -0.5700838
-3.1625204 -8.5704012 -0.57016885
-3.6566072 -9.9093714 -0.5711633
-4.3280587 -11.729 -0.57187927
-5.3127418 -14.397481 -0.57422173
-6.8758798 -18.633572 -0.57791597
-9.7214222 -26.344965 -0.58355016
-16.608858 -45.00985 -0.59813523
-0.70435899 -1.9835665 -0.56400883
-0.73363745 -2.0660186 -0.5679667
-0.75608307 -2.1292284 -0.56534719
-0.7821632 -2.2026732 -0.56424773
-0.81711602 -2.301105 -0.56802773
-0.84032655 -2.3664689 -0.5622043
-0.8763417 -2.4678922 -0.56348491
-0.91412699 -2.5743005 -0.56406742
-0.95842773 -2.6990571 -0.56662613
-1.0021633 -2.8222222 -0.56665981
-1.0475097 -2.9499233 -0.56539369
-1.1047347 -3.1110766 -0.56798947
-1.1577967 -3.2605062 -0.56570518
-1.2233914 -3.4452293 -0.56659919
-1.2993023 -3.6590044 -0.56875247
-1.3779511 -3.8804896 -0.56826329
-1.4613553 -4.1153669 -0.56571376
-1.5620205 -4.3988533 -0.56527758
-1.6825787 -4.7383604 -0.56654501
-1.8218124 -5.1304607 -0.56764591
-1.9823799 -5.5826397 -0.56794655
-2.1753418 -6.1260452 -0.56874645
-2.4037035 -6.7691417 -0.56833673
-2.6909757 -7.5781374 -0.5690487
-3.0576384 -8.6107073 -0.57030588
-3.5302601 -9.9416714 -0.57047981
-4.184516 -11.784142 -0.57201582
-5.1345572 -14.459581 -0.57413703
-6.6341558 -18.682646 -0.57686436
-9.3914356 -26.447504 -0.58321941
-16.020845 -45.116787 -0.59689325
-0.6851446 -2.0073943 -0.56834549
-0.70547903 -2.0669718 -0.56580114
-0.73242819 -2.1459296 -0.56734741
-0.75493777 -2.21188 -0.56418556
-0.78350538 -2.2955799 -0.56424296
-0.81708455 -2.3939629 -0.56630635
-0.84675908 -2.4809058 -0.56403625
-0.88276988 -2.5864134 -0.56430042
-0.92254221 -2.7029417 -0.5650174
-0.96779376 -2.8355234 -0.56689823
-1.0156921 -2.9758599 -0.56792808
-1.0635782 -3.1161609 -0.56648719
-1.1158258 -3.2692401 -0.56479728
-1.1821154 -3.4634609 -0.56716412
-1.2505019 -3.6638253 -0.56706882
-1.3298192 -3.8962159 -0.56812871
-1.4063137 -4.1203356 -0.56397706
-1.5063365 -4.4133911 -0.56472284
-1.6277773 -4.7691989 -0.56779605
-1.7562217 -5.1455255 -0.56688046
-1.9160452 -5.61379 -0.5686757
-2.1008472 -6.1552386 -0.56901538
-2.3233163 -6.8070474 -0.56907767
-2.5958812 -7.6056309 -0.56867331
-2.9510539 -8.646246 -0.57021314
-3.4089479 -9.9878225 -0.57067955
-4.044199 -11.849033 -0.57270855
-4.9560571 -14.520673 -0.57409954
-6.4069924 -18.771744 -0.5771392
-9.0532751 -26.525045 -0.58243042
-15.43361 -45.218685 -0.59568554
-0.65718615 -2.0058246 -0.56557035
-0.6793465 -2.0734611 -0.56524813
-0.70658642 -2.156601 -0.56782877
-0.72483826 -2.2123084 -0.56197888
-0.75258422 -2.2969928 -0.56227314
-0.78366995 -2.391871 -0.56348932
-0.81871545 -2.4988346 -0.56578082
-0.85453093 -2.6081486 -0.56670719
-0.88683861 -2.7067561 -0.56349266
-0.9268558 -2.8288944 -0.56325173
-0.97256827 -2.968415 -0.56418228
-1.0222152 -3.1199448 -0.56484735
-1.0790431 -3.2933915 -0.5666346
-1.1397917 -3.4788046 -0.56733871
-1.204028 -3.6748629 -0.56644285
-1.2760537 -3.8946953 -0.5655762
-1.3615541 -4.1556549 -0.56647694
-1.4570071 -4.44699 -0.56668675
-1.5697528 -4.7911062 -0.56806326
-1.6931133 -5.1676202 -0.5669781
-1.8462336 -5.6349645 -0.56847793
-2.0248551 -6.1801429 -0.56897289
-2.2382753 -6.8315306 -0.56878054
-2.5041749 -7.6430945 -0.56912911
-2.8448052 -8.6827459 -0.57027018
-3.2824159 -10.018394 -0.57007712
-3.8935633 -11.883702 -0.57202685
-4.7680888 -14.552877 -0.5730114
-6.1660175 -18.819551 -0.5762344
-8.7186193 -26.610453 -0.58190775
-14.844365 -45.307087 -0.59440064
-0.63282996 -2.0148876 -0.56588888
-0.64994639 -2.0693851 -0.56191576
-0.6764161 -2.1536627 -0.56482244
-0.70226401 -2.2359607 -0.56575078
-0.73098069 -2.3273926 -0.56747144
-0.75646311 -2.4085271 -0.56517917
-0.7820248 -2.4899137 -0.56154126
-0.82210135 -2.6175146 -0.56650293
-0.85693401 -2.7284195 -0.5657661
-0.89629906 -2.8537552 -0.56596452
-0.93781978 -2.985954 -0.56528127
-0.98815298 -3.1462116 -0.5673601
-1.036172 -3.2991011 -0.56538206
-1.0922172 -3.477545 -0.56490028
-1.1575948 -3.6857028 -0.56587684
-1.2325411 -3.9243267 -0.56763542
-1.3073045 -4.1623683 -0.56515807
-1.4027518 -4.4662662 -0.56690222
-1.5071005 -4.7985053 -0.5667004
-1.6296744 -5.1887722 -0.56705737
-1.7746986 -5.6505194 -0.56780273
-1.9423244 -6.1842284 -0.56710726
-2.1551061 -6.8617105 -0.56904387
-2.4117036 -7.6786995 -0.56952912
-2.733428 -8.7030487 -0.56935304
-3.1678016 -10.086064 -0.57166797
-3.7434642 -11.918935 -0.57146388
-4.5898547 -14.613784 -0.57314402
-5.9313297 -18.884951 -0.5759601
-8.377018 -26.671856 -0.58095402
-14.259168 -45.400215 -0.59327722
-0.60687715 -2.0187545 -0.56483638
-0.62631512 -2.0834141 -0.56359136
-0.65004331 -2.1623452 -0.56496042
-0.67614663 -2.2491767 -0.56694818
-0.70077312 -2.3310959 -0.5662306
-0.72861385 -2.4237072 -0.56659603
-0.75884819 -2.5242803 -0.56714457
-0.78333563 -2.605737 -0.56182677
-0.82029909 -2.7286944 -0.56368893
-0.86182129 -2.8668165 -0.56641036
-0.89908791 -2.9907827 -0.56405979
-0.94714826 -3.1506536 -0.5660181
-0.99635202 -3.3143282 -0.56584918
-1.0489213 -3.489198 -0.56465542
-1.1129913 -3.7023244 -0.56628478
-1.1795106 -3.9235983 -0.56538939
-1.258006 -4.1847105 -0.5660485
-1.3484782 -4.4856629 -0.56721669
-1.4482638 -4.817596 -0.566809
-1.5646204 -5.2046518 -0.56664735
-1.6992872 -5.652616 -0.56587094
-1.8662211 -6.2079153 -0.56713217
-2.0667269 -6.8748908 -0.56798649
-2.3131504 -7.6946092 -0.56855643
-2.6255896 -8.7339268 -0.56921798
-3.0336881 -10.091452 -0.56981587
-3.597261 -11.966156 -0.5715639
-4.4095182 -14.6681 -0.57310438
-5.6952271 -18.944962 -0.57561105
-8.0427828 -26.754021 -0.5805456
-13.671499 -45.477737 -0.5920487
-0.58029878 -2.0201082 -0.56317604
-0.60457134 -2.1046045 -0.56726974
-0.62530738 -2.1767898 -0.5666827
-0.64906842 -2.2595055 -0.56749701
-0.66932994 -2.330039 -0.563932
-0.69504654 -2.4195623 -0.56358653
-0.72480321 -2.52315 -0.56484544
-0.75767338 -2.6375759 -0.56663996
-0.78858602 -2.7451875 -0.56505013
-0.82714039 -2.8794012 -0.5668444
-0.86413699 -3.0081918 -0.56529641
-0.90596944 -3.1538169 -0.56454235
-0.95319122 -3.3182032 -0.56446701
-1.0105156 -3.5177579 -0.56722349
-1.0687951 -3.7206376 -0.56703281
-1.1338775 -3.9471996 -0.56673837
-1.2092166 -4.2094665 -0.56734294
-1.287923 -4.4834552 -0.56489223
-1.3851852 -4.8220401 -0.56528515
-1.5028038 -5.2314882 -0.5675143
-1.6318268 -5.6806364 -0.5666244
-1.7928703 -6.2412534 -0.56812084
-1.9816439 -6.8984027 -0.56787288
-2.2172005 -7.718411 -0.56825769
-2.5143151 -8.7527122 -0.56838429
-2.9084821 -10.124867 -0.56964022
-3.4449632 -11.99244 -0.5707528
-4.220119 -14.690874 -0.57192343
-5.4527926 -18.981998 -0.57465565
-7.7030792 -26.815588 -0.57978243
-13.081766 -45.539612 -0.59071535
-0.55731428 -2.0340164 -0.56510019
-0.57772112 -2.1084948 -0.56636071
-0.599087 -2.1864734 -0.56724292
-0.62037551 -2.2641695 -0.56670964
-0.64186484 -2.3425987 -0.56501883
-0.66404015 -2.4235313 -0.56256652
-0.69600952 -2.5402091 -0.56670558
-0.72136945 -2.6327646 -0.56365806
-0.75437218 -2.7532139 -0.56475019
-0.78921288 -2.8803711 -0.56508213
-0.82592309 -3.0143516 -0.56450272
-0.87470615 -3.1923938 -0.56947935
-0.91442955 -3.3373711 -0.56577218
-0.96691805 -3.5289373 -0.56706607
-1.0255021 -3.7427502 -0.56843799
-1.0862123 -3.9643226 -0.56723624
-1.1558677 -4.2185421 -0.56660771
-1.2380742 -4.5185695 -0.56735539
-1.3307232 -4.856708 -0.56738812
-1.440251 -5.2564492 -0.56825799
-1.5604771 -5.6952357 -0.56612384
-1.71501 -6.2592306 -0.56779468
-1.8979291 -6.9268255 -0.56824851
-2.124012 -7.7519546 -0.56876141
-2.4098482 -8.7951651 -0.56917381
-2.7842827 -10.161729 -0.56974483
-3.2955744 -12.027778 -0.57046288
-4.0405383 -14.746655 -0.57211751
-5.2180967 -19.044361 -0.57455766
-7.361937 -26.868683 -0.57892936
-12.49889 -45.616894 -0.58967966
-0.53051031 -2.0339959 -0.56323957
-0.55065745 -2.1112409 -0.56523681
-0.57147712 -2.1910644 -0.56656808
-0.59197539 -2.2696552 -0.56621796
-0.61507297 -2.3582122 -0.56691766
-0.63478732 -2.4337978 -0.56309527
-0.6635626 -2.5441232 -0.56571573
-0.69181365 -2.6524389 -0.56600618
-0.7204749 -2.7623272 -0.56475961
-0.75412112 -2.8913281 -0.56536978
-0.79088032 -3.032264 -0.56599325
-0.83147168 -3.1878929 -0.56680977
-0.87422025 -3.3517923 -0.56635177
-0.91994733 -3.5271118 -0.56491232
-0.97395158 -3.7341659 -0.56527263
-1.0325106 -3.9586835 -0.56457001
-1.1035302 -4.2309752 -0.56641227
-1.1806967 -4.5268345 -0.56652737
-1.2708349 -4.8724279 -0.56735605
-1.3714316 -5.2581191 -0.56657255
-1.4951556 -5.7324815 -0.56795573
-1.6354133 -6.2702346 -0.56692582
-1.8096907 -6.9384203 -0.56733125
-2.0246887 -7.7627311 -0.5676825
-2.2985225 -8.8126192 -0.56843132
-2.6573277 -10.188292 -0.56935906
-3.1434705 -12.052181 -0.56974393
-3.8554506 -14.781939 -0.57160395
-4.9785633 -19.087994 -0.57398373
-7.0228171 -26.925739 -0.57825428
-11.914166 -45.679348 -0.58854872
-0.50583106 -2.0418584 -0.5636518
-0.52320307 -2.1119831 -0.56367046
-0.53972501 -2.1786759 -0.56160611
-0.56288379 -2.2721598 -0.56507331
-0.58460873 -2.3598557 -0.56554186
-0.60667962 -2.4489477 -0.56483167
-0.63070858 -2.5459442 -0.56435341
-0.65761554 -2.6545577 -0.56469005
-0.68975133 -2.7842784 -0.56747061
-0.71861142 -2.9007764 -0.56544667
-0.75362253 -3.0421038 -0.56605732
-0.79007298 -3.1892409 -0.56527936
-0.82991678 -3.3500762 -0.56429476
-0.87526953 -3.5331488 -0.56411278
-0.92846549 -3.7478819 -0.56557786
-0.98653561 -3.98229 -0.56616384
-1.0513374 -4.2438712 -0.56636518
-1.1250513 -4.5414281 -0.56657964
-1.2079165 -4.8759255 -0.56599104
-1.3052028 -5.2686353 -0.56593359
-1.4205251 -5.7341499 -0.5663476
-1.5563104 -6.2822666 -0.56624061
-1.7250991 -6.9636059 -0.56761318
-1.9286385 -7.7852211 -0.56755
-2.1875539 -8.8303699 -0.56779832
-2.5314207 -10.218436 -0.56926107
-2.9946771 -12.088436 -0.56967402
-3.6720917 -14.822916 -0.57139921
-4.7403903 -19.135254 -0.5736087
-6.6852846 -26.986094 -0.57774138
-11.326859 -45.722466 -0.58726531
-0.48183772 -2.0528259 -0.56500107
-0.50127655 -2.135643 -0.56829703
-0.51599747 -2.1983602 -0.5650019
-0.53317189 -2.2715302 -0.56324369
-0.55177736 -2.3507974 -0.56170249
-0.57434869 -2.4469604 -0.56270188
-0.59785682 -2.5471144 -0.56294072
-0.62689829 -2.6708431 -0.56647176
-0.65303034 -2.7821763 -0.56536281
-0.68208951 -2.9059803 -0.56478345
-0.71439457 -3.043613 -0.56466091
-0.75067782 -3.1981947 -0.56518751
-0.79162318 -3.3726385 -0.56641275
-0.83357382 -3.5513654 -0.56534201
-0.8825627 -3.760078 -0.5657379
-0.93858737 -3.9987659 -0.56682259
-0.9984442 -4.2537808 -0.56600642
-1.0679742 -4.5500073 -0.56596875
-1.1471611 -4.8873758 -0.56563997
-1.2412028 -5.2880321 -0.56633484
-1.3537518 -5.7675366 -0.56795806
-1.4781362 -6.2974648 -0.56592947
-1.6369911 -6.9742517 -0.56679738
-1.8320568 -7.8053112 -0.56732941
-2.0805824 -8.8641319 -0.56828117
-2.4033542 -10.239272 -0.5687325
-2.8465221 -12.127348 -0.56981516
-3.4854519 -14.849451 -0.57072687
-4.503056 -19.18486 -0.57339251
-6.3445306 -27.030294 -0.57697386
-10.741948 -45.765091 -0.58607191
-0.45354179 -2.0449831 -0.56126511
-0.47206077 -2.1284838 -0.56480461
-0.48786873 -2.1997604 -0.56377733
-0.50658351 -2.2841439 -0.56478405
-0.52789146 -2.3802197 -0.56713885
-0.5452584 -2.4585259 -0.56377703
-0.56970972 -2.5687749 -0.56613684
-0.59544045 -2.6847925 -0.5678345
-0.61667597 -2.7805419 -0.56344718
-0.64314431 -2.8998854 -0.56201941
-0.67752481 -3.0549042 -0.56516737
-0.71236902 -3.212014 -0.56603885
-0.75171745 -3.3894329 -0.56763792
-0.7897433 -3.5608885 -0.56526935
-0.83709383 -3.7743881 -0.56629944
-0.88725024 -4.0005393 -0.5654847
-0.94702291 -4.2700491 -0.56657875
-1.0101696 -4.5547729 -0.56497371
-1.0858855 -4.8961692 -0.56506962
-1.1777136 -5.3102155 -0.5671168
-1.2807884 -5.7749705 -0.56709635
-1.4049374 -6.3347483 -0.56768453
-1.5492342 -6.9853706 -0.56611001
-1.7359053 -7.8270559 -0.56731552
-1.9701041 -8.8830395 -0.56789732
-2.2796996 -10.27898 -0.56933796
-2.6953261 -12.153007 -0.5694204
-3.3045301 -14.899858 -0.57105923
-4.2598624 -19.207373 -0.57245654
-6.0044703 -27.073669 -0.57628012
-10.156343 -45.794121 -0.58480018
-0.42985764 -2.0575576 -0.56322306
-0.44563401 -2.1330729 -0.5645256
-0.46196532 -2.2112443 -0.56522197
-0.47956076 -2.2954669 -0.56608289
-0.49902892 -2.3886533 -0.56764328
-0.5144881 -2.4626501 -0.56322944
-0.53623235 -2.566731 -0.56419051
-0.56041741 -2.6824956 -0.56584841
-0.58386123 -2.7947116 -0.564821
-0.61044949 -2.9219792 -0.56480384
-0.63985568 -3.0627348 -0.56511772
-0.6741395 -3.2268379 -0.56714755
-0.70740259 -3.386055 -0.56557274
-0.74593925 -3.5705147 -0.56529862
-0.79053462 -3.7839751 -0.56623656
-0.83782703 -4.010345 -0.56537175
-0.89003074 -4.2602234 -0.56378025
-0.95735526 -4.582479 -0.56690735
-1.0266435 -4.9141345 -0.56564331
-1.1089338 -5.3080254 -0.56538385
-1.2061931 -5.7735672 -0.56545931
-1.3194809 -6.3158307 -0.56449258
-1.4650627 -7.0126734 -0.56681985
-1.6404754 -7.852304 -0.56764048
-1.8591615 -8.8990669 -0.56741756
-2.1491425 -10.287091 -0.56828052
-2.5408592 -12.162084 -0.56833887
-3.1155171 -14.912742 -0.57004172
-4.0194211 -19.23937 -0.57189393
-5.6645031 -27.113726 -0.57560658
-9.5752096 -45.832726 -0.58374542
-0.40433577 -2.0617156 -0.56295764
-0.42111713 -2.147284 -0.56687337
-0.43563819 -2.2213273 -0.56638718
-0.44995931 -2.2943511 -0.56440061
-0.46591699 -2.3757195 -0.56316566
-0.48298472 -2.4627481 -0.56185108
-0.50558418 -2.5779834 -0.56525463
-0.52661854 -2.6852376 -0.56501818
-0.55055004 -2.807265 -0.56594712
-0.57509327 -2.9324112 -0.56541067
-0.5993101 -3.0558934 -0.56245309
-0.63311321 -3.228256 -0.56598568
-0.66554993 -3.3936517 -0.56543189
-0.70182014 -3.578594 -0.56516874
-0.74314982 -3.7893348 -0.56562841
-0.78532839 -4.0044041 -0.56313026
-0.83916175 -4.2789016 -0.56484377
-0.89857173 -4.5818338 -0.56541789
-0.96430367 -4.9170022 -0.56456584
-1.0445217 -5.3260355 -0.56589139
-1.1356558 -5.79073 -0.5657298
-1.2445068 -6.3457637 -0.56575739
-1.377537 -7.024087 -0.56633043
-1.5425874 -7.8656816 -0.56719351
-1.747757 -8.9118452 -0.56681919
-2.0206814 -10.303492 -0.56777102
-2.3921773 -12.197758 -0.56858838
-2.9301476 -14.940878 -0.56969684
-3.7812867 -19.280851 -0.57170159
-5.3241677 -27.148031 -0.57490152
-8.9902058 -45.841228 -0.58240169
-0.37958217 -2.0699499 -0.56388897
-0.39309576 -2.1436424 -0.56459326
-0.40706259 -2.2198069 -0.56468058
-0.41946313 -2.28743 -0.56138682
-0.43831518 -2.3902347 -0.5652861
-0.45529762 -2.4828436 -0.56511575
-0.47404149 -2.5850585 -0.56548512
-0.49261642 -2.6863518 -0.5639354
-0.5147382 -2.806987 -0.56457233
-0.53871304 -2.9377275 -0.56511569
-0.56503314 -3.0812569 -0.56579983
-0.5892157 -3.21313 -0.56202102
-0.62468314 -3.4065423 -0.566257
-0.65879673 -3.5925715 -0.56605405
-0.69610482 -3.7960215 -0.56530607
-0.73973262 -4.0339336 -0.565961
-0.78505021 -4.2810616 -0.56381196
-0.84294349 -4.5967669 -0.56593877
-0.90638626 -4.9427352 -0.56619793
-0.97881478 -5.3377047 -0.56580961
-1.0644342 -5.8046074 -0.56576407
-1.1670659 -6.3642817 -0.56608611
-1.2926263 -7.0489917 -0.56701398
-1.4447098 -7.8783383 -0.5667823
-1.6414796 -8.9513702 -0.56800634
-1.897083 -10.345235 -0.56874275
-2.2418549 -12.225356 -0.56854689
-2.7454557 -14.971609 -0.56953835
-3.5405836 -19.307625 -0.57116139
-4.9840584 -27.17923 -0.57422101
-8.4122362 -45.873882 -0.58145845
-0.35602981 -2.0857525 -0.56695837
-0.36657283 -2.1475172 -0.56438392
-0.37899455 -2.2202883 -0.56357491
-0.3921462 -2.2973354 -0.56259185
-0.40828258 -2.3918681 -0.56444246
-0.42692146 -2.5010614 -0.56802446
-0.44070041 -2.5817838 -0.5635407
-0.4603757 -2.6970487 -0.56494981
-0.48135442 -2.8199496 -0.56594628
-0.50253624 -2.9440403 -0.5650987
-0.523615 -3.0675275 -0.56205398
-0.55203766 -3.2340379 -0.56444806
-0.58155227 -3.406945 -0.56509256
-0.61436296 -3.5991621 -0.56585938
-0.64995402 -3.8076677 -0.56580746
-0.68942589 -4.038908 -0.56542677
-0.7340166 -4.300137 -0.5650928
-0.78837651 -4.618597 -0.56739002
-0.84366727 -4.9425101 -0.56494111
-0.91232532 -5.3447342 -0.56532288
-0.99387634 -5.8224897 -0.56627303
-1.0876542 -6.3718753 -0.56552917
-1.2025161 -7.0447774 -0.56544286
-1.3494807 -7.9057503 -0.56751764
-1.5296235 -8.9610929 -0.56738687
-1.7653495 -10.342061 -0.56733197
-2.0901372 -12.244786 -0.56821227
-2.5577521 -14.984245 -0.56877959
-3.3042936 -19.357756 -0.57139921
-4.6416926 -27.192728 -0.57325697
-7.8298073 -45.869865 -0.58014333
-0.32905465 -2.0817304 -0.56472254
-0.33954111 -2.1480718 -0.56338978
-0.3524428 -2.2296932 -0.5648194
-0.36413777 -2.3036802 -0.56300658
-0.3786158 -2.3952739 -0.56410486
-0.39221385 -2.4813006 -0.56239861
-0.40951604 -2.5907612 -0.56435841
-0.42926085 -2.7156744 -0.56770277
-0.44574803 -2.8199792 -0.56480944
-0.46553305 -2.9451468 -0.56416965
-0.48693281 -3.0805304 -0.56329674
-0.51161677 -3.2366908 -0.56377047
-0.53867394 -3.4078653 -0.5641039
-0.56980616 -3.6048203 -0.56560463
-0.60157692 -3.8058145 -0.56439024
-0.64051247 -4.0521359 -0.5661332
-0.68319643 -4.3221717 -0.5668416
-0.73002672 -4.6184387 -0.56622499
-0.78457767 -4.9635496 -0.56620044
-0.84794146 -5.3644142 -0.56625879
-0.92269701 -5.8373475 -0.56657177
-1.0099167 -6.3891339 -0.565916
-1.1172247 -7.0680075 -0.56616193
-1.2474403 -7.8918028 -0.56537259
-1.4189661 -8.976943 -0.5672428
-1.6400644 -10.375699 -0.56802803
-1.9366218 -12.251839 -0.56739157
-2.3733056 -15.014474 -0.56877625
-3.059375 -19.354822 -0.57015902
-4.304091 -27.229389 -0.57287079
-7.2506018 -45.870186 -0.57897598
-0.30362538 -2.0869358 -0.56507909
-0.31300187 -2.1513841 -0.56320649
-0.32677191 -2.246031 -0.56789726
-0.33714506 -2.3173299 -0.56528652
-0.35256892 -2.4233441 -0.56965148
-0.36262086 -2.492435 -0.563869
-0.37641376 -2.587239 -0.56254041
-0.39214739 -2.6953821 -0.56241018
-0.41300899 -2.8387723 -0.56751341
-0.42943728 -2.9516902 -0.5643689
-0.4506242 -3.0973163 -0.56531018
-0.47191337 -3.2436452 -0.56392843
-0.49763143 -3.4204154 -0.5651257
-0.52431095 -3.6037941 -0.56438941
-0.55437303 -3.8104227 -0.56402004
-0.58797902 -4.0414095 -0.56358182
-0.62845141 -4.319592 -0.56544709
-0.67219979 -4.6202917 -0.56539607
-0.7200079 -4.9488955 -0.56347626
-0.78139985 -5.3708668 -0.56588286
-0.84810269 -5.8293409 -0.56473976
-0.93154979 -6.4029059 -0.56607848
-1.0308483 -7.085423 -0.56649876
-1.1518478 -7.9171004 -0.56612742
-1.3090695 -8.9977465 -0.56749725
-1.5107124 -10.383717 -0.56740707
-1.7861146 -12.276664 -0.56748122
-2.186861 -15.031151 -0.56834638
-2.8172157 -19.363825 -0.56936073
-3.9634948 -27.242649 -0.57208115
-6.6722441 -45.860939 -0.57778001
-0.27673179 -2.0814059 -0.56261784
-0.28766885 -2.1636677 -0.56545341
-0.29653278 -2.2303367 -0.5629645
-0.30852208 -2.3205128 -0.56509477
-0.31985286 -2.4057357 -0.56454509
-0.33147907 -2.493181 -0.5630731
-0.3468124 -2.6085088 -0.56619507
-0.35950115 -2.7039459 -0.56323206
-0.37735358 -2.8382208 -0.56643271
-0.39238894 -2.9513075 -0.56333053
-0.41150135 -3.0950594 -0.56393212
-0.43253127 -3.2532334 -0.56462801
-0.45578188 -3.4281099 -0.56542826
-0.47971064 -3.6080873 -0.56409532
-0.50834471 -3.8234551 -0.56498116
-0.5398283 -4.0602551 -0.56524146
-0.5736317 -4.3145041 -0.56381506
-0.6166032 -4.6377087 -0.56655669
-0.66340381 -4.9897141 -0.56715214
-0.7156769 -5.3828797 -0.56617862
-0.77847058 -5.855175 -0.56627238
-0.85148227 -6.4043241 -0.56523544
-0.94304121 -7.0929742 -0.56613255
-1.0542839 -7.9296732 -0.56605661
-1.1957748 -8.9938793 -0.56628323
-1.3818655 -10.39354 -0.56697249
-1.6334592 -12.285872 -0.5669356
-1.9993258 -15.037695 -0.56762135
-2.5792344 -19.399408 -0.56943142
-3.6237178 -27.255369 -0.57136935
-6.0959864 -45.850246 -0.5766573
-0.25151706 -2.0879567 -0.56351
-0.26106644 -2.1672301 -0.56550276
-0.26859894 -2.2297611 -0.56194311
-0.27898994 -2.3160214 -0.56312305
-0.29169831 -2.4215193 -0.56736434
-0.30051696 -2.4947271 -0.56254518
-0.31523645 -2.6169202 -0.56713653
-0.32757193 -2.7193224 -0.56555325
-0.34114844 -2.8320272 -0.56431675
-0.35749239 -2.9677055 -0.5655787
-0.3748326 -3.1116548 -0.56607324
-0.3929238 -3.2618377 -0.56524014
-0.41385806 -3.4356225 -0.56578523
-0.4354752 -3.6150761 -0.56430811
-0.4610185 -3.8271227 -0.56464273
-0.49082965 -4.0745983 -0.56635523
-0.51937795 -4.3115907 -0.56255728
-0.55775797 -4.6302009 -0.56475902
-0.5996235 -4.9777451 -0.56491095
-0.64847064 -5.3832474 -0.56533581
-0.70604151 -5.8611693 -0.56596965
-0.7733525 -6.4199481 -0.56573236
-0.85251176 -7.0770845 -0.56398499
-0.95627874 -7.9385014 -0.56580466
-1.0844171 -9.0022354 -0.56592697
-1.2529678 -10.401452 -0.56652081
-1.4806732 -12.291737 -0.56632316
-1.8137968 -15.057145 -0.56747073
-2.3368239 -19.399029 -0.56853384
-3.2849834 -27.27013 -0.57078886
-5.5198898 -45.823097 -0.57541871
-0.22521716 -2.085259 -0.56199199
-0.23400635 -2.1666369 -0.56455439
-0.24243116 -2.2446413 -0.56489921
-0.25061581 -2.3204217 -0.5634011
-0.25793618 -2.3882005 -0.55877233
-0.27122578 -2.5112472 -0.56547552
-0.28051963 -2.5972981 -0.56209397
-0.29278603 -2.710871 -0.56300426
-0.30630577 -2.8360486 -0.56432492
-0.32056838 -2.9681046 -0.56486082
-0.33631617 -3.1139114 -0.56568867
-0.35200432 -3.259166 -0.56398445
-0.37007332 -3.4264648 -0.56348509
-0.39092848 -3.61956 -0.564215
-0.41388023 -3.8320677 -0.56457877
-0.43978828 -4.0719471 -0.56519228
-0.46803755 -4.3335037 -0.56462276
-0.50004804 -4.6298852 -0.56392783
-0.53931355 -4.9934402 -0.56589669
-0.58129293 -5.382122 -0.56442434
-0.63298106 -5.8606963 -0.56512964
-0.69479269 -6.4330029 -0.56608707
-0.76761633 -7.1072683 -0.56559539
-0.85961717 -7.9590931 -0.56647611
-0.97431189 -9.0210381 -0.56631303
-1.1248474 -10.414828 -0.56645316
-1.3304864 -12.318815 -0.56677413
-1.6269028 -15.063299 -0.56690586
-2.0957472 -19.404274 -0.56788939
-2.9474947 -27.290504 -0.57041359
-4.9468141 -45.801964 -0.57434607
-0.20014042 -2.093935 -0.56362438
-0.20790444 -2.1751649 -0.56606764
-0.21480682 -2.24738 -0.56488097
-0.22051898 -2.3071423 -0.5594762
-0.23023671 -2.4088125 -0.56289005
-0.24027741 -2.5138614 -0.56535619
-0.24874911 -2.6024952 -0.56251425
-0.26004437 -2.72067 -0.56433254
-0.27042133 -2.8292372 -0.5622654
-0.28328678 -2.9638398 -0.5633437
-0.29669419 -3.1041124 -0.56320322
-0.31236315 -3.2680464 -0.56481373
-0.3285999 -3.4379206 -0.56466186
-0.3472639 -3.6331894 -0.56563115
-0.3663969 -3.8333654 -0.56406355
-0.38913104 -4.0712171 -0.56438416
-0.41416901 -4.3331728 -0.56387347
-0.44328192 -4.6377616 -0.56418067
-0.4767426 -4.9878383 -0.56455481
-0.51495183 -5.3875961 -0.56429166
-0.55944395 -5.8530874 -0.56369001
-0.6143297 -6.42732 -0.56487954
-0.67937106 -7.1078043 -0.5649305
-0.75999033 -7.9512696 -0.56521142
-0.86332107 -9.0323505 -0.56631392
-0.99576157 -10.417987 -0.56591618
-1.1772841 -12.317135 -0.565988
-1.4413108 -15.07947 -0.56680459
-1.8556659 -19.414589 -0.56748056
-2.6073885 -27.279358 -0.56946743
-4.3737254 -45.759357 -0.57309407
-0.17433037 -2.0956504 -0.56346649
-0.17947546 -2.1575003 -0.56085378
-0.18841773 -2.2649965 -0.56868362
-0.19437103 -2.3365622 -0.565988
-0.20059776 -2.4114144 -0.56287915
-0.20985074 -2.522646 -0.56670862
-0.21812585 -2.622122 -0.56613398
-0.22592774 -2.7159097 -0.56272638
-0.23631045 -2.8407218 -0.56392765
-0.24685533 -2.9674833 -0.56341666
-0.25868282 -3.1096632 -0.56359059
-0.27148357 -3.2635431 -0.56341588
-0.28632206 -3.4419184 -0.5646975
-0.30088344 -3.6169631 -0.56248641
-0.32052013 -3.8530185 -0.56633264
-0.33999157 -4.0870876 -0.56596184
-0.36098289 -4.339427 -0.56406707
-0.3869088 -4.6510859 -0.56518006
-0.41458359 -4.9837689 -0.56347466
-0.44893235 -5.3966804 -0.56462222
-0.48885795 -5.8766317 -0.56533581
-0.53543174 -6.436502 -0.56506521
-0.5907433 -7.1014099 -0.56380236
-0.66122109 -7.9486337 -0.56440341
-0.75217026 -9.0419464 -0.56629288
-0.86700237 -10.422359 -0.56553191
-1.0254778 -12.327415 -0.56583822
-1.2551281 -15.088077 -0.56650513
-1.6161749 -19.42827 -0.56725669
-2.2688134 -27.273733 -0.56872457
-3.8040464 -45.728989 -0.57208461
-0.14899373 -2.1039007 -0.56514949
-0.15438528 -2.1800334 -0.56617516
-0.1592059 -2.2481041 -0.56390816
-0.16449369 -2.3227715 -0.56211507
-0.17122604 -2.4178374 -0.56384426
-0.17807658 -2.5145719 -0.5643602
-0.18420018 -2.6010418 -0.56105113
-0.19265518 -2.7204323 -0.56313002
-0.20196611 -2.8519094 -0.56561279
-0.21131267 -2.9838898 -0.56599551
-0.22016057 -3.1088288 -0.56290621
-0.23140755 -3.2676444 -0.56359011
-0.24353877 -3.438946 -0.56367594
-0.25712693 -3.6308208 -0.56410712
-0.27247584 -3.847559 -0.56499499
-0.28872123 -4.0769558 -0.56402457
-0.30821115 -4.3521676 -0.56518775
-0.32951945 -4.6530566 -0.56488442
-0.35419977 -5.0015607 -0.56495106
-0.38234186 -5.3989477 -0.56432492
-0.41606104 -5.8750873 -0.56465238
-0.45585373 -6.4369893 -0.56457317
-0.5043717 -7.122098 -0.56490976
-0.56452161 -7.9714594 -0.56548858
-0.64099556 -9.0513277 -0.56634396
-0.73745435 -10.413397 -0.56451082
-0.87407291 -12.342551 -0.56599683
-1.0676564 -15.076091 -0.56551945
-1.3765719 -19.438206 -0.56700969
-1.9317074 -27.277126 -0.56825709
-3.2350743 -45.681622 -0.57095122
-0.12229161 -2.091511 -0.56137496
-0.1274298 -2.1793876 -0.56555772
-0.13201357 -2.2577822 -0.56588584
-0.13612883 -2.3281641 -0.56297243
-0.1422388 -2.4326608 -0.56685042
-0.14732455 -2.5196404 -0.56504852
-0.15227866 -2.6043692 -0.56132251
-0.16039063 -2.7431052 -0.5673722
-0.16680081 -2.8527365 -0.56532729
-0.17392266 -2.9745388 -0.56377351
-0.18192504 -3.1114008 -0.56292427
-0.19161698 -3.2771585 -0.56478202
-0.20147292 -3.4457214 -0.56433773
-0.21268885 -3.6375434 -0.56470263
-0.22570698 -3.860188 -0.56639916
-0.23763981 -4.064271 -0.56182301
-0.25463769 -4.3549795 -0.56510365
-0.27268842 -4.6636949 -0.5657261
-0.29315072 -5.0136547 -0.56586719
-0.3154653 -5.3952932 -0.56349486
-0.34470114 -5.8953037 -0.56614524
-0.37634376 -6.4364767 -0.56407964
-0.41630343 -7.1198931 -0.56428611
-0.46658245 -7.9797974 -0.56563026
-0.52859014 -9.0402937 -0.56520414
-0.61022109 -10.436399 -0.56530827
-0.72131151 -12.33634 -0.56526256
-0.88245845 -15.09238 -0.56568068
-1.1360795 -19.429974 -0.56631923
-1.5931605 -27.247271 -0.56718409
-2.6672714 -45.617416 -0.56969577
-0.09745308 -2.1120796 -0.56653124
-0.099527024 -2.1570277 -0.55939537
-0.10411954 -2.2565603 -0.56521595
-0.10738643 -2.3273628 -0.56241685
-0.1115329 -2.4172287 -0.56289232
-0.11637034 -2.5220692 -0.56522954
-0.12084188 -2.6189802 -0.56410867
-0.12604058 -2.7316504 -0.56463963
-0.13129681 -2.8455675 -0.56354409
-0.13790524 -2.9887905 -0.56611043
-0.14410999 -3.1232648 -0.56470746
-0.1514245 -3.2817905 -0.5652166
-0.15898024 -3.4455445 -0.56394595
-0.16755408 -3.6313634 -0.56338078
-0.1771443 -3.8392103 -0.56295896
-0.18808945 -4.0764222 -0.56314045
-0.20044695 -4.3442435 -0.56334805
-0.21469977 -4.653142 -0.5640831
-0.23060499 -4.9978523 -0.563721
-0.24894734 -5.3953819 -0.56314188
-0.27208996 -5.8969469 -0.56593895
-0.29785573 -6.4553628 -0.5653711
-0.32821974 -7.1134357 -0.56341189
-0.36717662 -7.9577394 -0.56370407
-0.41675809 -9.0323086 -0.56434178
-0.48173398 -10.440516 -0.56516773
-0.56942683 -12.341064 -0.56511545
-0.69631892 -15.091169 -0.56527168
-0.89588499 -19.416323 -0.56555754
-1.256938 -27.241344 -0.56669623
-2.1016891 -45.549454 -0.56848127
-0.070705839 -2.090333 -0.56042248
-0.073846012 -2.1831684 -0.56589633
-0.076355062 -2.2573454 -0.56513476
-0.078711249 -2.3270032 -0.56205356
-0.08187367 -2.4204965 -0.56337631
-0.085485525 -2.5272765 -0.56611818
-0.088464051 -2.6153331 -0.56304634
-0.092623621 -2.7383058 -0.56573719
-0.09648408 -2.8524356 -0.56462663
-0.10058714 -2.9737377 -0.5629825
-0.10545835 -3.1177492 -0.56343311
-0.11113048 -3.285439 -0.5655669
-0.11710069 -3.4619408 -0.56635112
-0.12297339 -3.6355603 -0.56375468
-0.12996191 -3.8421674 -0.56311566
-0.13880843 -4.103704 -0.56663066
-0.14713797 -4.349957 -0.56381172
-0.15792762 -4.6689401 -0.56572002
-0.16912133 -4.9998684 -0.56367123
-0.18292618 -5.4079924 -0.56418061
-0.19934267 -5.8933263 -0.56531346
-0.21838057 -6.4561586 -0.5651629
-0.24105306 -7.1264434 -0.56416476
-0.26956558 -7.9693818 -0.56425136
-0.3060185 -9.0470686 -0.56498623
-0.35261065 -10.42451 -0.56402385
-0.41723159 -12.334949 -0.56455779
-0.51000625 -15.077722 -0.56449032
-0.65688157 -19.419912 -0.56538409
-0.92054617 -27.21484 -0.56586653
-1.5385523 -45.485447 -0.56740344
-0.045296453 -2.1048796 -0.56413054
-0.046741869 -2.1720469 -0.56282198
-0.048651963 -2.2608068 -0.56580877
-0.050304074 -2.3375788 -0.56441587
-0.052025646 -2.4175785 -0.56250566
-0.054175373 -2.5174742 -0.56373054
-0.056222521 -2.6126029 -0.56226724
-0.05842552 -2.7149742 -0.56072599
-0.06108246 -2.8384395 -0.561665
-0.064016342 -2.9747736 -0.56298703
-0.067236349 -3.1244044 -0.56444377
-0.07053116 -3.2775109 -0.5640102
-0.074404337 -3.4574933 -0.56543112
-0.078332752 -3.6400428 -0.56425774
-0.082665265 -3.8413703 -0.56280732
-0.087532684 -4.0675545 -0.56144816
-0.093608424 -4.3498878 -0.56361097
-0.10032423 -4.6619644 -0.56468266
-0.10764304 -5.0020618 -0.56372666
-0.11636535 -5.4073787 -0.56392473
-0.12692223 -5.8979464 -0.56556416
-0.13856116 -6.4387956 -0.56345117
-0.1532992 -7.1236563 -0.56375229
-0.17174795 -7.9809518 -0.56487828
-0.19425808 -9.0269737 -0.56353956
-0.22467951 -10.440627 -0.56470376
-0.26557392 -12.340947 -0.56464022
-0.32486859 -15.096311 -0.56499404
-0.41751438 -19.401466 -0.56465483
-0.58546722 -27.20606 -0.56549162
-0.97702628 -45.401409 -0.56616247
-0.019347826 -2.0982754 -0.56225425
-0.020076394 -2.1772888 -0.56407368
-0.020810906 -2.2569468 -0.56473595
-0.021541787 -2.336211 -0.56397897
-0.022500603 -2.4401946 -0.56766051
-0.023205984 -2.5166934 -0.5634492
-0.024084993 -2.6120222 -0.56203598
-0.025081251 -2.7200665 -0.56167156
-0.02619685 -2.8410532 -0.56207597
-0.027607037 -2.9939883 -0.5665164
-0.028766736 -3.1197579 -0.56349784
-0.030267995 -3.2825699 -0.56477404
-0.031742506 -3.4424808 -0.56286961
-0.033635069 -3.6477296 -0.56534249
-0.035499524 -3.8499303 -0.56395489
-0.037790924 -4.098433 -0.56560344
-0.040196296 -4.3592958 -0.56472319
-0.043032844 -4.6669197 -0.56517607
-0.046164006 -5.0064955 -0.5641197
-0.049917653 -5.413579 -0.56446469
-0.054277889 -5.8864474 -0.56435484
-0.059379537 -6.4397221 -0.56342578
-0.065768786 -7.1326375 -0.56435633
-0.0735128 -7.972477 -0.56417185
-0.083295934 -9.0334597 -0.56383789
-0.096219823 -10.435059 -0.56429589
-0.1139289 -12.355611 -0.56520426
-0.13900888 -15.075539 -0.56410998
-0.1788103 -19.392012 -0.56427306
-0.25054598 -27.171759 -0.56467187
-0.41791329 -45.322777 -0.5650751
0.0064181471 -2.0869992 -0.55921155
0.0066876169 -2.1746233 -0.56336182
0.0069021545 -2.2443845 -0.56157142
0.0071572117 -2.327322 -0.56181192
0.0074435538 -2.4204323 -0.56304199
0.0077586211 -2.5228832 -0.56481373
0.0080249347 -2.6094809 -0.56146795
0.0083821453 -2.7256355 -0.56280029
0.0087542096 -2.8466203 -0.56315613
0.0091779307 -2.9844024 -0.56468117
0.0096081244 -3.1242893 -0.56429499
0.010081959 -3.2783666 -0.56402951
0.010589476 -3.4433968 -0.56299812
0.011191661 -3.63921 -0.56400073
0.011802245 -3.837755 -0.56215012
0.012523476 -4.0722785 -0.5619728
0.013436177 -4.3690634 -0.56596714
0.014298755 -4.649549 -0.56305116
0.015385511 -5.0029311 -0.5636968
0.016682321 -5.4246168 -0.5655942
0.018088775 -5.8819556 -0.56390291
0.019813674 -6.4428439 -0.56367761
0.021913214 -7.1255546 -0.56377465
0.024506649 -7.9688663 -0.56389499
0.027737962 -9.019598 -0.56295139
0.032033499 -10.416385 -0.56326479
0.037937116 -12.336073 -0.56428915
0.046368137 -15.077601 -0.56416583
0.059627376 -19.38913 -0.56416792
0.083432682 -27.129938 -0.56378144
0.13908075 -45.225109 -0.5638361
0.032114465 -2.0891056 -0.55983937
0.03356795 -2.1836574 -0.56576639
0.034876481 -2.2687798 -0.56773978
0.036015771 -2.3428926 -0.56563479
0.037431117 -2.4349635 -0.56648648
0.039037254 -2.5394459 -0.56858617
0.040125232 -2.6102209 -0.56169087
0.041964274 -2.7298539 -0.56373525
0.043854341 -2.8528063 -0.56444389
0.045805786 -2.9797513 -0.56386513
0.047954492 -3.1195288 -0.56349903
0.050436959 -3.2810178 -0.56454968
0.053147968 -3.4573739 -0.56534749
0.055868488 -3.6343489 -0.56331122
0.059090257 -3.843931 -0.56311864
0.062876754 -4.0902495 -0.56451672
0.066901363 -4.3520579 -0.56382823
0.071606226 -4.6581182 -0.56415284
0.07709109 -5.0149183 -0.56511152
0.082984939 -5.398324 -0.56291664
0.090446688 -5.8837247 -0.56413651
0.098875046 -6.4320054 -0.5627932
0.10959958 -7.1296558 -0.56416309
0.12240767 -7.9628458 -0.56353289
0.13877249 -9.0274086 -0.56350279
0.15997449 -10.406637 -0.56280154
0.18936153 -12.318318 -0.56354094
0.23152825 -15.061342 -0.5636214
0.29759327 -19.358995 -0.56335491
0.41659257 -27.100121 -0.56322569
0.69380438 -45.133263 -0.56275481
0.058052599 -2.0977266 -0.56229848
0.060040046 -2.1695428 -0.56225818
0.06227465 -2.2502902 -0.56326193
0.064590149 -2.3339605 -0.56362748
0.067364968 -2.4342284 -0.56646538
0.069596574 -2.5148673 -0.563232
0.072227694 -2.6099427 -0.56177968
0.075401813 -2.7246394 -0.56280732
0.078755245 -2.8458154 -0.56320977
0.082924403 -2.9964676 -0.56717849
0.086506359 -3.1259012 -0.56479961
0.090786487 -3.2805634 -0.56462091
0.09527678 -3.4428198 -0.56311667
0.10057107 -3.6341288 -0.5634262
0.1065842 -3.8514125 -0.56436402
0.11283349 -4.0772305 -0.56286883
0.12005712 -4.3382554 -0.56218886
0.1288105 -4.6545582 -0.56387091
0.13810597 -4.9904499 -0.5625031
0.14948404 -5.4015956 -0.56340683
0.1624741 -5.8709898 -0.56306446
0.1783628 -6.445127 -0.56409061
0.19732675 -7.1303887 -0.56437039
0.22053754 -7.9691086 -0.56412542
0.24961272 -9.0197382 -0.56317306
0.28865382 -10.430486 -0.56424057
0.3406378 -12.308923 -0.5632602
0.41584319 -15.026464 -0.56246507
0.53496444 -19.330904 -0.56268632
0.74920076 -27.072319 -0.56279683
1.2462935 -45.034733 -0.56167489
0.08367411 -2.0926831 -0.56117994
0.086941734 -2.1744061 -0.56375295
0.090301342 -2.2584295 -0.56553447
0.093195677 -2.3308165 -0.56310242
0.096462309 -2.4125149 -0.56164598
0.10135923 -2.5349865 -0.56797415
0.10463621 -2.6169436 -0.56352091
0.10897265 -2.7253976 -0.56319809
0.11350321 -2.8387065 -0.56203657
0.1188849 -2.9733021 -0.5630278
0.12485909 -3.122716 -0.56445885
0.130363 -3.2603686 -0.5613786
0.13748373 -3.4384573 -0.56263709
0.1453059 -3.634089 -0.56365448
0.15384774 -3.8477199 -0.56405747
0.16379294 -4.0964489 -0.56575727
0.17385001 -4.3479753 -0.56368279
0.18543682 -4.6377602 -0.56206965
0.19999914 -5.0019627 -0.56403536
0.21613464 -5.4055104 -0.56404972
0.23467529 -5.8692107 -0.56312799
0.25719327 -6.4323831 -0.56320947
0.28447497 -7.114697 -0.56336272
0.31774735 -7.9468365 -0.56278282
0.3607364 -9.0219898 -0.56354797
0.41593862 -10.402592 -0.56296581
0.49186593 -12.301529 -0.56315601
0.60125011 -15.037219 -0.56310177
0.77208072 -19.309679 -0.56230241
1.0803386 -27.019186 -0.56192595
1.7964631 -44.929401 -0.56059432
0.10997399 -2.1024992 -0.56413221
0.11383325 -2.176281 -0.56455934
0.11732259 -2.2429907 -0.56198722
0.1215882 -2.3245413 -0.56190509
0.12605898 -2.4100144 -0.56138229
0.13094102 -2.5033498 -0.56120414
0.13745877 -2.6279571 -0.56621373
0.141883 -2.7125401 -0.56085932
0.14819238 -2.833164 -0.56125754
0.15588123 -2.9801605 -0.56464678
0.16367039 -3.1290748 -0.56592929
0.17085628 -3.2664557 -0.56274593
0.17997159 -3.4407237 -0.56332743
0.18990275 -3.630589 -0.56343114
0.20082022 -3.8393109 -0.56314415
0.21285082 -4.0693135 -0.56232864
0.2272954 -4.3454676 -0.56367743
0.24327725 -4.651011 -0.56399548
0.26121294 -4.9939079 -0.56344664
0.2826871 -5.4044542 -0.56425959
0.30625582 -5.8550448 -0.56208766
0.33579522 -6.4197831 -0.56242526
0.37133959 -7.0993257 -0.56246459
0.41609272 -7.9549227 -0.56367517
0.47187841 -9.0214424 -0.56383359
0.54360068 -10.392638 -0.56274629
0.64243644 -12.282195 -0.56259006
0.78524727 -15.012474 -0.56249422
1.0080178 -19.271435 -0.56150717
1.4101621 -26.95969 -0.56100678
2.3438363 -44.809811 -0.55941951
0.13555057 -2.0968659 -0.56302541
0.13973157 -2.1615429 -0.56113935
0.14579637 -2.2553608 -0.56549299
0.15131867 -2.3407867 -0.566239
0.15581161 -2.4102888 -0.56185007
0.16175932 -2.5022955 -0.56137127
0.16971026 -2.6252909 -0.56604606
0.17484342 -2.7046969 -0.55963981
0.18392006 -2.8451056 -0.56402862
0.19214167 -2.9722879 -0.56356019
0.20093717 -3.1083477 -0.56258488
0.21152881 -3.2721925 -0.56413972
0.22171886 -3.4298251 -0.56194699
0.23480842 -3.6323106 -0.56410378
0.24752843 -3.8290796 -0.56204742
0.26398006 -4.0835743 -0.56470513
0.27973339 -4.3272662 -0.56172019
0.29960746 -4.6347032 -0.56242216
0.32284516 -4.994173 -0.56388181
0.34863767 -5.3931637 -0.5634858
0.37930757 -5.8676043 -0.56369853
0.41591987 -6.4339695 -0.56407344
0.45812589 -7.0868645 -0.56188118
0.51354998 -7.9442339 -0.56332266
0.58191544 -9.0017958 -0.56301039
0.67132521 -10.384898 -0.56273168
0.7933405 -12.272384 -0.56254494
0.96757233 -14.96762 -0.56121695
1.2447592 -19.255493 -0.56144625
1.7406697 -26.926859 -0.56072664
2.8882298 -44.678753 -0.5581845
0.16020697 -2.0805547 -0.5591324
0.16723913 -2.1718791 -0.56431383
0.1739136 -2.2585583 -0.56678802
0.17886972 -2.3229218 -0.56240696
0.18544571 -2.4083219 -0.56188059
0.19378024 -2.5165596 -0.56506312
0.20061858 -2.6053669 -0.56223959
0.21029055 -2.7309735 -0.5655691
0.21887128 -2.8424087 -0.56398487
0.22871909 -2.9702985 -0.56367368
0.23996563 -3.1163538 -0.56452531
0.25098601 -3.2594717 -0.56243616
0.2647427 -3.4381256 -0.56379765
0.27869761 -3.6193533 -0.56258118
0.29609683 -3.8453109 -0.56492168
0.31294286 -4.064085 -0.56249964
0.33324367 -4.3277249 -0.56226909
0.35571945 -4.6196098 -0.56107903
0.38441885 -4.9923196 -0.56416363
0.41587991 -5.4008942 -0.56478506
0.45044252 -5.8497477 -0.56247258
0.49402151 -6.4156933 -0.56296122
0.54600102 -7.0907335 -0.56267774
0.61073703 -7.9314389 -0.56290537
0.69052047 -8.9675598 -0.56135768
0.79808378 -10.364449 -0.56211281
0.94249427 -12.239861 -0.56154287
1.1527432 -14.970293 -0.5618062
1.4804438 -19.22603 -0.56107557
2.0686662 -26.86508 -0.55992752
3.4312754 -44.560833 -0.55719632
0.18788487 -2.1020167 -0.56547821
0.19357935 -2.1657252 -0.56329077
0.20018631 -2.2396426 -0.56261635
0.20706691 -2.3166213 -0.56145561
0.21444044 -2.3991148 -0.56030536
0.22454192 -2.5121281 -0.56464535
0.23272309 -2.6036572 -0.56244564
0.24360117 -2.725359 -0.56498396
0.25275797 -2.8278031 -0.56166112
0.2647 -2.9614081 -0.56256169
0.27825055 -3.113009 -0.56449652
0.29042178 -3.2491782 -0.56123376
0.30719772 -3.4368637 -0.56416756
0.32270721 -3.6103806 -0.56176084
0.34220034 -3.8284659 -0.56302255
0.36370084 -4.0690088 -0.56375754
0.38633725 -4.3222604 -0.56213385
0.41547567 -4.6482549 -0.5651359
0.44494992 -4.9780068 -0.56312191
0.48112017 -5.3826718 -0.56345558
0.52315909 -5.8529944 -0.56336081
0.57408905 -6.4227881 -0.56416053
0.6324448 -7.0756598 -0.56205618
0.70693153 -7.9090018 -0.56188744
0.80197841 -8.9723673 -0.56223345
0.92526132 -10.35163 -0.56199217
1.0932707 -12.231283 -0.56172371
1.3356781 -14.943287 -0.56136662
1.7146903 -19.183598 -0.56041014
2.3947489 -26.79195 -0.5589748
3.9714546 -44.431805 -0.55615151
0.21399517 -2.1022892 -0.56621665
0.21884225 -2.1499069 -0.55983418
0.22927617 -2.2524097 -0.56648898
0.2362888 -2.3213017 -0.56325155
0.24486972 -2.4056008 -0.56248087
0.25516221 -2.5067141 -0.56409109
0.26405391 -2.5940664 -0.56103283
0.27515849 -2.7031577 -0.56104052
0.28799909 -2.829304 -0.56262004
0.30213752 -2.9681997 -0.56451494
0.31544799 -3.0989621 -0.56261015
0.3312993 -3.2546854 -0.56284612
0.34970716 -3.435524 -0.56461084
0.36823335 -3.6175253 -0.56353444
0.38873652 -3.8189485 -0.5622834
0.41348654 -4.0620928 -0.56346118
0.44071981 -4.3296328 -0.56375486
0.4697035 -4.6143684 -0.56167573
0.50643563 -4.9752254 -0.56346911
0.54492038 -5.3532996 -0.56103987
0.59542233 -5.8494306 -0.56367981
0.65073186 -6.3927917 -0.56218606
0.71977669 -7.0710883 -0.56235361
0.80387902 -7.8973098 -0.56171656
0.91039157 -8.9436893 -0.56109548
1.051541 -10.330341 -0.5614959
1.2429512 -12.210755 -0.56144047
1.5184674 -14.917428 -0.56105423
1.9502646 -19.159405 -0.56036168
2.7193487 -26.71489 -0.5580225
4.5076065 -44.282742 -0.55493748
0.23734502 -2.0777645 -0.56035507
0.24604788 -2.1539512 -0.56163263
0.2555168 -2.2368436 -0.56332165
0.26567471 -2.325768 -0.56508529
0.27523908 -2.4094965 -0.5641405
0.28556105 -2.4998569 -0.5632956
0.29612643 -2.5923486 -0.56140637
0.30968842 -2.7110727 -0.56343108
0.32364053 -2.8332124 -0.56414598
0.33900416 -2.9677083 -0.56517154
0.35372159 -3.0965478 -0.5629189
0.37192884 -3.2559373 -0.56381094
0.39111352 -3.4238839 -0.56344563
0.41145951 -3.6019967 -0.5618611
0.43664309 -3.8224587 -0.56354815
0.46455622 -4.0668159 -0.56486595
0.49262825 -4.3125634 -0.56227857
0.52695096 -4.6130309 -0.56225914
0.56680399 -4.9619122 -0.5627082
0.61170852 -5.3550158 -0.56196558
0.6641891 -5.8144407 -0.56105268
0.72907895 -6.3824987 -0.56202686
0.80607104 -7.0565033 -0.56193942
0.90086544 -7.8863516 -0.56168258
1.0219333 -8.9462032 -0.56199902
1.1783676 -10.31566 -0.56144309
1.392891 -12.193639 -0.56139851
1.69784 -14.863222 -0.55975842
2.1819041 -19.100813 -0.55939037
3.0462968 -26.667875 -0.55778074
5.0428653 -44.146225 -0.55396193
0.26490986 -2.0907543 -0.56469405
0.27281097 -2.1531124 -0.56224614
0.28339466 -2.2366424 -0.56410593
0.29324314 -2.3143697 -0.56314933
0.30440542 -2.4024661 -0.56332821
0.31653222 -2.4981747 -0.56375098
0.33027261 -2.6066182 -0.56533343
0.34314898 -2.7082429 -0.56367725
0.35704926 -2.8179483 -0.56193835
0.37343332 -2.9472566 -0.5621087
0.39192522 -3.0932007 -0.56314397
0.41108188 -3.2443912 -0.5626443
0.43301028 -3.4174573 -0.56322169
0.45583302 -3.5975816 -0.56200427
0.48325041 -3.8139687 -0.5631299
0.51256251 -4.0453095 -0.56271172
0.54382986 -4.2920814 -0.56043756
0.58277404 -4.5994411 -0.56143373
0.62875921 -4.9623713 -0.5635944
0.67703789 -5.3434019 -0.56157804
0.73717445 -5.8180194 -0.56223017
0.80819243 -6.3785162 -0.5625087
0.89261609 -7.0448151 -0.56184024
0.99847001 -7.8802481 -0.56207985
1.1291097 -8.9112988 -0.56063622
1.3050994 -10.300266 -0.5614363
1.5395721 -12.150802 -0.56025553
1.8808802 -14.844515 -0.55988258
2.41571 -19.065563 -0.55918574
3.3701978 -26.59869 -0.55715835
5.5713339 -43.970768 -0.55257815
0.2909818 -2.0901046 -0.56544226
0.29962423 -2.1521826 -0.56292289
0.31121895 -2.2354667 -0.5647319
0.32055935 -2.3025584 -0.56119204
0.3340458 -2.3994308 -0.563537
0.34659126 -2.4895439 -0.5627225
0.36226168 -2.6021037 -0.5652777
0.37704846 -2.7083161 -0.56461483
0.39029872 -2.8034921 -0.55997026
0.40931129 -2.940058 -0.56165326
0.4312757 -3.097827 -0.56490904
0.4533245 -3.2562022 -0.56561655
0.4752835 -3.4139326 -0.56356138
0.50046635 -3.5948193 -0.56249154
0.53070855 -3.812047 -0.56376714
0.56365764 -4.0487185 -0.56410736
0.59890848 -4.3019233 -0.56264174
0.63987321 -4.5961704 -0.56195241
0.68699223 -4.9346232 -0.56135994
0.74387699 -5.3432236 -0.56247807
0.80882013 -5.8097057 -0.56234539
0.88600457 -6.3641167 -0.56215715
0.97933716 -7.0345192 -0.56193703
1.0948474 -7.8642225 -0.56185454
1.2394136 -8.9026327 -0.56100738
1.4313239 -10.281113 -0.56130916
1.6883833 -12.127555 -0.56009853
2.0622225 -14.812818 -0.55960119
2.6483374 -19.022846 -0.55884576
3.6930203 -26.526739 -0.55656034
6.1029234 -43.836926 -0.55179751
0.3169772 -2.0884669 -0.56601083
0.32809025 -2.1616874 -0.56642133
0.3359094 -2.2132053 -0.56010926
0.34974676 -2.3043756 -0.56264061
0.36425024 -2.3999348 -0.56466466
0.37556615 -2.4744916 -0.56032163
0.39356053 -2.5930512 -0.56431979
0.40819481 -2.6894722 -0.56169027
0.42685592 -2.8124244 -0.56276029
0.44438806 -2.9279385 -0.56033951
0.46823949 -3.0850883 -0.56359339
0.4876081 -3.2127023 -0.55905962
0.51406062 -3.3869896 -0.56011486
0.54636389 -3.5998266 -0.56428361
0.57591343 -3.7945192 -0.56217974
0.61011046 -4.0198331 -0.5610857
0.64983732 -4.2815814 -0.56098396
0.69568098 -4.583631 -0.56142277
0.74935156 -4.9372506 -0.56266451
0.80818152 -5.3248634 -0.56154901
0.8799566 -5.7977676 -0.56219465
0.96309435 -6.3455372 -0.56151956
1.0644958 -7.0136404 -0.56127238
1.1903309 -7.8427296 -0.56132227
1.3481883 -8.8828049 -0.5607602
1.5570647 -10.259028 -0.56110632
1.8379185 -12.109489 -0.5602656
2.2426596 -14.776205 -0.55921757
2.8791475 -18.969831 -0.55828613
4.014946 -26.453266 -0.55601257
6.6264119 -43.65942 -0.55054718
0.33995625 -2.0681331 -0.56159055
0.35213867 -2.1422451 -0.562419
0.36583018 -2.225538 -0.56432611
0.37862313 -2.303364 -0.56348777
0.39342856 -2.3934336 -0.56423062
0.40870857 -2.4863896 -0.56411123
0.42372906 -2.5777674 -0.56208503
0.44351256 -2.6981208 -0.56459278
0.46103218 -2.8047018 -0.56230688
0.48192781 -2.9318209 -0.56217414
0.50406766 -3.0665092 -0.56128919
0.53183538 -3.235435 -0.56411082
0.55843478 -3.3972533 -0.56290519
0.58860648 -3.5808034 -0.56239372
0.62093431 -3.7774706 -0.56074268
0.66199762 -4.0272803 -0.56321877
0.70179504 -4.2693892 -0.56047481
0.75476289 -4.5916204 -0.56349552
0.80910856 -4.9222341 -0.56204456
0.87410724 -5.3176551 -0.56187987
0.95018232 -5.7804599 -0.56160688
1.0410213 -6.3330822 -0.56150776
1.1503725 -6.998322 -0.56113613
1.2873359 -7.831543 -0.56161213
1.4587784 -8.8745174 -0.56132704
1.6829783 -10.238444 -0.56106997
1.9847037 -12.073999 -0.55971044
2.4207201 -14.726516 -0.55842137
3.108192 -18.908772 -0.55757177
4.3339553 -26.365734 -0.55525094
7.1498661 -43.496403 -0.54955864
0.36722228 -2.0743198 -0.56445396
0.3773948 -2.1317811 -0.56084776
0.39160153 -2.2120304 -0.56207955
0.40564629 -2.2913647 -0.56173003
0.42119551 -2.3791971 -0.56205297
0.44027793 -2.4869876 -0.56543243
0.45622671 -2.5770769 -0.56311518
0.47391689 -2.6770031 -0.56135082
0.49623793 -2.8030875 -0.563164
0.51964939 -2.9353311 -0.56402981
0.54369658 -3.071166 -0.56332266
0.56872004 -3.2125154 -0.56129158
0.59871817 -3.3819652 -0.56154943
0.63177651 -3.568701 -0.5616706
0.66823488 -3.7746427 -0.56150019
0.71278232 -4.0262766 -0.5642615
0.75700462 -4.2760744 -0.56253189
0.80918336 -4.5708146 -0.5621208
0.87032741 -4.9161978 -0.56253481
0.93987775 -5.3090653 -0.5621509
1.0238554 -5.7834282 -0.56307584
1.1198025 -6.3254018 -0.56200516
1.2368412 -6.986516 -0.5613665
1.3813206 -7.8026328 -0.5607146
1.5656798 -8.844018 -0.56057322
1.8055943 -10.199218 -0.56009471
2.1333165 -12.050414 -0.55979085
2.6020515 -14.698147 -0.55851662
3.3366003 -18.847376 -0.55692911
4.6518717 -26.276918 -0.55454326
7.6721959 -43.337753 -0.54870462
0.38883847 -2.0492995 -0.55890441
0.40333417 -2.1256964 -0.56050938
0.42021689 -2.2146735 -0.56402153
0.4344075 -2.2894623 -0.5625307
0.45197454 -2.3820462 -0.56399632
0.46858457 -2.4695861 -0.56274354
0.48730296 -2.568238 -0.56245059
0.50820279 -2.6783864 -0.56290877
0.53284723 -2.8082702 -0.56547892
0.55387491 -2.9190929 -0.56217575
0.58045751 -3.0591915 -0.56239295
0.61032116 -3.2165821 -0.56327075
0.63782692 -3.361546 -0.55941898
0.67756563 -3.5709815 -0.56329823
0.71560782 -3.7714753 -0.5622955
0.76014662 -4.0062089 -0.56271648
0.81029022 -4.2704811 -0.56306428
0.86676425 -4.5681171 -0.56305718
0.93070734 -4.9051166 -0.5625338
1.0044775 -5.2939086 -0.56181139
1.0911814 -5.750865 -0.56116945
1.1979988 -6.3138256 -0.56224293
1.3249664 -6.9829841 -0.56234932
1.4767741 -7.7830582 -0.56057054
1.6733247 -8.8189402 -0.56024551
1.9279463 -10.160875 -0.55924875
2.2805808 -12.019368 -0.559609
2.7792206 -14.647356 -0.55784309
3.5686157 -18.807713 -0.55701166
4.970633 -26.196779 -0.55410004
8.187377 -43.150021 -0.54756099
0.41757894 -2.0620053 -0.56372738
0.43099654 -2.1282613 -0.56254059
0.44606161 -2.2026527 -0.56231451
0.4643071 -2.2927489 -0.56469834
0.47914779 -2.3660321 -0.56155723
0.49693075 -2.4538445 -0.56050652
0.51632959 -2.5496361 -0.55972487
0.54089046 -2.6709175 -0.56269431
0.563972 -2.7848942 -0.5621258
0.59181732 -2.9223943 -0.56417042
0.62378556 -3.0802536 -0.56763214
0.64806163 -3.200129 -0.5617426
0.68355548 -3.3753974 -0.56308031
0.7211116 -3.5608497 -0.56305623
0.7628668 -3.7670372 -0.56298983
0.80870634 -3.9933927 -0.56227058
0.86371672 -4.2650342 -0.56370378
0.92020953 -4.5439954 -0.5614363
0.99075252 -4.8923368 -0.56242281
1.0705966 -5.2866068 -0.5623911
