# .PCD v0.7 - Point Cloud Data file format
VERSION 0.7
FIELDS x y z
SIZE 4 4 4
TYPE F F F
COUNT 1 1 1
WIDTH 1456
HEIGHT 1
VIEWPOINT 0 0 0 1 0 0 0
POINTS 1456
DATA ascii
1.1213225 -6.3339877 -0.56276798
1.2372925 -6.9890647 -0.5615713
1.3841479 -7.8186035 -0.56186229
1.5678458 -8.8562536 -0.56134874
1.8060794 -10.201958 -0.56024522
2.1330619 -12.048977 -0.55972403
2.6023676 -14.699932 -0.55858451
3.3389387 -18.860584 -0.55731946
4.6550961 -26.295132 -0.55492759
7.675931 -43.358849 -0.54897171
0.39293897 -2.0709105 -0.5647983
0.40400329 -2.1292229 -0.56143922
0.41618231 -2.1934099 -0.55860627
0.43364963 -2.2854683 -0.56154937
0.45034069 -2.3734353 -0.56195754
0.47086036 -2.4815803 -0.56547666
0.48911524 -2.5777893 -0.56454235
0.50878608 -2.6814606 -0.56355488
0.52794945 -2.7824576 -0.56028122
0.55382723 -2.9188414 -0.56212735
0.58073652 -3.060662 -0.56266332
0.61006939 -3.215255 -0.56303841
0.64078546 -3.3771384 -0.5620138
0.6762653 -3.5641282 -0.56221718
0.71551603 -3.7709918 -0.56222343
0.76118284 -4.0116701 -0.5634836
0.80697829 -4.253026 -0.56076282
0.86472458 -4.5573673 -0.56173217
0.93025863 -4.9027519 -0.56226265
1.0048224 -5.2957263 -0.56200433
1.0924838 -5.7577286 -0.56183922
1.1963838 -6.3053141 -0.56148505
1.3240471 -6.9781394 -0.56195921
1.4789219 -7.7943773 -0.56138575
1.6749394 -8.8274508 -0.56078613
1.9310001 -10.17697 -0.56013459
2.2775722 -12.003512 -0.55887079
2.7837248 -14.671094 -0.55874711
3.5670469 -18.799444 -0.55676681
4.9678941 -26.182346 -0.55379474
8.18857 -43.156303 -0.54764074
0.41733652 -2.0608082 -0.56340009
0.42796654 -2.1132991 -0.55858582
0.44960004 -2.2201254 -0.56677514
0.46375871 -2.290041 -0.56403136
0.48044363 -2.372431 -0.56307596
0.49723625 -2.455353 -0.5608511
0.5171625 -2.5537488 -0.5606277
0.53974396 -2.665256 -0.56150162
0.56322747 -2.7812178 -0.56138372
0.58802682 -2.903677 -0.56055701
0.61691725 -3.0463381 -0.56138217
0.65193331 -3.2192471 -0.56509858
0.68316615 -3.3734751 -0.56275964
0.72273046 -3.5688436 -0.56432021
0.76221782 -3.7638321 -0.56251085
0.80781031 -3.9889681 -0.56164759
0.86080915 -4.2506762 -0.56180614
0.92078102 -4.5468178 -0.56178498
0.98900813 -4.8837233 -0.5614326
1.0684198 -5.2758579 -0.56124765
1.1628045 -5.7419295 -0.56165034
1.2772156 -6.3068919 -0.56298155
1.4077213 -6.9513292 -0.56115168
1.570943 -7.7573175 -0.56006551
1.7832226 -8.8055544 -0.56074578
2.0550296 -10.147738 -0.55987412
2.4272845 -11.985933 -0.55939966
2.963522 -14.633874 -0.55867523
3.7936306 -18.73295 -0.55613703
5.2854171 -26.099396 -0.55337304
8.6989555 -42.955452 -0.54640806
0.44122016 -2.0489104 -0.56158823
0.45912117 -2.1320379 -0.56498837
0.47580189 -2.2094986 -0.56551307
0.49083239 -2.2792964 -0.56282902
0.51136762 -2.3746564 -0.56505388
0.52712369 -2.4478238 -0.56056947
0.55221355 -2.5643344 -0.5643996
0.57105082 -2.6518097 -0.5601058
0.59749484 -2.7746086 -0.56149018
0.62366545 -2.8961382 -0.56053978
0.65583503 -3.0455253 -0.56267601
0.68764329 -3.1932344 -0.56197417
0.72518682 -3.3675766 -0.56322062
0.76323694 -3.5442715 -0.5618763
0.80836171 -3.753819 -0.56245738
0.85677022 -3.9786153 -0.56163085
0.91261667 -4.2379518 -0.5615651
0.97767949 -4.5400863 -0.56239617
1.0506113 -4.8787622 -0.56230491
1.1354799 -5.2728696 -0.56237257
1.2331903 -5.7266111 -0.56159276
1.3516649 -6.2767763 -0.56173444
1.4951395 -6.9430342 -0.56192374
1.6666203 -7.7393456 -0.56020522
1.8896563 -8.7750664 -0.56024158
2.179405 -10.120584 -0.55981219
2.5723567 -11.945348 -0.55893952
3.1362934 -14.564121 -0.55744243
4.0218225 -18.676285 -0.55588084
5.5989852 -26.000214 -0.55268812
9.2100954 -42.76926 -0.545439
0.46799082 -2.050391 -0.56352872
0.47956291 -2.1010914 -0.55830806
0.50046867 -2.1926851 -0.56274229
0.517021 -2.2652051 -0.56087691
0.53810829 -2.3575943 -0.56252581
0.55658078 -2.4385269 -0.55996537
0.58011514 -2.5416372 -0.56093168
0.60474837 -2.6495616 -0.56115925
0.63552696 -2.784411 -0.56501263
0.66110921 -2.8964934 -0.56213945
0.69743598 -3.0556507 -0.56608838
0.72985983 -3.1977081 -0.56429821
0.76757282 -3.3629384 -0.56398088
0.80586517 -3.5307074 -0.5612545
0.85377216 -3.7406008 -0.56200737
0.90645695 -3.9714267 -0.56214702
0.96718621 -4.2374973 -0.56303829
1.029514 -4.5105715 -0.56026584
1.1083759 -4.8560867 -0.56121987
1.1971754 -5.2451406 -0.56094277
1.3030066 -5.7088151 -0.56137633
1.4293517 -6.2623663 -0.5619753
1.5752372 -6.9015288 -0.56008989
1.7606506 -7.7138743 -0.55988628
1.9954773 -8.7427111 -0.55970013
2.3010671 -10.081581 -0.55917764
2.7185192 -11.910548 -0.55883312
3.3125889 -14.513324 -0.55701512
4.2472482 -18.608313 -0.55537021
5.9084153 -25.886324 -0.55176979
9.7170534 -42.572971 -0.54441833
0.49395704 -2.0477607 -0.56443256
0.50943798 -2.111939 -0.56281251
0.52819717 -2.1897075 -0.56360239
0.54437822 -2.256788 -0.56040788
0.56548154 -2.3442743 -0.56096435
0.58745623 -2.4353733 -0.56085759
0.61515325 -2.5501947 -0.56444705
0.63818532 -2.6456771 -0.56195605
0.66891134 -2.7730556 -0.56433481
0.69717103 -2.8902099 -0.56254119
0.73260093 -3.0370889 -0.5642758
0.76336122 -3.1646094 -0.56007147
0.80796653 -3.3495262 -0.56335515
0.85173029 -3.5309546 -0.5629161
0.90107608 -3.7355235 -0.56286669
0.9551686 -3.9597709 -0.56211716
1.0211122 -4.2331481 -0.56408608
1.0870502 -4.5065026 -0.56137836
1.1679953 -4.8420711 -0.56121749
1.2622267 -5.2327189 -0.56123179
1.37125 -5.6846886 -0.56061959
1.5033407 -6.2322869 -0.56089252
1.6592556 -6.8786516 -0.55984676
1.8575557 -7.7007298 -0.56054771
2.103651 -8.7209482 -0.55992055
2.4237895 -10.048122 -0.55893272
2.8561678 -11.840601 -0.55715692
3.4877329 -14.458833 -0.55652767
4.4690447 -18.526983 -0.55454111
6.2210035 -25.789948 -0.5513044
10.215203 -42.348404 -0.54311186
0.51497352 -2.0253115 -0.55994785
0.53501123 -2.1041167 -0.56243861
0.55269456 -2.1736624 -0.5611794
0.5746057 -2.2598355 -0.56287664
0.5956549 -2.3426189 -0.56227839
0.61926728 -2.4354827 -0.56259394
0.64190876 -2.5245283 -0.56047082
0.67278612 -2.6459641 -0.56373161
0.70113462 -2.7574544 -0.56287181
0.73568541 -2.8933372 -0.56486791
0.76714361 -3.0170574 -0.5622642
0.80711204 -3.174247 -0.56349099
0.84792626 -3.3347633 -0.56258327
0.89174885 -3.5071106 -0.56082052
0.94867939 -3.7310095 -0.56390166
1.0021338 -3.9412379 -0.56119317
1.0672815 -4.1974535 -0.56103593
1.1413763 -4.4888568 -0.56088609
1.2260351 -4.8218069 -0.56057376
1.3266842 -5.2176442 -0.56132227
1.4405261 -5.6653671 -0.56041861
1.5801665 -6.214551 -0.56100255
1.7474797 -6.8725677 -0.56105804
1.9495163 -7.6671472 -0.55980581
2.2060812 -8.6761761 -0.5587455
2.5453868 -10.010613 -0.55854505
3.005959 -11.821973 -0.5579775
3.6617706 -14.401178 -0.55599964
4.6988721 -18.479939 -0.55482048
6.5291882 -25.678289 -0.55059212
10.716328 -42.145664 -0.54216069
0.54184961 -2.0263534 -0.5620355
0.55875713 -2.0895824 -0.56034774
0.58109719 -2.1731274 -0.5628435
0.59848839 -2.2381651 -0.55926979
0.62466222 -2.3360474 -0.56250221
0.64617825 -2.4165108 -0.56000453
0.67460954 -2.5228355 -0.56189412
0.70504344 -2.6366487 -0.56355143
0.73734802 -2.7574582 -0.5646807
0.76851624 -2.874018 -0.56289858
0.80610734 -3.0145972 -0.56361037
0.84327012 -3.1535747 -0.56161952
0.88960463 -3.3268516 -0.5630514
0.93569207 -3.4992049 -0.56135374
0.98744541 -3.6927466 -0.55991143
1.0532951 -3.9390047 -0.56267679
1.119176 -4.185379 -0.5612191
1.196802 -4.4756765 -0.56103569
1.287464 -4.8147254 -0.56154853
1.3868612 -5.1864409 -0.55975765
1.5087249 -5.6421738 -0.55991715
1.6536082 -6.1839938 -0.56003731
1.8280036 -6.8361797 -0.55988014
2.0449576 -7.6475215 -0.56016654
2.3162937 -8.6622372 -0.55963969
2.66642 -9.9716034 -0.55815566
3.1489556 -11.77614 -0.55759966
3.8436055 -14.373919 -0.55672985
4.9157424 -18.383387 -0.55369467
6.8376451 -25.570721 -0.55004686
11.212208 -41.93026 -0.54112244
0.57055998 -2.0332084 -0.56583995
0.58772123 -2.094363 -0.56352514
0.60634458 -2.1607277 -0.56152064
0.63082349 -2.2479591 -0.56361276
0.6529814 -2.3269196 -0.56219518
0.67683369 -2.4119179 -0.56082648
0.70510262 -2.5126553 -0.56151539
0.73236644 -2.6098108 -0.55969763
0.76667774 -2.73208 -0.5613718
0.80191356 -2.8576441 -0.56158054
0.84092188 -2.9966514 -0.56214601
0.88486028 -3.1532273 -0.56345278
0.9299323 -3.3138428 -0.56274247
0.97693104 -3.4813242 -0.56037009
1.0293052 -3.6679614 -0.55803025
1.1002178 -3.9206605 -0.56194651
1.1681868 -4.1628699 -0.5600847
1.2565664 -4.4778137 -0.56319785
1.3460925 -4.7968426 -0.56135088
1.4526005 -5.1763873 -0.56055802
1.5773368 -5.6208892 -0.55968738
1.7328656 -6.1751208 -0.56112105
1.9117334 -6.8125219 -0.55982548
2.1384971 -7.6206017 -0.5600785
2.4187217 -8.6191902 -0.55873793
2.786622 -9.9302149 -0.55771482
3.2879255 -11.716625 -0.55665392
4.0125265 -14.298764 -0.55568796
5.1364179 -18.303785 -0.55315763
7.1392312 -25.440874 -0.54910064
11.701016 -41.696938 -0.53992736
0.59066999 -2.0095515 -0.56123519
0.6125375 -2.0839481 -0.56270695
0.63250864 -2.1518931 -0.56120348
0.65510297 -2.2287626 -0.56077707
0.68169427 -2.3192303 -0.56232017
0.70743555 -2.4068062 -0.56161815
0.73545021 -2.5021167 -0.56113887
0.76891923 -2.6159832 -0.56300652
0.80049735 -2.723417 -0.56157184
0.83852029 -2.852777 -0.56260777
0.87922722 -2.9912684 -0.56312174
0.9225257 -3.1385765 -0.5628193
0.97014284 -3.3005774 -0.56247306
1.0242475 -3.4846499 -0.56289017
1.0811733 -3.6783206 -0.56158644
1.1456454 -3.8976643 -0.56062722
1.2250165 -4.1676974 -0.56271827
1.3114722 -4.461833 -0.56317359
1.4033132 -4.7742906 -0.56068873
1.5179566 -5.1643252 -0.56123066
1.6456782 -5.5988541 -0.55946594
1.8082378 -6.1519074 -0.56098974
1.9987218 -6.799964 -0.56077081
2.229315 -7.5844774 -0.55939597
2.5210528 -8.5770159 -0.55797136
2.91258 -9.9090528 -0.55849552
3.433768 -11.682216 -0.55698299
4.1876254 -14.246956 -0.55563366
5.3535194 -18.213509 -0.55237705
7.4439816 -25.325588 -0.54854655
12.192666 -41.481354 -0.53903639
0.61626661 -2.005172 -0.56208599
0.64469808 -2.0976806 -0.56851256
0.65923309 -2.1449738 -0.56147057
0.68337744 -2.2235332 -0.56153315
0.70974207 -2.3093169 -0.56199008
0.73835391 -2.4024124 -0.56266892
0.77076429 -2.5078673 -0.56451142
0.79951429 -2.6014125 -0.56194401
0.83432877 -2.7146897 -0.5618453
0.87395614 -2.843627 -0.5628801
0.91194206 -2.9672234 -0.56066376
0.95828587 -3.1180141 -0.56120265
1.013092 -3.296339 -0.56383109
1.0694647 -3.4797611 -0.56418204
1.1239569 -3.6570649 -0.56040895
1.1947294 -3.8873403 -0.5612129
1.2767806 -4.1543136 -0.5629884
1.3625803 -4.4334836 -0.56166768
1.4602652 -4.7513247 -0.560058
1.5821344 -5.1478553 -0.56151259
1.7168186 -5.5860829 -0.56025696
1.8802952 -6.1179934 -0.55996323
2.0796919 -6.7667785 -0.56010067
2.3206823 -7.550899 -0.55898178
2.6260293 -8.5444193 -0.55790925
3.027 -9.8490744 -0.55717075
3.5740795 -11.629129 -0.55650532
4.3605428 -14.188078 -0.5553866
5.5769897 -18.14608 -0.55237013
7.7463036 -25.204466 -0.54794478
12.674735 -41.240303 -0.53788871
0.64379823 -2.0065551 -0.56465012
0.66323465 -2.0671334 -0.56240141
0.68554604 -2.1366723 -0.56146169
0.71169895 -2.218184 -0.5623498
0.73804641 -2.3003025 -0.56196249
0.76439142 -2.3824131 -0.56014401
0.7984075 -2.4884326 -0.56230408
0.82819468 -2.5812719 -0.55975085
0.86238933 -2.6878476 -0.55844241
0.90615809 -2.8242638 -0.56121039
0.94597226 -2.9483545 -0.55925405
0.99649602 -3.105824 -0.56117159
1.0500166 -3.272634 -0.56194246
1.1051635 -3.4445128 -0.56062812
1.1704293 -3.6479299 -0.56117213
1.246156 -3.8839505 -0.56289321
1.3265463 -4.1345067 -0.56247228
1.4181387 -4.4199772 -0.56212324
1.5214297 -4.7419086 -0.56111091
1.6441863 -5.1245098 -0.56112897
1.7854763 -5.5648746 -0.5602895
1.9560032 -6.0963631 -0.56014252
2.1621544 -6.738884 -0.55995011
2.4114373 -7.5158358 -0.55853897
2.7337031 -8.520256 -0.5584842
3.1476734 -9.8104954 -0.55713576
3.7137403 -11.574782 -0.5560478
4.5309997 -14.12197 -0.55493784
5.7921934 -18.052792 -0.55165672
8.0480833 -25.083822 -0.54743207
13.15353 -40.996201 -0.53677386
0.670138 -2.0036204 -0.5661003
0.68737137 -2.0551457 -0.56139714
0.70827401 -2.1176417 -0.5587073
0.73639905 -2.2017317 -0.56043214
0.76417053 -2.2847648 -0.5604198
0.79607707 -2.3801608 -0.56187344
0.83198363 -2.4875164 -0.56436616
0.86202234 -2.5773282 -0.5611518
0.90185523 -2.6964228 -0.56248558
0.9417026 -2.8155611 -0.56173962
0.98382276 -2.9414945 -0.56020522
1.0325617 -3.0872171 -0.5600614
1.0911783 -3.2624729 -0.56245905
1.1503932 -3.4395175 -0.5620749
1.2159725 -3.6355903 -0.56153154
1.2902336 -3.8576207 -0.56133413
1.3765597 -4.1157241 -0.5621773
1.468022 -4.3891835 -0.56046039
1.5795861 -4.7227449 -0.56109923
1.7060212 -5.1007686 -0.56078398
1.8543254 -5.5441775 -0.56045902
2.0330799 -6.0786285 -0.56076765
2.2359619 -6.6852183 -0.55773336
2.5036569 -7.485589 -0.55853689
2.8324099 -8.4685154 -0.55733353
3.2688022 -9.7732687 -0.55726218
3.8578255 -11.534367 -0.55634314
4.6991239 -14.049733 -0.55432796
6.0093145 -17.967022 -0.55125213
8.3432646 -24.945213 -0.54660469
13.632201 -40.758404 -0.53581464
0.69018263 -1.9821895 -0.56240064
0.71254712 -2.0464196 -0.56136441
0.74163157 -2.1299498 -0.56431794
0.76722974 -2.2034671 -0.56323266
0.79303807 -2.2775881 -0.56100899
0.82534224 -2.3703649 -0.56191432
0.86254185 -2.4772012 -0.56438953
0.89625484 -2.5740244 -0.5627895
0.93583512 -2.6876981 -0.56302351
0.9771198 -2.8062668 -0.56223994
1.0236665 -2.9399478 -0.56226546
1.0737046 -3.0836561 -0.56176811
1.1302478 -3.2460473 -0.56198084
1.1911632 -3.4209945 -0.5613991
1.2574053 -3.6112404 -0.56011641
1.3350875 -3.8343422 -0.56029338
1.4206288 -4.0800147 -0.55964345
1.5225204 -4.3726454 -0.56069684
1.6339093 -4.6925521 -0.55985677
1.7718812 -5.0888042 -0.56182158
1.9220704 -5.5201445 -0.56037635
2.1059835 -6.0483384 -0.5603199
2.3296313 -6.6906505 -0.56053406
2.595962 -7.4555464 -0.55863482
2.9451907 -8.4585228 -0.55901706
3.3863635 -9.7255621 -0.55687422
3.994997 -11.473544 -0.55573684
4.8616772 -13.96263 -0.55320817
6.2274327 -17.885052 -0.55104494
8.6353836 -24.800632 -0.54572213
14.104945 -40.509098 -0.53477687
0.7131452 -1.9698042 -0.56133223
0.73886687 -2.0408511 -0.56228662
0.76322162 -2.1081221 -0.56097895
0.7951709 -2.1963704 -0.56387532
0.82558239 -2.280371 -0.56415236
0.85443914 -2.3600774 -0.56192374
0.89403319 -2.4694417 -0.56508356
0.92520243 -2.5555353 -0.56119198
0.96671981 -2.6702118 -0.56180817
1.0085697 -2.7858069 -0.56058311
1.0596714 -2.9269569 -0.56223041
1.1111778 -3.0692246 -0.56158572
1.1668963 -3.2231269 -0.56045449
1.2346209 -3.4101913 -0.56207508
1.3124814 -3.6252525 -0.56475025
1.3873695 -3.8321037 -0.56241655
1.4763837 -4.0779729 -0.56181109
1.5743229 -4.3484945 -0.56004
1.6946311 -4.6808023 -0.56089866
1.8326015 -5.0618954 -0.56129616
1.9888321 -5.4934254 -0.56010425
2.1776812 -6.0150523 -0.55967468
2.403547 -6.6389246 -0.5586344
2.6830986 -7.4110842 -0.55773324
3.0369775 -8.388546 -0.55681825
3.5073173 -9.6876888 -0.55713296
4.1340523 -11.418816 -0.55550623
5.0321555 -13.8995 -0.55311668
6.4377646 -17.781984 -0.5502668
8.9304686 -24.667173 -0.54516059
14.572712 -40.25182 -0.53370565
0.74178874 -1.9727951 -0.56474113
0.76491988 -2.0343127 -0.56303412
0.78744 -2.0942051 -0.55980986
0.81926978 -2.1788568 -0.56192297
0.85198528 -2.2658641 -0.56311268
0.88216031 -2.3461149 -0.56113964
0.91715169 -2.4391749 -0.56069589
0.95898873 -2.5504408 -0.56262028
1.0016251 -2.6638327 -0.56301481
1.0420063 -2.7712269 -0.56018525
1.090131 -2.8992155 -0.55943424
1.1496732 -3.0575686 -0.56199718
1.2091539 -3.2157578 -0.56171602
1.2694472 -3.3761084 -0.55898803
1.3466089 -3.581321 -0.56044364
1.43163 -3.8074358 -0.56133741
1.5246352 -4.0547838 -0.56115675
1.6328392 -4.3425536 -0.56181818
1.7483453 -4.6497431 -0.55971068
1.8926743 -5.0335879 -0.56069553
2.0574114 -5.4717083 -0.56042707
2.2527668 -5.9912577 -0.55999583
2.4849362 -6.6087151 -0.55862129
2.7760098 -7.3828282 -0.55813348
3.1393118 -8.3490334 -0.55671579
3.6169522 -9.6193237 -0.55571705
4.2704678 -11.357355 -0.55502892
5.2038021 -13.839568 -0.55323631
6.6470156 -17.677811 -0.54953092
9.2262678 -24.537359 -0.54475778
15.032946 -39.980282 -0.53251606
0.7687875 -1.9706984 -0.56680423
0.78760421 -2.0189328 -0.56141543
0.81563413 -2.0907843 -0.56153399
0.84364671 -2.1625915 -0.56036115
0.879776 -2.2552044 -0.56310952
0.91309547 -2.3406153 -0.56246716
0.94826525 -2.430769 -0.56140155
0.98786014 -2.5322659 -0.56124812
1.0265882 -2.6315408 -0.55881554
1.0751247 -2.7559586 -0.55972892
1.1280962 -2.8917449 -0.56062704
1.1836143 -3.0340588 -0.56030875
1.2443875 -3.1898441 -0.55982006
1.3147062 -3.3700984 -0.56062722
1.3935972 -3.5723262 -0.56167525
1.4706596 -3.7698667 -0.55842245
1.5788438 -4.0471849 -0.56274939
1.6831909 -4.3146663 -0.56084561
1.8018204 -4.6187596 -0.55860585
1.9500396 -4.9987025 -0.55943835
2.1246271 -5.4462371 -0.56045175
2.3247271 -5.9591708 -0.55962628
2.5614431 -6.5659647 -0.55762792
2.8632832 -7.3396969 -0.55749238
3.2479742 -8.3258085 -0.55778807
3.742161 -9.5925989 -0.55678946
4.4056087 -11.293272 -0.55450273
5.3642111 -13.750538 -0.55227238
6.8607831 -17.586828 -0.54928362
9.5195475 -24.402266 -0.54431617
15.498958 -39.729794 -0.53167796
0.78272176 -1.9357756 -0.55948579
0.81681925 -2.0201035 -0.56449127
0.84066463 -2.0790763 -0.56112337
0.87519026 -2.1644628 -0.56359196
0.9133938 -2.2589452 -0.56680512
0.93268031 -2.3066432 -0.55701739
0.97436768 -2.4097419 -0.55927008
1.0253135 -2.5357378 -0.56476927
1.0647688 -2.6333158 -0.5619303
1.1186693 -2.766619 -0.56464505
1.1600134 -2.8688686 -0.55891508
1.2218359 -3.0217638 -0.56077039
1.2912463 -3.1934252 -0.56319249
1.3634056 -3.3718846 -0.56367069
1.4346683 -3.5481267 -0.56060171
1.5205498 -3.7605231 -0.5597657
1.6227603 -4.0133033 -0.56077045
1.7331791 -4.2863841 -0.55989724
1.864417 -4.6109529 -0.56039202
2.0095015 -4.9697661 -0.55892307
2.184886 -5.4035158 -0.55877793
2.3928814 -5.9179163 -0.55847305
2.6469374 -6.5462303 -0.55867386
2.959275 -7.3186836 -0.55861795
3.343199 -8.2681789 -0.55663919
3.8463225 -9.5124712 -0.55484182
4.5433445 -11.236299 -0.55440652
5.5357308 -13.690603 -0.55255735
7.0731883 -17.492941 -0.54902625
9.8031712 -24.244556 -0.54344606
15.954533 -39.457695 -0.53062189
0.81457186 -1.9453686 -0.56511068
0.83721083 -1.9994353 -0.56155008
0.86872745 -2.0747037 -0.56278372
0.89762807 -2.1437242 -0.56102365
0.93640614 -2.2363346 -0.56397825
0.96358526 -2.301244 -0.5585326
1.0083466 -2.4081433 -0.56173432
1.0483063 -2.5035758 -0.5604347
1.1006016 -2.6284678 -0.56374109
1.1457795 -2.736362 -0.5613029
1.1988339 -2.8630672 -0.56061441
1.2664406 -3.0245261 -0.56413031
1.3288133 -3.1734853 -0.56251502
1.3933462 -3.3276033 -0.5590902
1.4789871 -3.5321317 -0.56090558
1.5708588 -3.7515409 -0.56126148
1.6733328 -3.9962699 -0.56122303
1.7877343 -4.269485 -0.56051892
1.9191139 -4.5832472 -0.55985051
2.074904 -4.9553061 -0.56012392
2.2520771 -5.3784328 -0.55900556
2.4671905 -5.892169 -0.558864
2.7239053 -6.5052581 -0.55799347
3.0433304 -7.2681122 -0.55757219
3.4418068 -8.2197571 -0.55618656
3.9701753 -9.4816122 -0.55584741
4.6732635 -11.160735 -0.55347162
5.6992102 -13.610911 -0.55212766
7.2799678 -17.386093 -0.54844087
10.082676 -24.079548 -0.54248542
16.406521 -39.182217 -0.52959025
0.83496553 -1.9272103 -0.56277579
0.85933882 -1.9834671 -0.55999076
0.89230633 -2.0595605 -0.56160986
0.92066449 -2.1250148 -0.55904776
0.96376777 -2.224503 -0.56394053
1.0031186 -2.3153298 -0.56490237
1.0415988 -2.4041471 -0.56374717
1.0850674 -2.5044785 -0.56358093
1.1318716 -2.6125085 -0.56326067
1.1797504 -2.7230194 -0.56149924
1.243223 -2.8695223 -0.56482905
1.2999777 -3.0005195 -0.56259161
1.3651268 -3.1508925 -0.56144333
1.4423008 -3.32902 -0.56226552
1.5264122 -3.5231605 -0.562419
1.6162245 -3.7304592 -0.56103837
1.7180364 -3.9654543 -0.55981988
1.8367251 -4.2394032 -0.55949247
1.9721242 -4.5519223 -0.55894405
2.1386137 -4.936202 -0.56089461
2.3176522 -5.3494468 -0.55891263
2.5433259 -5.8703308 -0.55971664
2.7991817 -6.4608798 -0.5570972
3.1301603 -7.2248225 -0.55716187
3.5409122 -8.1728916 -0.55591953
4.0781078 -9.4128103 -0.55471176
4.8123827 -11.107613 -0.55372995
5.8582196 -13.521543 -0.55138284
7.4920425 -17.292622 -0.54835695
10.374582 -23.945902 -0.54230762
16.861177 -38.917816 -0.52877897
0.85942233 -1.9186375 -0.56331581
0.88970929 -1.9862524 -0.56382328
0.92067564 -2.0553839 -0.56351548
0.95109224 -2.1232882 -0.56162781
0.9831599 -2.1948783 -0.55945283
1.0254599 -2.2893119 -0.56158853
1.0637757 -2.3748507 -0.55990243
1.1117707 -2.4819987 -0.56155622
1.1577283 -2.5845976 -0.56027001
1.210808 -2.7030966 -0.56041884
1.2679394 -2.830641 -0.56020236
1.3290087 -2.9669766 -0.5593242
1.4030775 -3.132333 -0.56116813
1.4821148 -3.3087819 -0.56188297
1.5616128 -3.486259 -0.5595513
1.6542534 -3.6930766 -0.55843329
1.7647827 -3.9398303 -0.55922377
1.892792 -4.2256079 -0.56070107
2.0296938 -4.5312376 -0.55942655
2.1938388 -4.8976865 -0.55954117
2.3839281 -5.3220563 -0.5590713
2.6143365 -5.8364367 -0.55950779
2.8879709 -6.4473181 -0.55894762
3.2203591 -7.1893659 -0.55743921
3.6479509 -8.1439533 -0.55696023
4.1985836 -9.3732262 -0.55537957
4.9490871 -11.048705 -0.5537852
6.0231752 -13.446579 -0.55130452
7.6968608 -17.183037 -0.54784179
10.64911 -23.773855 -0.54133582
17.295883 -38.612598 -0.52748173
0.88246477 -1.9068811 -0.56300747
0.90597373 -1.9576806 -0.55883288
0.94328058 -2.0382955 -0.56196797
0.97842503 -2.1142375 -0.56237364
1.0132844 -2.1895638 -0.56123167
1.0555649 -2.2809258 -0.56267285
1.0973678 -2.3712561 -0.56219375
1.1406542 -2.464792 -0.56079417
1.192017 -2.5757794 -0.5614934
1.2427119 -2.685324 -0.55985987
1.3062663 -2.8226559 -0.56175846
1.3663536 -2.9524963 -0.55971944
1.4405218 -3.1127632 -0.5607931
1.5177976 -3.2797451 -0.5600791
1.6099163 -3.4788008 -0.56148911
1.7032443 -3.6804693 -0.55965155
1.8175147 -3.9273913 -0.560588
1.9421161 -4.1966372 -0.55998343
2.0831213 -4.5013294 -0.55885422
2.2487655 -4.8592629 -0.55826831
2.4473963 -5.288476 -0.55866289
2.6839592 -5.799655 -0.55910331
2.9609361 -6.3981624 -0.55780041
3.3101315 -7.1527247 -0.5577119
3.7389331 -8.0793037 -0.55564111
4.305748 -9.3041105 -0.55437952
5.0803413 -10.977897 -0.55332547
6.1763668 -13.346251 -0.55026335
7.8959799 -17.062092 -0.54703993
10.934012 -23.626848 -0.54100901
17.737831 -38.328934 -0.52654648
0.9004631 -1.8846241 -0.55966294
0.9370327 -1.9611626 -0.56307334
0.9645049 -2.0186605 -0.55978209
1.0047185 -2.1028256 -0.56258184
1.0398048 -2.1762593 -0.56105632
1.0816351 -2.2638083 -0.56168872
1.1288468 -2.3626199 -0.56339461
1.1688712 -2.4463887 -0.5598349
1.2262647 -2.5665107 -0.56271732
1.2799066 -2.6787803 -0.56173444
1.3395066 -2.8035204 -0.56118578
1.4046485 -2.9398589 -0.56055576
1.4743708 -3.0857844 -0.5591566
1.5657246 -3.2769833 -0.56285268
1.6482539 -3.449713 -0.56002319
1.7490343 -3.6606412 -0.55986452
1.8675628 -3.9087155 -0.5611577
1.9915272 -4.1681666 -0.55940986
2.1360083 -4.4705582 -0.55825263
2.3068132 -4.8280449 -0.5578984
2.5120068 -5.2575045 -0.55861193
2.7523737 -5.7605805 -0.55855691
3.0418372 -6.3664131 -0.5582512
3.3887901 -7.0925684 -0.55622846
3.8401663 -8.0372753 -0.55595618
4.4200587 -9.2509623 -0.55440927
5.2107019 -10.905738 -0.55287617
6.3448615 -13.279477 -0.55068535
8.1048164 -16.962975 -0.54701602
11.217142 -23.476917 -0.54069334
18.175514 -38.040443 -0.52561384
0.92777252 -1.8819398 -0.56221116
0.95655298 -1.9403194 -0.56042373
0.99103653 -2.0102675 -0.56079155
1.0297594 -2.088815 -0.56217861
1.0687209 -2.1678464 -0.56223285
1.109058 -2.2496681 -0.56152159
1.1539379 -2.3407049 -0.56150991
1.1988801 -2.4318678 -0.55984318
1.255241 -2.5461931 -0.56160438
1.308 -2.6532121 -0.55970323
1.3691927 -2.7773385 -0.55927277
1.4405872 -2.9221585 -0.56051594
1.5134259 -3.0699079 -0.55960959
1.593079 -3.2314804 -0.55835956
1.6957139 -3.4396701 -0.56173533
1.8011112 -3.6534631 -0.56211144
1.9135571 -3.8815539 -0.56059396
2.0439069 -4.1459622 -0.55976051
2.1884515 -4.4391637 -0.55765051
2.3764951 -4.8206 -0.56037259
2.570231 -5.2135835 -0.55726123
2.8187685 -5.7177296 -0.5577206
3.1089756 -6.3063998 -0.55629897
3.4758639 -7.0506148 -0.55624819
3.9328539 -7.9775958 -0.5551312
4.537744 -9.2045851 -0.55493194
5.3429079 -10.837819 -0.5527218
6.496655 -13.178137 -0.54975408
8.2995892 -16.835297 -0.54614848
11.47472 -23.27589 -0.53927243
18.611176 -37.751831 -0.52474844
0.94912744 -1.8670175 -0.5611974
0.9892028 -1.9458494 -0.56549144
1.0118381 -1.9903749 -0.55867088
1.0577404 -2.0806689 -0.5634442
1.0959718 -2.1558735 -0.56258035
1.1340815 -2.2308385 -0.56026006
1.1866409 -2.3342276 -0.5634138
1.2340754 -2.4275355 -0.56229669
1.2804316 -2.5187221 -0.5589757
1.3406777 -2.6372316 -0.55976748
1.4045906 -2.762954 -0.55981177
1.4833889 -2.9179571 -0.56316632
1.5513363 -3.0516157 -0.55971009
1.6395601 -3.2251596 -0.56070858
1.7319607 -3.4069197 -0.55982262
1.8407749 -3.6209669 -0.56055188
1.9542525 -3.8441873 -0.55862564
2.0897043 -4.1106329 -0.55841768
2.2470875 -4.4202199 -0.55869955
2.4300494 -4.7801218 -0.55909842
2.6360548 -5.1853528 -0.55766618
2.8844779 -5.6740227 -0.55687499
3.1896818 -6.2743864 -0.55689269
3.5583386 -6.9995666 -0.5556308
4.0346737 -7.9365602 -0.555686
4.6423564 -9.1319256 -0.55395108
5.4739542 -10.767752 -0.55253941
6.660984 -13.102745 -0.54998428
8.5064831 -16.733004 -0.54618204
11.761508 -23.135925 -0.5393396
19.034189 -37.441933 -0.52365464
0.97821426 -1.8670448 -0.56477851
1.0047771 -1.9177433 -0.5608716
1.042868 -1.9904447 -0.56224734
1.0721036 -2.0462444 -0.55764985
1.1188128 -2.1353948 -0.56078398
1.1613041 -2.2164948 -0.56020164
1.2116586 -2.3126028 -0.56174791
1.258476 -2.4019594 -0.55991459
1.3123035 -2.5046961 -0.55940187
1.3716799 -2.6180234 -0.55922824
1.4425083 -2.7532084 -0.56138867
1.5153979 -2.8923273 -0.56177366
1.5915109 -3.0375986 -0.56068617
1.6843801 -3.2148509 -0.56247467
1.767509 -3.373513 -0.5578624
1.8781654 -3.5847147 -0.55847275
2.0031548 -3.8232725 -0.55912352
2.1436675 -4.0914583 -0.5593515
2.3094769 -4.4079266 -0.56069279
2.4894102 -4.7513518 -0.55927151
2.6977224 -5.148942 -0.55727583
2.9544892 -5.6390138 -0.55696249
3.2689493 -6.2392001 -0.55729532
3.6487072 -6.964016 -0.55632824
4.1271005 -7.8770895 -0.55503339
4.7495193 -9.0650539 -0.55339551
5.602386 -10.692858 -0.55218953
6.8111014 -12.999843 -0.54913896
8.6985693 -16.602312 -0.54536617
12.028693 -22.958273 -0.53860551
19.463741 -37.148994 -0.52286541
0.99736136 -1.8479551 -0.56267124
1.0333979 -1.9147253 -0.56366277
1.0673013 -1.9775429 -0.56226766
1.100664 -2.0393589 -0.55941951
1.140676 -2.1134949 -0.55867404
1.192122 -2.2088161 -0.56192338
1.2374824 -2.2928622 -0.56060666
1.2903721 -2.3908584 -0.56098318
1.3409948 -2.4846544 -0.55856627
1.4073513 -2.6076026 -0.56065643
1.4728986 -2.7290516 -0.56011367
1.5441813 -2.8611274 -0.55935949
1.6295602 -3.019321 -0.5609687
1.7167621 -3.1808925 -0.56018436
1.8157839 -3.3643644 -0.55999941
1.9264277 -3.56937 -0.55973035
2.0597126 -3.8163266 -0.56176919
2.1978841 -4.0723362 -0.5603897
2.3500893 -4.3543491 -0.55751139
2.5413952 -4.7088089 -0.55790007
2.7652352 -5.1235495 -0.55816549
3.0311697 -5.6162848 -0.55835676
3.3381946 -6.185154 -0.55609226
3.7285309 -6.9083867 -0.5555048
4.2223763 -7.8234053 -0.55486715
4.8619013 -9.0083447 -0.55354136
5.7236772 -10.605082 -0.55124962
6.9770741 -12.92743 -0.54966265
8.8993979 -16.489197 -0.54520398
12.286775 -22.765476 -0.53758633
19.885002 -36.843807 -0.521972
1.0154549 -1.8273596 -0.5601598
1.0579914 -1.9039061 -0.56426489
1.0857544 -1.9538668 -0.55928963
1.1316533 -2.0364642 -0.56240004
1.171203 -2.1076357 -0.56088972
1.2163259 -2.1888366 -0.56060314
1.2689266 -2.2834942 -0.56208873
1.3181821 -2.3721316 -0.56035
1.3789122 -2.4814184 -0.56160814
1.4334998 -2.5796514 -0.55839443
1.5049256 -2.7081857 -0.55958682
1.5825243 -2.8478281 -0.56052142
1.6598101 -2.9869075 -0.55869627
1.7538835 -3.1561971 -0.55959105
1.8558823 -3.3397486 -0.55965835
1.9664543 -3.5387285 -0.55867487
2.100265 -3.7795274 -0.56011152
2.2445014 -4.0390873 -0.55956995
2.4078083 -4.3329659 -0.55852216
2.5985353 -4.676188 -0.55777872
2.8275599 -5.0883293 -0.55807412
3.0941169 -5.5680113 -0.55729789
3.4192264 -6.1530609 -0.55694485
3.820204 -6.8746395 -0.55652636
4.3046265 -7.7463803 -0.55311656
4.9668298 -8.9380474 -0.55293286
5.853857 -10.534295 -0.55127007
7.1253128 -12.82234 -0.54887819
9.0903568 -16.35853 -0.54453832
12.557205 -22.59729 -0.53722036
20.294933 -36.521702 -0.52090478
1.0371174 -1.8134609 -0.55976629
1.0791122 -1.8868914 -0.56311226
1.1152341 -1.9500527 -0.56208086
1.1565994 -2.0223823 -0.56239629
1.20123 -2.1004217 -0.56285822
1.2436997 -2.1746821 -0.56085241
1.2931277 -2.2611101 -0.56045049
1.3497536 -2.3601239 -0.56139177
1.4129587 -2.4706419 -0.56305879
1.4711225 -2.5723445 -0.56068611
1.5366139 -2.6868601 -0.55904239
1.6243749 -2.8403153 -0.56293154
1.7043629 -2.9801791 -0.56131536
1.7894808 -3.1290128 -0.55863041
1.900514 -3.3231609 -0.56075245
2.0139849 -3.5215714 -0.55983365
2.1495435 -3.7586036 -0.56088537
2.2909114 -4.0057936 -0.55881792
2.4613097 -4.3037453 -0.55861461
2.6555851 -4.6434474 -0.55772626
2.885973 -5.0462942 -0.55731386
3.1615324 -5.5281262 -0.55715472
3.4929023 -6.1075459 -0.55667061
3.8982627 -6.8163424 -0.55564553
4.4087348 -7.7089329 -0.5542717
5.0762644 -8.8761482 -0.55292326
5.9828038 -10.461286 -0.55125755
7.2723079 -12.71606 -0.54811513
9.2833481 -16.232483 -0.54410118
12.821554 -22.419245 -0.53669512
20.708509 -36.210052 -0.52005237
1.0662144 -1.8122624 -0.56340069
1.1009637 -1.8713266 -0.56246483
1.1351098 -1.929365 -0.56009871
1.1804053 -2.0063546 -0.5619331
1.2234085 -2.079448 -0.56122667
1.2743211 -2.1659849 -0.56260806
1.3183445 -2.2408121 -0.55939519
1.3687761 -2.3265316 -0.55736274
1.4398276 -2.447299 -0.5617314
1.5023423 -2.5535564 -0.56057519
1.5755498 -2.6779885 -0.56118506
1.6529654 -2.8095729 -0.56082463
1.7413278 -2.959764 -0.56146073
1.8287898 -3.1084247 -0.5589273
1.9379793 -3.2940159 -0.55981332
2.0636525 -3.5076249 -0.56160808
2.1958904 -3.7323918 -0.56096089
2.3389146 -3.9754922 -0.55856067
2.5176947 -4.2793679 -0.55942655
2.7117951 -4.6092834 -0.55758584
2.9464083 -5.0080595 -0.55705041
3.2263918 -5.483952 -0.55665904
3.5574503 -6.0466576 -0.55506605
3.9828389 -6.7696977 -0.55579346
4.4989729 -7.6469793 -0.55375296
5.1873703 -8.8170595 -0.55317408
6.1012425 -10.370384 -0.55037928
7.42873 -12.626738 -0.54816097
9.4720583 -16.099815 -0.54351729
13.089689 -22.248764 -0.5364266
21.114021 -35.887856 -0.51911455
1.083868 -1.7914976 -0.56104618
1.1252713 -1.8599321 -0.56315637
1.1623945 -1.9212921 -0.56186199
1.2003155 -1.9839708 -0.55975538
1.2550027 -2.0743618 -0.56397635
1.2983243 -2.145967 -0.56151283
1.3556244 -2.2406769 -0.5634802
1.4114207 -2.332901 -0.5630039
1.4683832 -2.4270527 -0.56118625
1.5300268 -2.5289419 -0.55925953
1.6086073 -2.6588259 -0.56127203
1.6790935 -2.7753305 -0.55806863
1.770375 -2.9262073 -0.55918247
1.8826835 -3.1118393 -0.56366134
1.974177 -3.2630665 -0.55863684
2.0921388 -3.4580426 -0.55774629
2.228934 -3.6841481 -0.55778718
2.3903141 -3.9508889 -0.55919129
2.5685956 -4.2455659 -0.55909443
2.7657006 -4.5713553 -0.55706954
3.0120649 -4.9785647 -0.55784726
3.2969756 -5.4494867 -0.55723363
3.6478229 -6.0293927 -0.55755663
4.0681028 -6.7240624 -0.55611169
4.5959029 -7.5964503 -0.55414444
5.2859607 -8.7370291 -0.55218923
6.2286167 -10.295121 -0.55040812
7.5716238 -12.514942 -0.54730821
9.6673946 -15.978988 -0.5434103
13.337358 -22.044975 -0.53542686
21.520672 -35.570969 -0.51831943
1.1079496 -1.7814702 -0.56212997
1.1437018 -1.8389559 -0.56102091
1.1918713 -1.9164076 -0.56467682
1.2285304 -1.9753517 -0.56154329
1.2697853 -2.0416853 -0.55929512
1.3301739 -2.1387839 -0.56387049
1.3767974 -2.2137501 -0.5609237
1.4345206 -2.3065629 -0.56086224
1.4939888 -2.4021819 -0.55964094
1.5625435 -2.5124106 -0.5598104
1.6346351 -2.6283267 -0.55903459
1.7129722 -2.7542846 -0.55802995
1.8073866 -2.9060936 -0.55954349
1.9042767 -3.061883 -0.55881172
2.0072615 -3.2274718 -0.55672652
2.1445143 -3.4481604 -0.56036323
2.281446 -3.6683326 -0.55959779
2.4382012 -3.9203792 -0.55907422
2.6148415 -4.2043986 -0.5578652
2.8177559 -4.5306644 -0.55629116
3.0684974 -4.9338312 -0.55702055
3.3557394 -5.3956866 -0.55590975
3.7078698 -5.9618769 -0.55548745
4.1425781 -6.6608434 -0.55505413
4.6870584 -7.5363121 -0.55391991
5.391211 -8.6685181 -0.55200732
6.3528953 -10.214808 -0.55024916
7.7286825 -12.426934 -0.5475741
9.8480377 -15.834641 -0.54257858
13.598804 -21.86549 -0.53508848
21.923992 -35.251545 -0.5175541
1.1349868 -1.7758751 -0.56472564
1.1765107 -1.8408462 -0.56596833
1.2093189 -1.89218 -0.56187719
1.2568504 -1.9665508 -0.56339228
1.2968435 -2.0291269 -0.5601809
1.349756 -2.1119173 -0.56112063
1.4069165 -2.2013543 -0.56212389
1.4693979 -2.2991168 -0.56340253
1.5270981 -2.3893983 -0.56099504
1.5973213 -2.4992743 -0.56121737
1.6710249 -2.6145957 -0.56044209
1.7511472 -2.7399602 -0.55944812
1.8467711 -2.8895798 -0.56069386
1.9366918 -3.0302756 -0.55734736
2.0565727 -3.2178493 -0.55938655
2.1767478 -3.4058831 -0.55780035
2.3167691 -3.6249697 -0.5572865
2.4851797 -3.8884759 -0.55884027
2.6737263 -4.1834884 -0.55941081
2.8769243 -4.5014253 -0.55700254
3.1240461 -4.8880882 -0.55615121
3.4310913 -5.3685117 -0.55741459
3.7784081 -5.9119463 -0.5551222
4.222527 -6.6068439 -0.55483907
4.7744536 -7.4704247 -0.55335045
5.4963732 -8.599987 -0.55190545
6.4749293 -10.131102 -0.54998738
7.8755469 -12.322599 -0.54720259
10.042041 -15.712439 -0.54258138
13.845106 -21.662966 -0.53425813
22.32177 -34.926113 -0.51676697
1.1491917 -1.7502948 -0.56104237
1.1837485 -1.8029269 -0.558743
1.2325989 -1.8773292 -0.56192553
1.2755567 -1.9427569 -0.56102669
1.3249073 -2.017921 -0.56154245
1.3803986 -2.102438 -0.56306934
1.4322968 -2.1814823 -0.56150436
1.4898798 -2.2691851 -0.56051475
1.5557328 -2.3694837 -0.56076849
1.619004 -2.4658496 -0.55814004
1.7007035 -2.5902834 -0.5596711
1.7857192 -2.7197678 -0.55976635
1.8810765 -2.8650033 -0.56037098
1.9725847 -3.0043764 -0.55700296
2.0993364 -3.1974275 -0.56028163
2.2178619 -3.3779495 -0.55764985
2.371299 -3.6116445 -0.55967838
2.5459123 -3.8775921 -0.56173277
2.7143264 -4.1340976 -0.55722731
2.9370935 -4.4733868 -0.55795985
3.195744 -4.8673286 -0.558218
3.4989755 -5.3291698 -0.55775487
3.8522997 -5.8673058 -0.55533648
4.3046713 -6.5562978 -0.55499744
4.8684821 -7.4150186 -0.55363888
5.5994139 -8.5282755 -0.55168027
6.5956192 -10.045563 -0.54970497
8.0198317 -12.214732 -0.54675043
10.223086 -15.570433 -0.54197764
14.108687 -21.488461 -0.53419268
22.697668 -34.570042 -0.51558912
1.1720185 -1.738098 -0.56170988
1.205821 -1.788227 -0.55874026
1.258962 -1.8670348 -0.56343532
1.3097781 -1.9423947 -0.56553036
1.3468797 -1.9974163 -0.56040293
1.3992571 -2.0750916 -0.5603112
1.4591013 -2.1638405 -0.56153917
1.5184021 -2.2517834 -0.56078589
1.5826285 -2.3470306 -0.560018
1.6511908 -2.4487083 -0.55881357
1.7355253 -2.5737758 -0.560673
1.8167955 -2.6942992 -0.55908018
1.914839 -2.8396974 -0.55998439
2.0227561 -2.999738 -0.56071192
2.1422834 -3.1769965 -0.56127506
2.2619004 -3.3543878 -0.5583095
2.4133251 -3.5789497 -0.55916816
2.5685759 -3.809186 -0.55635649
2.7728333 -4.1120987 -0.5588156
2.9847817 -4.4264174 -0.55663711
3.2467992 -4.8149881 -0.55675197
3.5546536 -5.2715349 -0.5562554
3.9326973 -5.8321719 -0.55654609
4.3817072 -6.4980516 -0.55458593
4.9532838 -7.3456969 -0.55296886
5.6975098 -8.4493809 -0.55106705
6.7211299 -9.9674044 -0.54990906
8.1571827 -12.097064 -0.54593194
10.3983 -15.42063 -0.54117298
14.350391 -21.281563 -0.53339565
23.081366 -34.229557 -0.51470512
1.195079 -1.7261243 -0.56254685
1.2367896 -1.7863694 -0.56286919
1.2818811 -1.8514979 -0.56346083
1.3259358 -1.9151288 -0.56229633
1.3680408 -1.9759434 -0.55905581
1.4163156 -2.0456696 -0.55702716
1.4878379 -2.1489737 -0.56238633
1.546719 -2.234019 -0.56105602
1.6228275 -2.3439474 -0.56400102
1.6826439 -2.4303436 -0.55930209
1.7682395 -2.5539744 -0.56105357
1.8543212 -2.6783075 -0.56045091
1.9450793 -2.8093951 -0.55868304
2.0508292 -2.9621358 -0.55835485
2.1769242 -3.1442626 -0.56017882
2.3030913 -3.3264933 -0.55833811
2.4527221 -3.5426137 -0.55816102
2.6232584 -3.7889297 -0.55806708
2.8150136 -4.0658932 -0.55719835
3.0509384 -4.4066534 -0.55882728
3.3080857 -4.7780666 -0.55714422
3.6238649 -5.2341657 -0.55697215
4.001308 -5.7793293 -0.55615664
4.4550805 -6.4347401 -0.55381608
5.0441966 -7.2856364 -0.55307502
5.8011041 -8.3788834 -0.55107987
6.8374567 -9.8757496 -0.54944938
8.3019409 -11.990993 -0.54571074
10.585418 -15.289155 -0.54108608
14.596453 -21.082533 -0.53286552
23.462721 -33.888618 -0.51387787
1.2084895 -1.7004333 -0.5589748
1.2455176 -1.7525344 -0.55699176
1.2970046 -1.8249805 -0.56020212
1.3456984 -1.8934962 -0.56076092
1.3952484 -1.9632167 -0.56026679
1.4495182 -2.0395782 -0.56017959
1.5121263 -2.1276724 -0.56163538
1.5766221 -2.2184227 -0.56196547
1.6348594 -2.3003669 -0.55830973
1.7179394 -2.4172664 -0.56111169
1.7858273 -2.5127897 -0.55678809
1.8775816 -2.6418948 -0.55762041
1.9730222 -2.7761867 -0.55686176
2.1032915 -2.9594851 -0.56268781
2.2061305 -3.1041873 -0.55782992
2.3480716 -3.3039088 -0.55935133
2.4967008 -3.513041 -0.55829656
2.6652365 -3.7501829 -0.55714506
2.8665595 -4.0334592 -0.55754191
3.0981905 -4.3593812 -0.55762148
3.3692963 -4.7408466 -0.55759299
3.6828737 -5.1820731 -0.55620581
4.0573897 -5.7090449 -0.55415225
4.5352716 -6.3814592 -0.55398822
5.1301985 -7.2185655 -0.5527305
5.9083862 -8.3135319 -0.55151838
6.9625244 -9.7967815 -0.54977763
8.4540319 -11.895441 -0.54605192
10.763427 -15.14493 -0.54062504
14.845057 -20.888081 -0.53252423
23.842073 -33.547543 -0.51311272
1.2372688 -1.6963632 -0.56259561
1.277068 -1.7509301 -0.56143028
1.3164278 -1.8048946 -0.55896318
1.3715744 -1.8805037 -0.56186539
1.4215801 -1.9490641 -0.56117409
1.4749392 -2.0222225 -0.56035167
1.5355591 -2.1053355 -0.56068099
1.5977925 -2.190661 -0.55986756
1.6703151 -2.2900934 -0.56075877
1.7439327 -2.3910272 -0.55995631
1.8286588 -2.5071914 -0.56048769
1.9153756 -2.6260848 -0.55921227
2.0254924 -2.777061 -0.56199044
2.1258378 -2.9146399 -0.55908918
2.2486181 -3.0829785 -0.55894518
2.3840749 -3.2686973 -0.55831099
2.5359423 -3.4769158 -0.55746901
2.7157655 -3.7234631 -0.5580945
2.9152792 -3.9970074 -0.55741626
3.1397901 -4.3048239 -0.55553949
3.4269617 -4.6985521 -0.55753261
3.7531571 -5.1457839 -0.55722219
4.1405878 -5.6769724 -0.5559392
4.615406 -6.3279738 -0.55423003
5.2170305 -7.1528344 -0.55256778
6.0061417 -8.2347488 -0.55114979
7.0628152 -9.683506 -0.54825312
8.5825415 -11.767135 -0.54496539
10.950602 -15.013874 -0.54071259
15.074677 -20.668207 -0.53160423
24.216436 -33.202061 -0.5123443
1.2520938 -1.6730859 -0.55993956
1.2984055 -1.7349691 -0.56138939
1.3393539 -1.7896857 -0.55931127
1.3893107 -1.8564395 -0.55973738
1.4443911 -1.9300395 -0.56076783
1.5040941 -2.0098164 -0.5619964
1.5657814 -2.0922449 -0.56227976
1.6254253 -2.1719429 -0.56014955
1.7044139 -2.2774899 -0.56276202
1.7820739 -2.3812616 -0.56275862
1.8433082 -2.4630847 -0.55565262
1.9507254 -2.6066189 -0.56013274
2.0602541 -2.7529747 -0.56220043
2.167213 -2.8958962 -0.56056321
2.2867305 -3.055599 -0.55903697
2.4286649 -3.2452562 -0.55936575
2.5906019 -3.4616416 -0.56008518
2.7521722 -3.6775365 -0.55624115
2.9700153 -3.9686251 -0.55850899
3.191416 -4.2644677 -0.55535382
3.4766598 -4.6456189 -0.55628228
3.8011858 -5.0792608 -0.55503803
4.2016659 -5.6143942 -0.55482858
4.6839967 -6.2588997 -0.55318296
5.3028078 -7.0857739 -0.55238271
6.1066103 -8.1598396 -0.55112016
7.1865735 -9.6029186 -0.54865223
8.7395248 -11.67802 -0.54577398
11.124163 -14.864446 -0.54021651
15.316623 -20.466539 -0.53122133
24.579603 -32.844017 -0.51144463
1.2788664 -1.6657648 -0.56270975
1.3211628 -1.7208573 -0.56203735
1.369143 -1.7833529 -0.56255108
1.4152813 -1.8434496 -0.56102556
1.4728143 -1.9183882 -0.56260204
1.5285113 -1.9909352 -0.56192994
1.5907536 -2.0720079 -0.56205547
1.6499959 -2.149173 -0.55946743
1.72417 -2.2457869 -0.56012475
1.8003014 -2.3449507 -0.5593667
1.8869462 -2.4578085 -0.55965441
1.9798045 -2.5787592 -0.55933511
2.0807536 -2.7102485 -0.55865788
2.1954322 -2.8596215 -0.55872488
2.3285511 -3.0330131 -0.56010091
2.4660578 -3.2121198 -0.55883867
2.6228933 -3.4164033 -0.55794191
2.8044724 -3.652916 -0.55769104
3.0134676 -3.925139 -0.55756176
3.2582157 -4.2439313 -0.55785471
3.5365012 -4.6064072 -0.55675209
3.8726785 -5.0442886 -0.55637813
4.2803335 -5.5752726 -0.55612177
4.7660518 -6.2079368 -0.55381656
5.3860135 -7.0154567 -0.55202228
6.1916733 -8.0648546 -0.54980552
7.2951045 -9.5021095 -0.54797626
8.8764467 -11.561859 -0.54540503
11.300464 -14.719219 -0.53994775
15.551881 -20.256826 -0.53070152
24.942926 -32.488968 -0.51065326
1.2971479 -1.6472435 -0.56179881
1.3429495 -1.7054069 -0.56234205
1.386559 -1.7607864 -0.56076843
1.4410813 -1.830024 -0.56229007
1.4842601 -1.8848567 -0.55807859
1.5471249 -1.9646884 -0.55984902
1.6161608 -2.0523567 -0.56207323
1.6781268 -2.1310472 -0.56007832
1.7481263 -2.2199392 -0.55899704
1.8336855 -2.3285906 -0.56080037
1.9185976 -2.4364202 -0.56011391
2.015146 -2.559027 -0.56038737
2.1274447 -2.7016346 -0.56223214
2.2243259 -2.8246636 -0.55719656
2.3583992 -2.9949226 -0.55838001
2.5018039 -3.1770318 -0.55804414
2.6594734 -3.3772559 -0.55684721
2.8541896 -3.6245251 -0.55867255
3.0585082 -3.8839886 -0.55701661
3.3038206 -4.1955104 -0.55678791
3.59232 -4.5618744 -0.55666649
3.9251869 -4.984581 -0.55507416
4.3374515 -5.5081139 -0.55470097
4.8367057 -6.1421156 -0.55320853
5.4687538 -6.9447513 -0.5517084
6.2922463 -7.9905014 -0.54996979
7.409914 -9.4098234 -0.54786736
9.0006361 -11.429876 -0.54435879
11.474825 -14.57184 -0.53967661
15.796844 -20.060356 -0.53060311
25.299047 -32.127171 -0.50981766
1.3118796 -1.6244537 -0.55948561
1.3572397 -1.6806214 -0.5596301
1.4090359 -1.7447587 -0.56113958
1.4546713 -1.8012673 -0.5589081
1.512123 -1.8724078 -0.55985564
1.5706086 -1.9448284 -0.55965084
1.6325856 -2.0215724 -0.55909795
1.7045823 -2.1107233 -0.56020319
1.788502 -2.214638 -0.56315738
1.8580093 -2.3007064 -0.55954492
1.9490639 -2.413456 -0.56030196
2.0409446 -2.5272286 -0.55887753
2.1480742 -2.6598833 -0.55899799
2.2676454 -2.8079441 -0.55935663
2.389159 -2.95841 -0.55700773
2.5480821 -3.1551988 -0.55967033
2.6957681 -3.3380733 -0.55581027
2.8865449 -3.5743051 -0.55636072
3.1123729 -3.8539398 -0.55815363
3.359606 -4.16008 -0.55752629
3.638773 -4.5057621 -0.55523729
3.9926417 -4.9439449 -0.55597419
4.4140315 -5.4657373 -0.55585742
4.9203081 -6.0926414 -0.55415994
5.5602036 -6.8850007 -0.55235147
6.389926 -7.9124165 -0.54996181
7.5239978 -9.3166971 -0.54779059
9.1389952 -11.316491 -0.54426962
11.646293 -14.421186 -0.53936011
16.0077 -19.821762 -0.52945864
25.660313 -31.774244 -0.50918579
1.3292401 -1.6051648 -0.55842948
1.3802319 -1.6667414 -0.56061733
1.4388754 -1.7375584 -0.56447148
1.4796444 -1.7867901 -0.5600192
1.5436301 -1.864058 -0.56299192
1.5951934 -1.9263248 -0.55992842
1.6643029 -2.0097802 -0.56145418
1.7348813 -2.0950093 -0.56165206
1.7949274 -2.1675198 -0.55674613
1.8906232 -2.2830803 -0.56086975
1.9717951 -2.3811018 -0.55837739
2.0769432 -2.5080764 -0.5602476
2.1866088 -2.6405067 -0.56053412
2.3080509 -2.7871578 -0.56082714
2.4294598 -2.9337687 -0.55795074
2.5803893 -3.1160285 -0.55830836
2.7385566 -3.3070283 -0.55620605
2.9315188 -3.5400457 -0.55659693
3.1577151 -3.8131962 -0.55783409
3.4009035 -4.1068654 -0.55595708
3.697928 -4.4655466 -0.55584294
4.0478668 -4.8881259 -0.55525243
4.467412 -5.3947611 -0.55418396
4.9856777 -6.0206084 -0.55314249
5.6320395 -6.8011427 -0.55113822
6.4822574 -7.8278494 -0.5495826
7.6224418 -9.2047138 -0.54667598
9.2669964 -11.190646 -0.54365653
11.802328 -14.252264 -0.53842944
16.237122 -19.607635 -0.52903223
26.002575 -31.400209 -0.50827724
1.3498522 -1.5898495 -0.55883366
1.4044281 -1.6541287 -0.56214118
1.4519234 -1.7100683 -0.56129849
1.4999896 -1.7666806 -0.5594551
1.5622165 -1.8399712 -0.56147647
1.6269001 -1.9161552 -0.5627448
1.6882689 -1.988435 -0.56124818
1.7517525 -2.0632057 -0.55885834
1.8352576 -2.1615577 -0.56096888
1.9121827 -2.2521596 -0.55900776
2.0107338 -2.3682327 -0.56111521
2.106405 -2.4809139 -0.55992353
2.2130749 -2.606549 -0.5590601
2.3348889 -2.7500212 -0.55908942
2.4697113 -2.9088142 -0.55893821
2.6095386 -3.0735018 -0.55639601
2.7894249 -3.2853713 -0.5582903
2.9746258 -3.5035 -0.55655986
3.1910458 -3.7583985 -0.555516
3.4598484 -4.0749927 -0.55735952
3.7510004 -4.4179101 -0.55561268
4.1060138 -4.8360434 -0.55502951
4.5315509 -5.3372388 -0.55395716
5.053833 -5.9523802 -0.55254173
5.716887 -6.7333221 -0.55129725
6.5799274 -7.7498069 -0.54974234
7.7459874 -9.1231871 -0.54744953
9.4133472 -11.086995 -0.54420328
11.982096 -14.112454 -0.53867316
16.468002 -19.395935 -0.52874398
26.348764 -31.033449 -0.50754666
1.3686082 -1.5723395 -0.55855209
1.4197757 -1.6311237 -0.5602138
1.4707862 -1.6897277 -0.56051594
1.5154951 -1.7410918 -0.55721098
1.5768816 -1.8116164 -0.55869865
1.6363683 -1.8799583 -0.55798149
1.7127969 -1.967764 -0.56131595
1.7724468 -2.0362935 -0.55743009
1.8632389 -2.1406009 -0.56143367
1.9307309 -2.2181399 -0.55641443
2.0295293 -2.3316453 -0.55831712
2.1265812 -2.4431443 -0.55725878
2.2403469 -2.5738451 -0.55791217
2.3605809 -2.7119775 -0.55721414
2.4980223 -2.8698783 -0.55731672
2.659817 -3.0557575 -0.5590623
2.8276064 -3.2485244 -0.55789506
3.0220082 -3.4718647 -0.55739534
3.2416971 -3.7242565 -0.5563193
3.5009725 -4.0221276 -0.55597496
3.8095667 -4.3766594 -0.55627412
4.1650672 -4.78508 -0.55501646
4.5982194 -5.282711 -0.5541243
5.1330814 -5.8971925 -0.55323613
5.792789 -6.6551046 -0.55068356
6.6644783 -7.6565533 -0.54889899
7.8469706 -9.0150719 -0.54671061
9.5347137 -10.954053 -0.54339159
12.125868 -13.930926 -0.53739488
16.677725 -19.160372 -0.52787298
26.684532 -30.656796 -0.5067147
1.3970487 -1.565716 -0.5622592
1.4470967 -1.6218064 -0.56308264
1.4945343 -1.6749711 -0.56167459
1.5506312 -1.7378408 -0.56223023
1.60206 -1.7954785 -0.55975473
1.6554002 -1.8552586 -0.5566501
1.7289385 -1.9376752 -0.55875522
1.8079392 -2.0262136 -0.56071413
1.8930514 -2.1216016 -0.56251335
1.9609382 -2.1976845 -0.55728978
2.0582058 -2.3066955 -0.55836082
2.1553459 -2.4155633 -0.55697089
2.2685444 -2.5424285 -0.55710667
2.3951375 -2.6843054 -0.55753767
2.5390253 -2.8455648 -0.55861592
2.6898041 -3.0145471 -0.55753177
2.8652301 -3.2111526 -0.55748552
3.0652182 -3.4352856 -0.55753177
3.2954423 -3.693305 -0.55770677
3.5554457 -3.9846988 -0.55680239
3.8604736 -4.3265533 -0.55589706
4.2242036 -4.7341967 -0.5550974
4.6547489 -5.2167225 -0.55316454
5.1879201 -5.8142638 -0.55139923
5.8771367 -6.5866899 -0.55096078
6.7643952 -7.581069 -0.54940903
7.9595928 -8.9205637 -0.54687345
9.6646948 -10.831525 -0.54316765
12.2933 -13.777484 -0.53726643
16.892494 -18.931946 -0.52726263
27.028055 -30.291183 -0.50612664
1.4151057 -1.5472299 -0.56182694
1.4628525 -1.5994346 -0.56151813
1.5096368 -1.650587 -0.55968034
1.5564786 -1.7018024 -0.55672085
1.6260966 -1.7779204 -0.56047213
1.6858692 -1.8432736 -0.5592317
1.7547836 -1.9186225 -0.55944097
1.8346989 -2.0059991 -0.56132084
1.9110262 -2.089453 -0.56017762
2.003051 -2.1900699 -0.56156218
2.0924406 -2.2878053 -0.55997407
2.1894531 -2.3938756 -0.55813569
2.3049221 -2.5201259 -0.55838788
2.4331548 -2.660331 -0.55873019
2.5817852 -2.8228385 -0.5603444
2.7333467 -2.9885511 -0.55889779
2.9081416 -3.1796658 -0.55818516
3.1089642 -3.3992386 -0.5578438
3.3281476 -3.6388867 -0.55562717
3.6047516 -3.9413164 -0.5568921
3.9046233 -4.269186 -0.55465323
4.2833138 -4.6832337 -0.55525553
4.7306285 -5.1723132 -0.55458176
5.276474 -5.7691226 -0.55322957
5.9506779 -6.5062747 -0.55031329
6.8661504 -7.5072222 -0.55013436
8.0671921 -8.8204012 -0.54677296
9.7995186 -10.71447 -0.54329932
12.461651 -13.625157 -0.53726119
17.124371 -18.723223 -0.52727413
27.341669 -29.894478 -0.5050776
1.4393307 -1.5353755 -0.56390649
1.4731059 -1.5714045 -0.55799466
1.5310559 -1.6332214 -0.5601334
1.5872141 -1.693127 -0.56022525
1.6508406 -1.7609992 -0.56149471
1.7112778 -1.8254694 -0.56017184
1.78771 -1.9070017 -0.56241983
1.8558991 -1.9797411 -0.56031668
1.9264064 -2.0549531 -0.55723691
2.0192351 -2.1539764 -0.55863166
2.1232402 -2.2649214 -0.56072092
2.2225828 -2.370893 -0.55910707
2.3358538 -2.4917226 -0.55841649
2.4641817 -2.6286135 -0.55839038
2.6114717 -2.785732 -0.55931067
2.754776 -2.9385989 -0.5558489
2.9432123 -3.1396091 -0.55746442
3.1480815 -3.3581493 -0.55741119
3.376585 -3.6019006 -0.55627739
3.6521106 -3.8958116 -0.55676568
