# .PCD v0.7 - Point Cloud Data file format
VERSION 0.7
FIELDS x y z
SIZE 4 4 4
TYPE F F F
COUNT 1 1 1
WIDTH 1454
HEIGHT 1
VIEWPOINT 0 0 0 1 0 0 0
POINTS 1454
DATA ascii
-3.0995991 2.7486339 -0.57169718
-3.3020403 2.9281528 -0.57169974
-3.5372026 3.136688 -0.57250559
-3.798032 3.3679841 -0.57195574
-4.1145358 3.6486502 -0.57337594
-4.4810896 3.9736993 -0.5741812
-4.9182863 4.361393 -0.57510847
-5.4492621 4.8322463 -0.57624513
-6.1105223 5.4186325 -0.5779134
-6.9480977 6.1613703 -0.57960534
-8.0524883 7.1407118 -0.58198053
-9.5725145 8.4886255 -0.58523941
-11.800216 10.464087 -0.59012938
-15.379147 13.637778 -0.59808791
-22.100399 19.597988 -0.61382538
-39.106045 34.678101 -0.6516282
-1.6006594 1.3846372 -0.56709826
-1.6530801 1.4299834 -0.56624305
-1.70666 1.4763323 -0.56462532
-1.7880768 1.5467612 -0.57072413
-1.8498967 1.6002378 -0.5689851
-1.9276196 1.6674715 -0.57060426
-2.0021653 1.7319566 -0.56960839
-2.0848298 1.8034648 -0.56919712
-2.1756604 1.8820372 -0.56910962
-2.2652309 1.9595193 -0.56671411
-2.3887501 2.0663686 -0.57046795
-2.5049973 2.1669271 -0.56984556
-2.6363332 2.2805383 -0.56993556
-2.7784328 2.4034605 -0.56934834
-2.9548638 2.5560806 -0.57229263
-3.1285925 2.7063632 -0.5708636
-3.3311849 2.881614 -0.57056773
-3.5673974 3.0859478 -0.57120776
-3.8531806 3.3331623 -0.57404506
-4.1518912 3.5915594 -0.57238394
-4.5288897 3.9176786 -0.57408988
-4.9636307 4.2937479 -0.57419342
-5.5033598 4.7606363 -0.57573199
-6.1678495 5.3354473 -0.57708669
-7.0165758 6.0696311 -0.57904798
-8.1492453 7.0494375 -0.58266455
-9.687479 8.3800745 -0.58592385
-11.941132 10.329577 -0.59077978
-15.558947 13.459139 -0.59859878
-22.336926 19.322374 -0.61374927
-39.605263 34.260204 -0.65287751
-1.6142147 1.3620261 -0.56592435
-1.6714987 1.4103607 -0.56656879
-1.7465482 1.4736851 -0.57178336
-1.7952554 1.514783 -0.56702727
-1.8583515 1.5680215 -0.56561244
-1.9461638 1.6421149 -0.57007331
-2.0241833 1.7079453 -0.56985438
-2.0969839 1.7693723 -0.56653249
-2.1921332 1.8496566 -0.56742626
-2.2976899 1.938722 -0.56882751
-2.4125116 2.0356052 -0.57012177
-2.5309172 2.1355124 -0.56972528
-2.6683178 2.251447 -0.57082194
-2.8172884 2.3771439 -0.57127744
-2.9802017 2.514605 -0.57116812
-3.1596117 2.6659861 -0.57049882
-3.3791111 2.851193 -0.57272822
-3.605504 3.0422165 -0.57127637
-3.8687193 3.2643099 -0.57033694
-4.1923709 3.5373971 -0.57192463
-4.5755901 3.8607464 -0.57394856
-5.0314879 4.2454195 -0.57596076
-5.5662489 4.6966348 -0.57622582
-6.2340875 5.2601371 -0.57718873
-7.0987864 5.9897442 -0.57971036
-8.2266912 6.9414368 -0.58205503
-9.7939806 8.2638683 -0.58617496
-12.070145 10.184427 -0.59092212
-15.726522 13.26957 -0.59872305
-22.599966 19.069176 -0.61448747
-40.086498 33.823792 -0.65390491
-1.6347992 1.3453342 -0.56729841
-1.6914456 1.3919505 -0.56748545
-1.7477214 1.4382619 -0.56633478
-1.8051726 1.4855404 -0.56434733
-1.8900708 1.5554061 -0.56940228
-1.9691168 1.620456 -0.57091689
-2.0418644 1.6803225 -0.56897223
-2.1225364 1.7467104 -0.56759036
-2.2257288 1.8316311 -0.57024938
-2.3276303 1.9154894 -0.57036555
-2.4339023 2.0029442 -0.56931335
-2.5548096 2.1024432 -0.56924099
-2.7072024 2.2278528 -0.57323664
-2.843313 2.3398628 -0.57067716
-3.0029924 2.4712687 -0.56966907
-3.189249 2.6245458 -0.56997991
-3.4130921 2.8087544 -0.57259059
-3.6418176 2.9969807 -0.5711478
-3.9125335 3.2197623 -0.5709163
-4.2495031 3.4970667 -0.57380897
-4.6314287 3.8113666 -0.57503045
-5.06001 4.1640611 -0.57332104
-5.6265707 4.6303043 -0.57653272
-6.3040409 5.1878185 -0.57771552
-7.1770773 5.906271 -0.58012909
-8.3142433 6.8420849 -0.58225286
-9.8930979 8.1413803 -0.58607125
-12.20699 10.045565 -0.59152961
-15.900959 13.085462 -0.59919292
-22.869772 18.820345 -0.61548454
-40.569447 33.386032 -0.65503669
-1.65922 1.3315541 -0.57004786
-1.7119823 1.3738967 -0.56866455
-1.7630051 1.4148434 -0.56560701
-1.8401636 1.4767646 -0.56956649
-1.9069406 1.5303544 -0.56877244
-1.9666675 1.5782862 -0.56453717
-2.0699289 1.6611553 -0.57105744
-2.1533644 1.728114 -0.57010859
-2.2418275 1.7991071 -0.56866294
-2.3553026 1.890173 -0.57140779
-2.4602647 1.9744068 -0.56975782
-2.577951 2.0688522 -0.56868595
-2.7166235 2.1801395 -0.56951195
-2.8740251 2.3064573 -0.5711059
-3.0333111 2.4342871 -0.56969911
-3.2265818 2.5893903 -0.57091832
-3.4461811 2.7656226 -0.57239324
-3.6912024 2.9622567 -0.57313693
-3.9673824 3.1838961 -0.57316357
-4.293889 3.4459236 -0.57403737
-4.6713243 3.7488222 -0.57421708
-5.1328163 4.1191778 -0.57578772
-5.691782 4.5677581 -0.57741576
-6.3852353 5.1242671 -0.57933819
-7.248693 5.8172073 -0.58009207
-8.403244 6.7437553 -0.58263439
-10.005814 8.0298462 -0.58685488
-12.330973 9.8958282 -0.59159625
-16.075308 12.900725 -0.59973979
-23.104584 18.541847 -0.61562133
-41.05574 32.947971 -0.65629733
-1.6668282 1.3042927 -0.56710875
-1.7281682 1.3522912 -0.56847459
-1.782982 1.3951831 -0.56646925
-1.8570018 1.4531035 -0.56920469
-1.9196378 1.5021162 -0.56700748
-1.9881148 1.5556995 -0.56515974
-2.0713031 1.6207943 -0.56589544
-2.1654949 1.6944994 -0.56776077
-2.2712431 1.7772473 -0.57053798
-2.3685138 1.8533616 -0.56904101
-2.4916213 1.9496931 -0.57142425
-2.6109231 2.0430467 -0.57037443
-2.737 2.1417019 -0.56821978
-2.8919883 2.2629802 -0.56910282
-3.0684924 2.4010947 -0.57071835
-3.2519455 2.5446467 -0.5698266
-3.4764802 2.720345 -0.57182658
-3.719842 2.9107757 -0.5719831
-4.0016713 3.1313069 -0.57251137
-4.3274899 3.38626 -0.57291949
-4.7213793 3.6944785 -0.57474232
-5.18332 4.0559468 -0.57581484
-5.7324147 4.4856133 -0.57589877
-6.4379582 5.0377007 -0.57845759
-7.3307524 5.7363124 -0.58097035
-8.4739628 6.6308742 -0.58184034
-10.09705 7.900939 -0.58646345
-12.465854 9.754528 -0.59226799
-16.247673 12.713801 -0.60029244
-23.362352 18.281036 -0.61645335
-41.514328 32.484951 -0.65719295
-1.6840031 1.2846638 -0.56753474
-1.73698 1.3250779 -0.5659706
-1.8071023 1.3785716 -0.56870383
-1.8748294 1.4302381 -0.56923544
-1.9364507 1.4772468 -0.56656533
-2.0163159 1.5381728 -0.56775683
-2.0982404 1.6006701 -0.56783456
-2.190412 1.6709845 -0.56886345
-2.2883282 1.745681 -0.56939447
-2.3952138 1.8272202 -0.5700146
-2.502315 1.9089237 -0.56845051
-2.6398516 2.0138452 -0.5712412
-2.767339 2.1111007 -0.56908602
-2.9286284 2.2341425 -0.57086384
-3.0933566 2.3598075 -0.56990278
-3.2824674 2.5040731 -0.56973636
-3.5158224 2.682091 -0.57282972
-3.7535601 2.8634524 -0.57171041
-4.0260944 3.0713589 -0.5705592
-4.3704586 3.3340614 -0.57313716
-4.7630129 3.6335268 -0.57432806
-5.2218981 3.9835932 -0.57461548
-5.7990294 4.4238653 -0.57708246
-6.5116591 4.967504 -0.57954752
-7.401011 5.6459579 -0.5809924
-8.5857038 6.5497165 -0.58393866
-10.191095 7.7744098 -0.58632898
-12.595528 9.6086636 -0.59277058
-16.414448 12.521976 -0.60071993
-23.599531 18.00321 -0.61682373
-41.999336 32.039745 -0.65858436
-1.7013513 1.26511 -0.56809562
-1.7581378 1.307336 -0.56758368
-1.8253574 1.35732 -0.56915325
-1.8787427 1.3970168 -0.56516516
-1.963668 1.4601665 -0.56923229
-2.0268223 1.5071275 -0.56545413
-2.1276371 1.5820925 -0.57048213
-2.2071979 1.6412532 -0.56793863
-2.317179 1.7230341 -0.57125819
-2.417989 1.7979957 -0.57013005
-2.5340281 1.8842813 -0.57034808
-2.6610661 1.9787456 -0.57052356
-2.7964287 2.0794001 -0.56976694
-2.9485123 2.1924882 -0.5694415
-3.1169434 2.3177319 -0.56895459
-3.3270459 2.4739625 -0.57215041
-3.5371718 2.6302104 -0.57099551
-3.7884943 2.8170917 -0.57171202
-4.0887589 3.0403659 -0.57409817
-4.4184084 3.2854903 -0.57408386
-4.8210235 3.5848711 -0.57596415
-5.2797341 3.9259646 -0.57562399
-5.8523254 4.3517385 -0.57701749
-6.5698876 4.8853111 -0.57933968
-7.4791889 5.56146 -0.58171713
-8.6633053 6.4419589 -0.58378488
-10.300213 7.6591487 -0.58714402
-12.704341 9.4468374 -0.59237987
-16.578199 12.327406 -0.60111982
-23.844097 17.730263 -0.61747092
-42.44648 31.562836 -0.65946013
-1.7120303 1.2406549 -0.56652457
-1.7694116 1.2822374 -0.56609035
-1.8517841 1.3419302 -0.57220489
-1.9113191 1.3850733 -0.56979829
-1.9797412 1.4346567 -0.56873477
-2.0543864 1.4887497 -0.56799394
-2.1458466 1.5550281 -0.57019448
-2.2357686 1.6201917 -0.57012075
-2.3293219 1.687987 -0.56909174
-2.4385352 1.7671304 -0.56980795
-2.554543 1.8511976 -0.56979895
-2.6811185 1.9429229 -0.5696575
-2.8163075 2.0408902 -0.56866103
-2.9846313 2.1628692 -0.5712375
-3.1458697 2.2797136 -0.56907475
-3.3560281 2.4320087 -0.57194847
-3.5631847 2.5821288 -0.5700261
-3.8319829 2.7769184 -0.57307845
-4.1140089 2.9812942 -0.5724529
-4.4558239 3.2289965 -0.57374299
-4.8647518 3.5253339 -0.57596588
-5.330781 3.8630507 -0.57596689
-5.8876824 4.2666197 -0.57528722
-6.6263323 4.8018961 -0.57906646
-7.5333786 5.4592047 -0.58066684
-8.7497044 6.3406377 -0.58430886
-10.402444 7.5383267 -0.58764315
-12.837767 9.3031292 -0.59322238
-16.742182 12.132537 -0.60161072
-24.083487 17.452551 -0.61806601
-42.89296 31.083189 -0.66040862
-1.7297256 1.2213256 -0.56736767
-1.7764174 1.2542938 -0.56335473
-1.8471096 1.304208 -0.56576216
-1.9183625 1.3545184 -0.56688982
-2.0013967 1.4131473 -0.56992084
-2.067986 1.4601648 -0.56674701
-2.1554909 1.5219502 -0.56774145
-2.2489541 1.5879427 -0.56846094
-2.3516133 1.6604284 -0.56950647
-2.4495006 1.7295448 -0.56735784
-2.5845122 1.8248738 -0.57143533
-2.7038212 1.9091154 -0.56945026
-2.8520703 2.0137913 -0.57083899
-3.0053337 2.1220076 -0.57016265
-3.1817334 2.2465601 -0.57052201
-3.3773386 2.3846731 -0.57053977
-3.6006393 2.5423415 -0.57097363
-3.8745809 2.7357662 -0.57437468
-4.1578341 2.9357655 -0.57348454
-4.4906974 3.170794 -0.57316965
-4.8997765 3.4596367 -0.57503247
-5.3755064 3.7955403 -0.5757131
-5.9648824 4.2116876 -0.57772648
-6.6812901 4.7175288 -0.57875609
-7.5988312 5.3653865 -0.58058262
-8.816596 6.2252269 -0.58361989
-10.484792 7.4031072 -0.58710819
-12.94028 9.1368799 -0.59272295
-16.894676 11.929002 -0.60177404
-24.312378 17.166496 -0.61847615
-43.327496 30.592701 -0.66125709
-1.7451329 1.2003238 -0.56753719
-1.8192407 1.2512962 -0.57201248
-1.8752308 1.2898067 -0.56947464
-1.9293489 1.3270299 -0.56527168
-2.0190256 1.3887105 -0.5700351
-2.0860209 1.4347907 -0.56681156
-2.1804948 1.4997711 -0.56942677
-2.276711 1.5659498 -0.57056665
-2.3721416 1.6315882 -0.5695762
-2.4783561 1.7046437 -0.5691433
-2.6008275 1.7888809 -0.57013595
-2.7260149 1.8749864 -0.56922567
-2.8771555 1.9789429 -0.57094616
-3.0336306 2.0865684 -0.5706203
-3.206079 2.2051804 -0.56998217
-3.4030371 2.3406508 -0.56997585
-3.6280291 2.4954031 -0.57040805
-3.8996027 2.6821945 -0.57315135
-4.1825123 2.8767834 -0.57196599
-4.5480142 3.12818 -0.5755322
-4.9338231 3.393544 -0.5740875
-5.4308214 3.7353857 -0.5766744
-6.0153518 4.1374326 -0.57764345
-6.745913 4.6399217 -0.57936788
-7.6714382 5.2765093 -0.5811289
-8.9039593 6.1242528 -0.58437383
-10.595433 7.2876692 -0.58824128
-13.059058 8.9821806 -0.59305966
-17.063129 11.73623 -0.6025883
-24.550468 16.886112 -0.61920393
-43.779438 30.112036 -0.66245347
-1.7501252 1.1723222 -0.56442994
-1.818823 1.2183393 -0.56712782
-1.8771161 1.257387 -0.56530911
-1.9459491 1.3034948 -0.56539643
-2.0248442 1.3563428 -0.56692624
-2.1277227 1.425256 -0.57333732
-2.1965852 1.4713835 -0.56886077
-2.2975538 1.5390174 -0.57100421
-2.392107 1.6023539 -0.56959605
-2.4943657 1.6708519 -0.56805867
-2.6195333 1.7546954 -0.56946361
-2.747586 1.8404717 -0.56896132
-2.9079051 1.9478616 -0.57225192
-3.0553107 2.0466011 -0.56992149
-3.244169 2.1731081 -0.57196003
-3.4502969 2.311183 -0.57308811
-3.6618588 2.4528978 -0.57094151
-3.9254811 2.6294854 -0.57215941
-4.23102 2.8341506 -0.57379031
-4.5820136 3.0692637 -0.57501525
-4.989799 3.3424191 -0.57577497
-5.4667091 3.6618774 -0.57566029
-6.0666838 4.0637708 -0.57773054
-6.8039804 4.5576491 -0.57949793
-7.7375908 5.1830287 -0.58126825
-8.9831724 6.0173817 -0.58467221
-10.683394 7.1562762 -0.58819479
-13.175079 8.8253326 -0.59335542
-17.205936 11.525404 -0.60258108
-24.764381 16.588432 -0.61940771
-44.20871 29.613224 -0.66338891
-1.7680459 1.1530879 -0.56559396
-1.8482817 1.2054162 -0.57164836
-1.9072181 1.2438534 -0.56972528
-1.9658389 1.2820848 -0.56655204
-2.0286725 1.3230637 -0.56340039
-2.1351998 1.3925391 -0.57069492
-2.2148693 1.4444981 -0.56895298
-2.3196211 1.5128154 -0.57182217
-2.4025984 1.5669316 -0.56746334
-2.5204325 1.6437808 -0.56934881
-2.6471934 1.7264522 -0.57081854
-2.7871265 1.817714 -0.57247746
-2.9259129 1.9082278 -0.57113487
-3.0927999 2.0170686 -0.5722447
-3.2580223 2.1248238 -0.56975287
-3.4739347 2.2656379 -0.57234359
-3.6983018 2.4119661 -0.57195604
-3.9492545 2.575633 -0.57096511
-4.269114 2.7842395 -0.57427007
-4.6076498 3.0050266 -0.57355189
-5.0304956 3.2807992 -0.57577229
-5.5110302 3.5941951 -0.57562995
-6.1219358 3.9926167 -0.57827312
-6.8544345 4.4703393 -0.57906955
-7.7954388 5.0840454 -0.58087367
-9.0430937 5.8977432 -0.58380795
-10.76623 7.0215421 -0.58795738
-13.289952 8.667469 -0.59368402
-17.363506 11.324168 -0.60317719
-25.006393 16.308722 -0.6203981
-44.649937 29.119888 -0.66458642
-1.7885015 1.1353315 -0.5676288
-1.8546779 1.17734 -0.56910604
-1.9038236 1.2085375 -0.56422937
-1.9881325 1.2620562 -0.56846154
-2.062988 1.3095742 -0.56841546
-2.1419666 1.3597094 -0.56799179
-2.2405889 1.4223142 -0.57102394
-2.33077 1.4795607 -0.57004249
-2.4270229 1.5406616 -0.56871462
-2.5532584 1.6207954 -0.57221866
-2.6597586 1.688401 -0.56900811
-2.8031552 1.7794284 -0.57123226
-2.9455028 1.86979 -0.57042766
-3.1078045 1.9728183 -0.57048929
-3.2827241 2.0838563 -0.56954855
-3.4948258 2.2184973 -0.57124788
-3.7213299 2.3622811 -0.57098192
-3.9916778 2.5338964 -0.57255048
-4.2942214 2.7259495 -0.57309514
-4.6535997 2.9540811 -0.57470661
-5.074729 3.2214119 -0.57625771
-5.5564547 3.5272088 -0.57580078
-6.1664634 3.9144392 -0.57788885
-6.905087 4.3833137 -0.57875156
-7.8619294 4.9907122 -0.58121145
-9.1333027 5.7977734 -0.58498502
-10.873378 6.9023643 -0.58912927
-13.406482 8.5103655 -0.59416991
-17.510191 11.115379 -0.60347909
-25.212618 16.004839 -0.62058491
-45.075169 28.613485 -0.66562849
-1.8013808 1.1126714 -0.56733114
-1.8646477 1.15175 -0.56777656
-1.9345043 1.1948987 -0.56892455
-2.0070081 1.2396827 -0.56945693
-2.0784631 1.2838187 -0.56828666
-2.1577888 1.3328164 -0.56779861
-2.2413754 1.3844459 -0.56684291
-2.3447123 1.4482747 -0.56905383
-2.4662488 1.5233451 -0.57347363
-2.5571282 1.5794792 -0.56869024
-2.6835189 1.6575477 -0.56968778
-2.822376 1.7433167 -0.57073766
-2.9664314 1.8322963 -0.57007432
-3.1338718 1.9357204 -0.57086194
-3.3280933 2.0556865 -0.57299107
-3.5216894 2.1752663 -0.57122362
-3.7521408 2.317611 -0.57129353
-4.0206375 2.4834552 -0.57228094
-4.3332376 2.6765409 -0.57386643
-4.6798997 2.890666 -0.57352149
-5.1084862 3.1553941 -0.57564151
-5.626267 3.4752154 -0.57856321
-6.2107129 3.8362141 -0.57757127
-6.9580669 4.2978377 -0.57871884
-7.9345689 4.9010005 -0.58208227
-9.1978416 5.6812949 -0.58460003
-10.94211 6.7586889 -0.58830583
-13.512461 8.3463354 -0.59427339
-17.633047 10.891527 -0.60305196
-25.428949 15.706876 -0.62110883
-45.481628 28.092953 -0.66647911
-1.8212975 1.0942668 -0.569323
-1.8829406 1.131303 -0.56906784
-1.9522494 1.1729449 -0.56985849
-2.0139468 1.2100137 -0.56716114
-2.0947542 1.2585641 -0.56846654
-2.1789734 1.3091645 -0.569094
-2.2719977 1.3650551 -0.57029915
-2.3508286 1.4124181 -0.56628036
-2.46368 1.4802212 -0.56860095
-2.5799029 1.5500499 -0.56947327
-2.7056377 1.6255934 -0.57009679
-2.8259759 1.6978947 -0.56720072
-3.0046182 1.805226 -0.57310361
-3.1506238 1.8929487 -0.56963032
-3.3442495 2.0092824 -0.57147568
-3.5600557 2.1389425 -0.57313722
-3.7894032 2.2767384 -0.57266116
-4.0482955 2.4322853 -0.57191736
-4.3631496 2.6214552 -0.57351553
-4.7242208 2.8383927 -0.57463235
-5.1420979 3.0894606 -0.57510471
-5.6558762 3.3981473 -0.57726747
-6.25845 3.760184 -0.57766718
-7.0140533 4.2141633 -0.57902163
-7.9834619 4.7966008 -0.58129823
-9.2596626 5.563364 -0.58413708
-11.025286 6.6241803 -0.58835393
-13.606754 8.1751709 -0.59395438
-17.790718 10.688969 -0.60390353
-25.652372 15.412384 -0.62188995
-45.877644 27.564075 -0.66726506
-1.832858 1.0707641 -0.56877792
-1.8986195 1.1091822 -0.56964123
-1.9503547 1.1394062 -0.56517303
-2.0306578 1.1863196 -0.56771618
-2.1007864 1.2272891 -0.56596535
-2.1944704 1.2820196 -0.56898117
-2.2830529 1.33377 -0.56891441
-2.3872297 1.3946306 -0.57087475
-2.4751542 1.4459964 -0.56710255
-2.596612 1.5169526 -0.56900108
-2.7259369 1.5925049 -0.57020479
-2.8708816 1.6771822 -0.5720312
-3.0086389 1.7576606 -0.56970501
-3.189755 1.8634695 -0.57251906
-3.3584466 1.9620199 -0.56973594
-3.5777736 2.0901518 -0.5718087
-3.8193903 2.2313054 -0.57300317
-4.0842066 2.3860123 -0.57280242
-4.4011478 2.5711706 -0.5743109
-4.774261 2.7891452 -0.57650369
-5.1891532 3.0315273 -0.57615483
-5.688848 3.323451 -0.5764181
-6.3089685 3.6857283 -0.57810313
-7.082881 4.1378517 -0.5804593
-8.0532284 4.7047329 -0.58212179
-9.3394756 5.4561644 -0.58489537
-11.115306 6.4936128 -0.58885223
-13.726107 8.0188541 -0.59481514
-17.923847 10.471194 -0.60400617
-25.841015 15.09644 -0.62191594
-46.288467 27.041935 -0.66835338
-1.8418423 1.0458515 -0.56753224
-1.9090316 1.0840036 -0.56872296
-1.9715835 1.1195223 -0.56729263
-2.0563517 1.1676562 -0.57084227
-2.1314168 1.2102803 -0.57016486
-2.1947305 1.2462317 -0.5650326
-2.3033276 1.3078963 -0.56991595
-2.398211 1.3617738 -0.56945336
-2.5005648 1.4198933 -0.56888121
-2.6168721 1.4859359 -0.56939375
-2.7330363 1.5518973 -0.56765521
-2.8923476 1.6423589 -0.57224113
-3.0285628 1.7197059 -0.56943053
-3.2081585 1.8216856 -0.57175851
-3.3879335 1.9237671 -0.57068205
-3.6098349 2.0497692 -0.57286119
-3.8417907 2.1814802 -0.5722962
-4.1073375 2.3322654 -0.57198107
-4.4199071 2.5097516 -0.57268846
-4.7967224 2.7237184 -0.57512826
-5.2226601 2.9655778 -0.57578266
-5.7394743 3.2590401 -0.5774436
-6.3551908 3.6086619 -0.57822877
-7.1206284 4.0432997 -0.57943439
-8.1076899 4.6037817 -0.58192247
-9.4070845 5.3416157 -0.58497179
-11.18759 6.3526382 -0.58849883
-13.827459 7.8516326 -0.59497839
-18.06979 10.260551 -0.60462683
-26.062845 14.79924 -0.62282795
-46.680443 26.506512 -0.66925633
-1.8698251 1.0315461 -0.57220292
-1.9209096 1.0597285 -0.56833655
-1.9850878 1.0951343 -0.56726068
-2.0566463 1.1346118 -0.5670082
-2.1369348 1.1789054 -0.56772023
-2.2349665 1.2329875 -0.57144487
-2.3239453 1.2820754 -0.57107347
-2.4246576 1.3376365 -0.57178426
-2.5281219 1.3947158 -0.57120568
-2.6310182 1.4514816 -0.56854528
-2.763536 1.5245891 -0.57005316
-2.8987374 1.5991771 -0.56957179
-3.0552962 1.6855475 -0.57051682
-3.2330036 1.7835852 -0.57223439
-3.4187295 1.8860466 -0.57191974
-3.6321042 2.0037613 -0.57244182
-3.8761482 2.1383958 -0.57345396
-4.1450663 2.2867525 -0.57327598
-4.4588103 2.4598389 -0.57376665
-4.8335137 2.6665554 -0.57556456
-5.2674704 2.905961 -0.57673985
-5.7671447 3.1816218 -0.57624781
-6.3955259 3.5282874 -0.57790756
-7.1861181 3.9644418 -0.58075279
-8.1791763 4.5122929 -0.58302689
-9.4820719 5.2310748 -0.5855906
-11.27707 6.2213402 -0.58913702
-13.935272 7.687819 -0.59550482
-18.219595 10.051396 -0.60545796
-26.261967 14.488216 -0.6232819
-47.054676 25.959152 -0.66999459
-1.8626602 0.99791968 -0.56621242
-1.9273506 1.0325776 -0.56644279
-2.009671 1.0766807 -0.57045925
-2.0848191 1.1169412 -0.57094562
-2.1424866 1.1478366 -0.56540269
-2.2410643 1.2006496 -0.56918615
-2.3279517 1.2471995 -0.56824642
-2.4378591 1.3060824 -0.57106698
-2.5395439 1.3605598 -0.56996328
-2.6543279 1.4220554 -0.56976062
-2.7789896 1.4888428 -0.56942135
-2.9295356 1.5694978 -0.57178795
-3.0744212 1.6471202 -0.57026291
-3.2500184 1.7411964 -0.57141316
-3.4463327 1.8463718 -0.57269603
-3.6618655 1.9618434 -0.57328701
-3.9015064 2.0902309 -0.57335967
-4.1780052 2.2383652 -0.57398152
-4.4926863 2.4069555 -0.57427382
-4.8742394 2.6113725 -0.57654691
-5.3022757 2.8406925 -0.57668251
-5.8175921 3.1167734 -0.57741541
-6.4424782 3.451556 -0.57827145
-7.2156105 3.8657613 -0.57925087
-8.2297506 4.4090867 -0.5827232
-9.5424433 5.1123614 -0.58539242
-11.358659 6.0853982 -0.58944565
-14.020183 7.5113091 -0.59514135
-18.335375 9.8231716 -0.60524571
-26.444706 14.167744 -0.62343711
-47.452061 25.422428 -0.67115098
-1.8857299 0.98063123 -0.5695166
-1.9464326 1.0121982 -0.5683499
-2.0146921 1.047695 -0.56818455
-2.1000867 1.0921025 -0.57140589
-2.1699991 1.1284591 -0.56895834
-2.2722888 1.1816524 -0.57338279
-2.3458641 1.2199136 -0.56891418
-2.4498312 1.2739793 -0.57015866
-2.5617781 1.3321947 -0.57123369
-2.6730497 1.390059 -0.57006717
-2.8078878 1.4601786 -0.57162046
-2.9314225 1.52442 -0.56845462
-3.1025229 1.6133969 -0.57175231
-3.2682643 1.699587 -0.5709036
-3.4648502 1.8018169 -0.57204819
-3.6845112 1.9160467 -0.57310039
-3.9370029 2.0473495 -0.57483298
-4.2153606 2.1921031 -0.57536685
-4.5163932 2.3486483 -0.57356924
-4.8890424 2.5424361 -0.57455647
-5.3418131 2.7778893 -0.57722396
-5.8579431 3.0462909 -0.57765883
-6.4928436 3.3764567 -0.57902175
-7.2727222 3.7820148 -0.58005846
-8.2701244 4.3006911 -0.58179349
-9.6009054 4.992734 -0.58516842
-11.430536 5.9441919 -0.589338
-14.115364 7.3403764 -0.59530526
-18.467485 9.6035986 -0.60566276
-26.643116 13.85515 -0.62405097
-47.82233 24.868921 -0.67201197
-1.8865969 0.95179737 -0.56620097
-1.9546418 0.9861263 -0.56716341
-2.0351934 1.026765 -0.57036263
-2.0949163 1.0568954 -0.56642026
-2.182884 1.1012756 -0.56874305
-2.2746015 1.1475475 -0.57036257
-2.369802 1.1955765 -0.57111102
-2.460151 1.2411581 -0.56896544
-2.5752399 1.299221 -0.57063001
-2.6980505 1.3611796 -0.57178617
-2.8233035 1.4243703 -0.57114995
-2.966881 1.4968059 -0.57171834
-3.1259181 1.5770409 -0.57244676
-3.2991152 1.6644197 -0.57267421
-3.481741 1.7565552 -0.57122761
-3.6879485 1.860588 -0.57003337
-3.948163 1.9918674 -0.57284302
-4.2149177 2.1264465 -0.57169414
-4.5440631 2.2925019 -0.57345986
-4.9185634 2.4814391 -0.57439649
-5.3699527 2.7091672 -0.57662129
-5.898428 2.9757855 -0.577999
-6.5285692 3.293695 -0.57855213
-7.3171802 3.6915531 -0.57994002
-8.3397255 4.2074323 -0.58300614
-9.6724081 4.879777 -0.58582491
-11.509227 5.8064609 -0.58966935
-14.226085 7.1771293 -0.59620768
-18.580177 9.3737898 -0.60553259
-26.825396 13.533543 -0.6243754
-48.160461 24.297188 -0.67251426
-1.9070672 0.9328872 -0.56885874
-1.9763976 0.96680182 -0.56998348
-2.0432389 0.99949872 -0.56912994
-2.1061718 1.0302839 -0.56599534
-2.2036986 1.0779915 -0.57066941
-2.2813509 1.1159769 -0.56857103
-2.3716877 1.1601673 -0.56808448
-2.4762843 1.2113333 -0.5692088
-2.5758514 1.2600389 -0.56728935
-2.7144766 1.3278507 -0.57176381
-2.8433921 1.3909128 -0.57171065
-2.981714 1.4585762 -0.57107735
-3.1304038 1.5313114 -0.56977689
-3.2995 1.6140287 -0.56925291
-3.5052271 1.7146651 -0.57157844
-3.7251885 1.8222643 -0.57228273
-3.9657047 1.9399185 -0.57188386
-4.2570109 2.082418 -0.57388699
-4.5842071 2.2424736 -0.57500261
-4.9553113 2.4240081 -0.5751636
-5.3975387 2.6403341 -0.57605362
-5.9292374 2.9004273 -0.57747954
-6.5625558 3.2102299 -0.57802212
-7.3688469 3.6046464 -0.58047807
-8.3839073 4.1011872 -0.58252525
-9.724968 4.7571993 -0.58542109
-11.592307 5.6706524 -0.59030885
-14.306478 6.9983535 -0.59592533
-18.704109 9.149559 -0.60585916
-26.99818 13.2068 -0.62456989
-48.533962 23.741539 -0.67360228
-1.9118634 0.90627289 -0.56692243
-1.9871147 0.94194394 -0.56969082
-2.0582609 0.97566915 -0.56992942
-2.1409929 1.0148863 -0.57195598
-2.2103484 1.0477625 -0.56901205
-2.2819905 1.0817227 -0.56537271
-2.3798671 1.1281188 -0.56667817
-2.4927173 1.1816127 -0.56960326
-2.6045785 1.2346379 -0.57022941
-2.7279866 1.2931365 -0.571217
-2.8611197 1.3562449 -0.57187867
-2.994246 1.4193503 -0.57009166
-3.1507456 1.4935353 -0.57009357
-3.3336918 1.5802565 -0.57175624
-3.5272813 1.6720228 -0.57177883
-3.7437105 1.774616 -0.57173264
-3.9995801 1.8959048 -0.57336372
-4.2690787 2.0236542 -0.57211602
-4.6027093 2.1818037 -0.57391489
-4.9895563 2.3651791 -0.57571918
-5.424933 2.571559 -0.57555902
-5.964179 2.8271756 -0.5774532
-6.6133246 3.1348875 -0.57905471
-7.4130254 3.5139663 -0.58051056
-8.4385996 4.0001149 -0.58286369
-9.7921858 4.6417499 -0.58598721
-11.655402 5.5249634 -0.59001762
-14.396845 6.8244781 -0.59614897
-18.821888 8.9220629 -0.60607469
-27.195971 12.891596 -0.62543112
-48.869877 23.165588 -0.67425996
-1.9180776 0.88050061 -0.56551176
-1.9953523 0.9159739 -0.56878042
-2.0636055 0.94730574 -0.56814086
-2.1313653 0.97841114 -0.56612718
-2.2316291 1.0244377 -0.57120436
-2.3090365 1.0599718 -0.56880128
-2.404959 1.1040053 -0.5693773
-2.5108333 1.1526074 -0.57046109
-2.6159346 1.2008545 -0.56943977
-2.7310462 1.2536969 -0.56858665
-2.868835 1.3169494 -0.5701409
-3.0052528 1.3795725 -0.56891447
-3.1710169 1.4556671 -0.57047957
-3.3400314 1.5332539 -0.56956691
-3.5421326 1.6260291 -0.57090199
-3.7849634 1.7375015 -0.5747264
-4.0041914 1.8381389 -0.57074142
-4.310307 1.9786625 -0.57433712
-4.6369843 2.1286249 -0.57488149
-5.0220251 2.3053794 -0.57615113
-5.4483442 2.5010829 -0.57473654
-6.0058875 2.757025 -0.57816529
-6.6519442 3.0535998 -0.57910472
-7.4552283 3.4223504 -0.58047605
-8.4854069 3.8952577 -0.58274436
-9.853301 4.5231943 -0.58627182
-11.724059 5.3819728 -0.59009844
-14.482827 6.648396 -0.59627908
-18.945692 8.6970901 -0.60657173
-27.359522 12.55949 -0.62559342
-49.226521 22.597618 -0.67529577
-1.9299179 0.85736525 -0.56585163
-2.0115852 0.89364588 -0.57023221
-2.0733051 0.92106491 -0.56765026
-2.1543739 0.95707965 -0.56906968
-2.2434971 0.99667263 -0.57106197
-2.3235309 1.0322276 -0.56920201
-2.4313941 1.0801458 -0.57244813
-2.5227835 1.1207455 -0.57000208
-2.6339071 1.1701121 -0.5701769
-2.7522812 1.2226998 -0.56983435
-2.8835592 1.2810199 -0.56989354
-3.0454471 1.3529385 -0.57333082
-3.1944499 1.4191331 -0.5715127
-3.3762133 1.4998814 -0.57254857
-3.5781672 1.5895993 -0.57351607
-3.7726505 1.6759984 -0.56968433
-4.0306511 1.7906151 -0.57133132
-4.3227391 1.920375 -0.57280385
-4.6574631 2.0690761 -0.57422268
-5.0472994 2.2422607 -0.57584399
-5.4985843 2.4427438 -0.57682407
-6.0285916 2.6781993 -0.57713705
-6.6886749 2.971441 -0.57907772
-7.4945216 3.3294382 -0.58030397
-8.5397148 3.7937646 -0.58322614
-9.9123135 4.4035411 -0.58651692
-11.794582 5.239738 -0.59036046
-14.563544 6.4698482 -0.59628177
-19.06624 8.4701691 -0.60705078
-27.524895 12.227922 -0.6258893
-49.542007 22.009016 -0.67585999
-1.9518445 0.83852464 -0.56921428
-2.0162344 0.86618704 -0.56848788
-2.0895741 0.89769417 -0.56903929
-2.1699827 0.93223822 -0.57012159
-2.2492485 0.96629131 -0.56945843
-2.3360679 1.0035895 -0.56920713
-2.435986 1.046515 -0.57045633
-2.5390904 1.0908092 -0.57061273
-2.6462765 1.136857 -0.5697853
-2.7584007 1.1850263 -0.5680415
-2.9070349 1.2488805 -0.57145488
-3.0434515 1.3074859 -0.56988531
-3.2204876 1.3835417 -0.573084
-3.3822908 1.4530535 -0.5705061
-3.5950181 1.5444424 -0.57312971
-3.80598 1.6350729 -0.57163799
-4.0811849 1.7533027 -0.57539481
-4.3489585 1.8683399 -0.57319057
-4.6889377 2.0143971 -0.57500583
-5.0684919 2.1774559 -0.5751636
-5.5241508 2.37321 -0.57640123
-6.0589838 2.6029778 -0.57693881
-6.7271762 2.8900373 -0.57929051
-7.5497541 3.243422 -0.58144855
-8.5914993 3.6909623 -0.58361906
-9.9696693 4.2830329 -0.58675003
-11.868921 5.0989633 -0.59089839
-14.668013 6.3014703 -0.59734136
-19.186077 8.2424593 -0.6075933
-27.693129 11.897142 -0.62634093
-49.869106 21.424084 -0.67667729
-1.9633702 0.81502813 -0.56960976
-2.0245004 0.84040433 -0.5678618
-2.0930822 0.86887378 -0.56704223
-2.1656578 0.89900118 -0.56603819
-2.2595415 0.93797392 -0.56910127
-2.3460879 0.97390079 -0.56868762
-2.450815 1.0173748 -0.57095623
-2.5498366 1.0584803 -0.5700596
-2.6590524 1.1038176 -0.5695706
-2.7825046 1.1550647 -0.57003725
-2.9119458 1.2087979 -0.56945533
-3.0582647 1.2695374 -0.56969291
-3.2197566 1.3365754 -0.56998616
-3.4031816 1.4127182 -0.57105649
-3.603883 1.4960327 -0.57156706
-3.8311675 1.5903823 -0.57244051
-4.0817828 1.694417 -0.57249826
-4.3685117 1.8134431 -0.57278538
-4.700922 1.9514322 -0.57348955
-5.094552 2.1148348 -0.57512635
-5.5541902 2.3056383 -0.57653373
-6.1022778 2.5331588 -0.57805157
-6.7719769 2.8111622 -0.58012789
-7.5890031 3.1503236 -0.58144397
-8.6261292 3.5808523 -0.58293629
-10.008041 4.1545072 -0.58595747
-11.938861 4.9560227 -0.59130168
-14.734842 6.1166821 -0.59695482
-19.27384 8.0008965 -0.60721105
-27.861229 11.565667 -0.62687892
-50.198025 20.838049 -0.6776123
-1.9682852 0.78883892 -0.56817865
-2.0432529 0.81888413 -0.57025433
-2.1136396 0.84709328 -0.56974655
-2.1955502 0.87992096 -0.57097995
-2.2827201 0.91485643 -0.57206255
-2.3678219 0.94896311 -0.5710842
-2.4486392 0.98135257 -0.56759512
-2.545676 1.0202426 -0.56628191
-2.6678762 1.0692173 -0.56860143
-2.8014388 1.1227458 -0.57104474
-2.9334486 1.1756519 -0.57079017
-3.0840142 1.2359949 -0.57161516
-3.2505708 1.3027465 -0.57256204
-3.415149 1.3687053 -0.5701974
-3.6212623 1.4513103 -0.57144982
-3.8511813 1.543456 -0.57255179
-4.1124873 1.6481808 -0.57391888
-4.3854876 1.7575924 -0.57213426
-4.73036 1.8958086 -0.57419348
-5.1326847 2.0570502 -0.57653213
-5.5720024 2.2331176 -0.57548887
-6.1169567 2.4515216 -0.57654291
-6.7931724 2.7225316 -0.57903194
-7.616797 3.0526195 -0.58065361
-8.6796083 3.4785676 -0.58361566
-10.056492 4.0303874 -0.58584827
-11.998927 4.8088665 -0.59130323
-14.825578 5.9417167 -0.59762567
-19.404697 7.7769117 -0.608275
-28.015009 11.227707 -0.62718517
-50.494286 20.236832 -0.67820114
-1.9851661 0.76741189 -0.57028449
-2.0493042 0.79220599 -0.56918138
-2.1215394 0.82013017 -0.56911457
-2.2063687 0.85292292 -0.57102275
-2.2845256 0.88313621 -0.56975055
-2.3614252 0.91286355 -0.56679124
-2.4725711 0.95582962 -0.57037503
-2.5692122 0.99318844 -0.56875777
-2.6784012 1.035398 -0.56808817
-2.8060298 1.0847358 -0.56921864
-2.9472075 1.1393112 -0.57069826
-3.091465 1.1950774 -0.57022935
-3.2577405 1.2593551 -0.5710541
-3.4303634 1.3260864 -0.56997204
-3.6607816 1.4151598 -0.57489663
-3.8647399 1.4940046 -0.57179314
-4.1283693 1.5959167 -0.57335329
-4.409142 1.704456 -0.57244265
-4.7523994 1.8371501 -0.57408321
-5.1382375 1.9863046 -0.57436889
-5.6113029 2.169179 -0.57674938
-6.1609831 2.3816707 -0.57788855
-6.8285089 2.6397183 -0.57923341
-7.6481586 2.9565728 -0.58022904
-8.7078705 3.3662291 -0.58268869
-10.132413 3.916919 -0.58742088
-12.057833 4.6612344 -0.59133679
-14.897797 5.7590885 -0.597637
-19.48502 7.5323858 -0.60784352
-28.164991 10.88783 -0.62749821
-50.77964 19.630047 -0.67874044
-1.9738387 0.73526669 -0.56439048
-2.048636 0.76312917 -0.5663467
-2.1328678 0.79450601 -0.56948966
-2.1941824 0.8173461 -0.56522501
-2.2852759 0.85127896 -0.56728423
-2.3854127 0.8885805 -0.56988311
-2.4779963 0.92306846 -0.5689652
-2.5850492 0.9629463 -0.56959939
-2.7045043 1.007444 -0.57095402
-2.834276 1.0557847 -0.5722717
-2.9480529 1.0981673 -0.56820416
-3.1042764 1.1563616 -0.56992656
-3.2756634 1.2202042 -0.57152247
-3.4458108 1.2835852 -0.56987309
-3.6645384 1.3650625 -0.57280731
-3.8891532 1.4487329 -0.57272619
-4.1376352 1.5412939 -0.5719648
-4.4302788 1.6503054 -0.57250893
-4.7682076 1.7761858 -0.57331109
-5.1582794 1.92149 -0.57392472
-5.6232719 2.0947025 -0.57528871
-6.1851916 2.3040209 -0.5774582
-6.8602819 2.555496 -0.57921928
-7.6877289 2.8637249 -0.58051568
-8.7580481 3.2624252 -0.58331782
-10.181144 3.792537 -0.58749795
-12.114902 4.5128736 -0.59136945
-14.962192 5.5735059 -0.59742576
-19.596437 7.2997899 -0.60847306
-28.317545 10.548455 -0.62795973
-51.080791 19.027901 -0.67958695
-1.9964894 0.71587539 -0.56830716
-2.0729425 0.74328893 -0.57049638
-2.1414599 0.76785702 -0.56921971
-2.2249334 0.7977879 -0.57057631
-2.2969582 0.82361364 -0.56762719
-2.3966355 0.85935462 -0.56999671
-2.5031807 0.89755821 -0.57217032
-2.5948079 0.93041271 -0.56918573
-2.7098219 0.97165293 -0.56951118
-2.8336015 1.0160363 -0.56956989
-2.9791241 1.0682158 -0.5716179
-3.1222897 1.1195503 -0.57066309
-3.2951281 1.1815245 -0.57234043
-3.4629092 1.2416853 -0.57013267
-3.6802721 1.3196244 -0.57268691
-3.9020233 1.3991371 -0.57204467
-4.1751857 1.4970841 -0.57456738
-4.4668932 1.6016809 -0.5746519
-4.8006516 1.7213557 -0.57462364
-5.1943717 1.8625307 -0.57534873
-5.6621156 2.0302484 -0.57666498
-6.2201452 2.2303395 -0.57811731
-6.8804836 2.4671149 -0.57831985
-7.7297664 2.7716398 -0.58107251
-8.816824 3.161423 -0.58459914
-10.226308 3.6668174 -0.58745784
-12.188452 4.3703775 -0.59229165
-15.033868 5.3906503 -0.59759581
-19.681585 7.0571685 -0.60837644
-28.467327 10.207447 -0.62845033
-51.365711 18.418053 -0.68031305
-1.9969991 0.68846661 -0.56599963
-2.0745893 0.71521586 -0.56848627
-2.1575558 0.74381864 -0.57102382
-2.2211359 0.76573789 -0.56714493
-2.3023546 0.79373801 -0.56650597
-2.4101999 0.83091778 -0.57074958
-2.5059011 0.86391085 -0.57032084
-2.5986454 0.89588457 -0.56756812
-2.7168913 0.9366498 -0.56853336
-2.8532341 0.98365408 -0.5710417
-2.9781911 1.026733 -0.56897342
-3.1357775 1.0810611 -0.57065552
-3.3129988 1.1421582 -0.57296169
-3.4700112 1.1962883 -0.56883705
-3.6906445 1.2723519 -0.57182318
-3.9248688 1.3531008 -0.57291132
-4.1800423 1.441072 -0.57275385
-4.4806738 1.5447149 -0.57393777
-4.8329191 1.6661515 -0.57599008
-5.2182932 1.7990094 -0.57550454
-5.6852956 1.9600089 -0.5765276
-6.2500024 2.1546919 -0.57838607
-6.9386549 2.3921053 -0.58069301
-7.7614679 2.6757705 -0.58093834
-8.8499746 3.051034 -0.58426547
-10.267547 3.5397427 -0.58728206
-12.222938 4.2138648 -0.59140486
-15.107696 5.2083869 -0.59793949
-19.787205 6.82165 -0.60900235
-28.610319 9.8634243 -0.62888199
-51.616207 17.794716 -0.68068123
-2.0297234 0.6719414 -0.57288945
-2.0784857 0.68808419 -0.56719261
-2.1658361 0.71700162 -0.57083875
-2.2432876 0.74264199 -0.57042629
-2.3262415 0.77010387 -0.5700103
-2.4000843 0.79454958 -0.56599772
-2.5089414 0.83058679 -0.5686453
-2.6215277 0.86785865 -0.57019198
-2.7353415 0.90553677 -0.57002109
-2.8599188 0.94677812 -0.57000643
-2.993814 0.99110425 -0.56958675
-3.1475539 1.0419999 -0.57042378
-3.3170652 1.0981168 -0.57128656
-3.5151503 1.163693 -0.57384759
-3.7014158 1.2253563 -0.57111436
-3.936239 1.3030947 -0.57218879
-4.2058139 1.3923377 -0.57389587
-4.4943233 1.4878489 -0.57329935
-4.8487353 1.6051772 -0.57547915
-5.2452707 1.7364507 -0.57608145
-5.7109928 1.8906282 -0.57673234
-6.2780328 2.0783472 -0.57857126
-6.9534616 2.3019483 -0.57951945
-7.8048205 2.5837915 -0.58176118
-8.8788071 2.9393353 -0.58373868
-10.32005 3.4164598 -0.58783782
-12.286386 4.0674171 -0.59201008
-15.190114 5.028698 -0.59870887
-19.855936 6.5733218 -0.60858399
-28.743578 9.5155821 -0.62919164
-51.885174 17.176624 -0.68139136
-2.0196779 0.6411708 -0.5677858
-2.0975864 0.66590387 -0.57012737
-2.1874602 0.69443536 -0.57424408
-2.2438176 0.71232665 -0.56829077
-2.3384316 0.74236298 -0.57071739
-2.426656 0.77037084 -0.56998694
-2.5203831 0.80012572 -0.56896561
-2.629472 0.83475727 -0.56964421
-2.7350514 0.86827469 -0.56769276
-2.8633945 0.9090187 -0.5684284
-3.0021667 0.95307368 -0.56890321
-3.1608202 1.0034401 -0.57054871
-3.3376212 1.0595677 -0.57253963
-3.5024869 1.1119063 -0.56950521
-3.7404885 1.1874627 -0.57484668
-3.9574778 1.2563485 -0.5729872
-4.2099156 1.3364879 -0.57216978
-4.5168262 1.4339204 -0.57387727
-4.8700418 1.5460529 -0.57570809
-5.2624907 1.6706403 -0.57567292
-5.7318835 1.8196548 -0.57653886
-6.2905788 1.9970193 -0.57742077
-6.9761081 2.2146487 -0.57909346
-7.8439355 2.4901509 -0.58235037
-8.9268446 2.8339334 -0.58456165
-10.342332 3.2832966 -0.58676296
-12.336721 3.9164393 -0.59207016
-15.244559 4.8395672 -0.59846401
-19.945551 6.331953 -0.60889822
-28.862436 9.1627245 -0.62927955
-52.140617 16.55266 -0.68202144
-2.0340686 0.61831373 -0.56965095
-2.0970414 0.63745612 -0.56780571
-2.1666889 0.65862757 -0.56662238
-2.2536616 0.68506539 -0.56860751
-2.3406119 0.71149647 -0.56907129
-2.4264257 0.73758203 -0.56775963
-2.5319231 0.76965106 -0.56939125
-2.6394651 0.80234146 -0.56962866
-2.7668974 0.84107822 -0.57211292
-2.8858898 0.87724942 -0.57070953
-3.015214 0.91656119 -0.56919688
-3.1693277 0.96340853 -0.56990296
-3.3356433 1.0139649 -0.57001841
-3.5286686 1.0726405 -0.57157445
-3.7234175 1.1318401 -0.57004118
-3.972234 1.2074751 -0.57293063
-4.2249703 1.2843015 -0.57202631
-4.5269575 1.3760992 -0.57297128
-4.8838773 1.4845953 -0.57514215
-5.2876143 1.6073228 -0.57621562
-5.7448659 1.7463176 -0.57564121
-6.3279786 1.9235715 -0.57863885
-7.0098972 2.1308603 -0.57967949
-7.8739495 2.3935139 -0.58234954
-8.9397078 2.7174819 -0.58317173
-10.38731 3.1575222 -0.5870676
-12.377614 3.7625327 -0.59176761
-15.31666 4.6559405 -0.59900171
-20.037079 6.090848 -0.60935992
-28.989185 8.8120985 -0.62963289
-52.383377 15.923438 -0.68258411
-2.0423017 0.59348494 -0.56986982
-2.1113873 0.61356097 -0.56960422
-2.187016 0.6355384 -0.5698514
-2.2627146 0.65753615 -0.56880867
-2.3497505 0.68282843 -0.56920868
-2.4454935 0.71065098 -0.57013345
-2.5318534 0.73574686 -0.56729811
-2.655997 0.77182251 -0.57110512
-2.7587917 0.80169421 -0.56835556
-2.8932273 0.84076077 -0.57007301
-3.0280502 0.87993968 -0.56953436
-3.187206 0.92618978 -0.57102668
-3.3487899 0.97314543 -0.57017702
-3.5533903 1.0326015 -0.57347882
-3.7645936 1.0939764 -0.57424217
-3.9922795 1.160141 -0.57372093
-4.2542577 1.2362708 -0.57388997
-4.5516944 1.3227048 -0.57400024
-4.9011512 1.4242556 -0.5750705
-5.3020968 1.5407689 -0.57568574
-5.7666702 1.6757722 -0.57571781
-6.3421302 1.8429985 -0.5778169
-7.0362535 2.0447083 -0.57973599
-7.885715 2.2915583 -0.58109176
-8.9873075 2.6116769 -0.58413774
-10.438446 3.0333722 -0.58780515
-12.420852 3.6094518 -0.59166807
-15.350215 4.4607134 -0.59812361
-20.106033 5.8427358 -0.60922593
-29.112268 8.4599133 -0.62999916
-52.6147 15.289629 -0.68309683
-2.0416164 0.56615818 -0.56769317
-2.1103122 0.58520806 -0.56733
-2.1890385 0.60703957 -0.56839043
-2.2733898 0.63043088 -0.56950039
-2.348119 0.65115398 -0.56683105
-2.4480007 0.67885208 -0.56872886
-2.5501988 0.70719248 -0.56941712
-2.6553471 0.73635107 -0.56897539
-2.7736981 0.76917082 -0.56943494
-2.8869152 0.80056691 -0.56684673
-3.0545933 0.84706551 -0.57252443
-3.1936257 0.88562042 -0.57018268
-3.3594582 0.93160725 -0.56999993
-3.5773711 0.99203634 -0.57533687
-3.7546315 1.0411922 -0.57072651
-4.0065923 1.1110632 -0.57377106
-4.2633529 1.1822652 -0.57311249
-4.5627713 1.2652965 -0.57339174
-4.9308205 1.3673598 -0.57653528
-5.3152838 1.4739748 -0.57510614
-5.7997804 1.60833 -0.57700533
-6.3653669 1.765172 -0.57791275
-7.0571122 1.9569991 -0.57942808
-7.9201531 2.1963279 -0.58159542
-9.0263367 2.5030823 -0.58462977
-10.488235 2.9084795 -0.58855045
-12.483026 3.4616525 -0.59255725
-15.415294 4.274796 -0.598566
-20.177691 5.5954509 -0.60926634
-29.216673 8.1020393 -0.63005489
-52.857765 14.657922 -0.68386078
-2.0541785 0.54253256 -0.56928813
-2.1132638 0.55813771 -0.56623566
-2.1870592 0.5776279 -0.56598949
-2.2858307 0.60371459 -0.57071412
-2.3663652 0.62498468 -0.56933737
-2.4691718 0.65213716 -0.57174122
-2.5628238 0.67687172 -0.57033455
-2.6726263 0.70587188 -0.57077491
-2.7958336 0.73841238 -0.57207197
-2.9098871 0.7685352 -0.56945866
-3.0697551 0.81075817 -0.57345426
-3.2006316 0.84532428 -0.5695346
-3.3754873 0.89150572 -0.57081646
-3.5784814 0.94511878 -0.57360303
-3.782938 0.99911815 -0.57311851
-4.0169501 1.0609235 -0.57334274
-4.2828283 1.1311451 -0.57381737
-4.5812936 1.2099732 -0.57380623
-4.9277406 1.3014739 -0.57426053
-5.3307414 1.4079112 -0.574862
-5.8111882 1.5348027 -0.57621902
-6.379333 1.6848565 -0.57725614
-7.0757813 1.8687966 -0.57903039
-7.9549246 2.1009886 -0.58220762
-9.0593433 2.3926785 -0.58481771
-10.500784 2.7733798 -0.58729649
-12.51626 3.3056908 -0.59216058
-15.463705 4.0841455 -0.59845048
-20.252031 5.3487983 -0.60947901
-29.326025 7.7453461 -0.63031161
-53.069286 14.016219 -0.68431586
-2.0553493 0.51589286 -0.56781161
-2.1247091 0.53330213 -0.56750232
-2.2071936 0.55400574 -0.56939411
-2.286253 0.57384962 -0.56901473
-2.364172 0.59340733 -0.5670113
-2.4655886 0.61886293 -0.5691064
-2.5884836 0.64970952 -0.57422358
-2.6763093 0.67175382 -0.5697543
-2.7970793 0.70206714 -0.5705173
-2.92715 0.73471481 -0.57102579
-3.0618901 0.76853466 -0.57017654
-3.2204087 0.80832279 -0.57124197
-3.3925142 0.85152131 -0.57188189
-3.5653653 0.89490694 -0.56969362
-3.7907951 0.95148981 -0.57249296
-4.0284915 1.0111517 -0.57317209
-4.3001032 1.0793263 -0.5743103
-4.5935473 1.1529807 -0.57352191
-4.9395924 1.239838 -0.57382166
-5.3523593 1.3434424 -0.57536829
-5.8371987 1.4651372 -0.57696813
-6.4223676 1.6120147 -0.5793128
-7.1012506 1.7824144 -0.57927728
-7.972137 2.0010068 -0.5816226
-9.072196 2.2771218 -0.58379579
-10.550579 2.6481962 -0.58821583
-12.556268 3.151624 -0.59217513
-15.525629 3.896934 -0.59894723
-20.339987 5.1053376 -0.61019057
-29.422756 7.3851137 -0.63039118
-53.264542 13.369404 -0.68466198
-2.0760012 0.49402419 -0.57179546
-2.1307929 0.50706291 -0.56741905
-2.2212877 0.52859789 -0.57130998
-2.2955248 0.54626399 -0.5696075
-2.3861637 0.56783324 -0.57056791
-2.4856739 0.59151363 -0.57202041
-2.5744617 0.61264241 -0.56939882
-2.6924641 0.64072329 -0.571473
-2.8277452 0.67291605 -0.57504094
-2.9250493 0.69607145 -0.56890327
-3.0523713 0.72637016 -0.5666979
-3.2292562 0.76846325 -0.57109201
-3.389297 0.80654806 -0.56962466
-3.5884438 0.85393882 -0.57166022
-3.7976253 0.90371758 -0.57180303
-4.041431 0.96173579 -0.57328719
-4.3068733 1.0249029 -0.57348794
-4.6213608 1.0997411 -0.57526267
-4.9600587 1.1803408 -0.57446969
-5.3723612 1.2784561 -0.57578498
-5.8561668 1.3935869 -0.57710558
-6.4382544 1.5321058 -0.57900274
-7.1334019 1.6975294 -0.58015341
-8.0143461 1.907167 -0.58294702
-9.1104841 2.1680138 -0.5844999
-10.584414 2.5187635 -0.58833092
-12.592361 2.9965932 -0.59209478
-15.576284 3.7066748 -0.59909773
-20.393314 4.8529792 -0.60995406
-29.525173 7.0260797 -0.63068676
-53.460152 12.721866 -0.68511379
-2.0709481 0.46599278 -0.56878245
-2.1458838 0.48285437 -0.56981349
-2.2329161 0.50243783 -0.57266843
-2.3116341 0.52015054 -0.57197452
-2.3766255 0.53477454 -0.56667197
-2.4781737 0.55762434 -0.56867349
-2.5818982 0.58096379 -0.56942052
-2.6979156 0.60706937 -0.57100248
-2.8017578 0.63043535 -0.56813687
-2.9396613 0.66146559 -0.57012016
-3.0878751 0.69481581 -0.57166004
-3.2317457 0.72718877 -0.56990784
-3.4085114 0.76696354 -0.5712257
-3.5998271 0.81001228 -0.57184362
-3.7986259 0.85474485 -0.57032806
-4.0381122 0.90863264 -0.57118833
-4.3135333 0.97060633 -0.57274222
-4.6332116 1.0425384 -0.57509857
-4.9710326 1.118553 -0.57410431
-5.3923836 1.2133629 -0.57628828
-5.8753829 1.3220447 -0.57735366
-6.4500718 1.451358 -0.57841676
-7.1543369 1.6098275 -0.58020222
-8.0241089 1.8055387 -0.58199823
-9.136426 2.0558257 -0.58449823
-10.598225 2.3847511 -0.58742422
-12.620828 2.8398657 -0.59174663
-15.624688 3.5157769 -0.59925139
-20.449989 4.6015382 -0.60991073
-29.627243 6.6665511 -0.63106835
-53.653404 12.072779 -0.68563604
-2.0725768 0.43965739 -0.56770205
-2.1481838 0.45569599 -0.56889331
-2.2221942 0.47139585 -0.56838906
-2.3030469 0.48854724 -0.56832039
-2.4013884 0.50940847 -0.57103962
-2.4874573 0.52766633 -0.56927186
-2.5971651 0.55093873 -0.5712502
-2.7008514 0.57293379 -0.5700897
-2.8201447 0.5982396 -0.57033056
-2.9483035 0.62542599 -0.5702616
-3.079946 0.65335143 -0.56866175
-3.2521956 0.68989086 -0.57197487
-3.4238067 0.72629488 -0.57224905
-3.6181779 0.76752698 -0.57321614
-3.8269989 0.81182438 -0.57304591
-4.059958 0.86124223 -0.57273716
-4.3359032 0.91977865 -0.57416731
-4.6422615 0.98476666 -0.57467538
-4.9920917 1.0589764 -0.57498902
-5.4014802 1.1458204 -0.57571113
-5.9024673 1.2520951 -0.57845843
-6.4601269 1.3703918 -0.57776362
-7.1866064 1.5245006 -0.58125496
-8.0506573 1.7077924 -0.58235663
-9.1592674 1.9429626 -0.58438683
-10.648378 2.2588491 -0.58862007
-12.675021 2.6887624 -0.59269255
-15.672143 3.3245442 -0.59945822
-20.537348 4.3566041 -0.61087221
-29.712997 6.3030419 -0.63119626
-53.834557 11.419968 -0.68610466
-2.0858095 0.41573194 -0.56988329
-2.1573756 0.4299961 -0.56988418
-2.2353239 0.44553235 -0.57030296
-2.3188686 0.46218398 -0.57077909
-2.3849516 0.47535527 -0.56569827
-2.4951689 0.49732316 -0.56959409
-2.6047311 0.51916051 -0.57146704
-2.7200239 0.54214001 -0.57268614
-2.8412771 0.56630754 -0.57315266
-2.9481122 0.58760136 -0.56878406
-3.0973928 0.61735505 -0.57043833
-3.2564669 0.64906085 -0.57127923
-3.4149849 0.68065578 -0.56933266
-3.6218317 0.7218833 -0.5723455
-3.8324857 0.7638697 -0.57241774
-4.0656471 0.81034213 -0.57209074
-4.3380384 0.86463362 -0.57299882
-4.6502833 0.92686856 -0.57421416
-5.0210328 1.0007644 -0.5768615
-5.4160051 1.079488 -0.57580096
-5.8959975 1.1751574 -0.57636464
-6.4797301 1.2915038 -0.57805288
-7.1888671 1.432845 -0.57996899
-8.0724163 1.6089489 -0.5824554
-9.1920242 1.8321031 -0.58499527
-10.653535 2.1234033 -0.58741736
-12.705764 2.5324421 -0.59262919
-15.706701 3.1305723 -0.59926236
-20.57855 4.1016021 -0.61055148
-29.811527 5.9418678 -0.63168955
-54.003712 10.763719 -0.68652171
-2.0940499 0.39066747 -0.57077909
-2.1667492 0.40423033 -0.57100409
-2.2314863 0.41630769 -0.56797487
-2.3199563 0.43281275 -0.56969374
-2.4040501 0.44850132 -0.56887722
-2.4955361 0.46556902 -0.56832808
-2.5875783 0.48274049 -0.56635863
-2.7210288 0.50763708 -0.57154024
-2.8391573 0.52967525 -0.57136798
-2.9634521 0.55286378 -0.57038885
-3.097404 0.57785392 -0.5690887
-3.2635572 0.60885161 -0.57116652
-3.4247017 0.63891482 -0.56959975
-3.6278899 0.67682177 -0.57194442
-3.8346515 0.71539539 -0.57138413
-4.0870004 0.76247382 -0.57373279
-4.3494291 0.8114326 -0.57314211
-4.678803 0.87288082 -0.57636678
-5.0195937 0.936459 -0.57532966
-5.4439454 1.0156263 -0.57740003
-5.9258237 1.105526 -0.57790774
-6.4977756 1.2122297 -0.57828921
-7.2030888 1.3438134 -0.57973939
-8.096261 1.5104444 -0.58279175
-9.1998348 1.7163279 -0.58410507
-10.695617 1.9953821 -0.58834034
-12.739814 2.376749 -0.59280938
-15.759876 2.9401739 -0.59986639
-20.627527 3.8482866 -0.61055446
-29.877197 5.5739117 -0.63158095
-54.142494 10.100863 -0.68665516
-2.0813708 0.36187837 -0.56606746
-2.1579216 0.37518787 -0.56741899
-2.2417712 0.38976645 -0.56932974
-2.3286278 0.40486783 -0.57055753
-2.4128523 0.41951153 -0.56969637
-2.5160062 0.43744642 -0.57172167
-2.6062396 0.45313489 -0.56918055
-2.7150691 0.4720566 -0.56902623
-2.8384268 0.49350423 -0.56995666
-2.9688003 0.51617163 -0.57015353
-3.1243837 0.54322225 -0.57277519
-3.2732179 0.56909937 -0.57158935
-3.4432321 0.59865892 -0.57141423
-3.6281068 0.63080227 -0.57071263
-3.8446615 0.66845363 -0.57160765
-4.1007648 0.71298116 -0.57439089
-4.376389 0.76090264 -0.57541835
-4.6711102 0.81214446 -0.57414556
-5.0264115 0.87391907 -0.57483602
-5.437417 0.94537866 -0.57543117
-5.9253974 1.0302216 -0.57658708
-6.5086789 1.131634 -0.57797742
-7.2126899 1.2540373 -0.57922727
-8.109272 1.4099218 -0.58243632
-9.2329397 1.6052887 -0.58490938
-10.725126 1.8647283 -0.5886578
-12.77008 2.2202749 -0.59290248
-15.784133 2.7443147 -0.59945995
-20.696402 3.598388 -0.61123717
-29.963499 5.2096157 -0.63200337
-54.305798 9.4418993 -0.68720186
-2.0942869 0.33764982 -0.56840801
-2.1610227 0.34840927 -0.56706512
-2.2499676 0.36274934 -0.57023543
-2.3506696 0.37898493 -0.57477289
-2.4038012 0.38755104 -0.56639135
-2.516783 0.40576643 -0.57072121
-2.6149166 0.42158794 -0.56990027
-2.7318695 0.44044361 -0.57136899
-2.8523459 0.4598673 -0.5715729
-2.9840355 0.48109886 -0.57190007
-3.1188428 0.50283307 -0.57058275
-3.2724867 0.52760422 -0.57028562
-3.4537203 0.55682343 -0.57197523
-3.649884 0.58844978 -0.57295668
-3.8595707 0.6222564 -0.57264346
-4.0941744 0.66008019 -0.57228762
-4.3698258 0.70452189 -0.57337302
-4.6780429 0.75421393 -0.57381439
-5.0343499 0.81165928 -0.57455897
-5.448473 0.87842596 -0.5754146
-5.9482193 0.95899719 -0.57761675
-6.5353575 1.0536581 -0.57915223
-7.2428293 1.1677197 -0.58045065
-8.1177349 1.3087757 -0.58184427
-9.2477837 1.490967 -0.58464414
-10.73695 1.7310567 -0.588094
-12.800817 2.0638022 -0.59310657
-15.814344 2.5496557 -0.59937131
-20.729036 3.3420234 -0.61094111
-30.024384 4.8406587 -0.63198429
-54.458302 8.7799988 -0.6877135
-2.1090088 0.31346855 -0.57131439
-2.1677554 0.32220024 -0.56774926
-2.2588997 0.3357473 -0.57140964
-2.3260546 0.34572873 -0.56767172
-2.4258759 0.36056548 -0.57050484
-2.5183096 0.37430418 -0.56998062
-2.6161242 0.38884267 -0.56907839
-2.7096868 0.40274915 -0.56565094
-2.8546362 0.42429346 -0.57094324
-2.9861531 0.44384122 -0.57121676
-3.1183465 0.46348953 -0.56940627
-3.2915125 0.48922774 -0.57250953
