# .PCD v0.7 - Point Cloud Data file format
VERSION 0.7
FIELDS x y z
SIZE 4 4 4
TYPE F F F
COUNT 1 1 1
WIDTH 1444
HEIGHT 1
VIEWPOINT 0 0 0 1 0 0 0
POINTS 1444
DATA ascii
1.0713879 5.2905145 -0.56280679
1.1600077 5.7281194 -0.56029946
1.2705488 6.2739711 -0.56004286
1.4046756 6.9362898 -0.5599376
1.5695884 7.7506294 -0.55958265
1.7765285 8.7724991 -0.55864072
2.0497832 10.121832 -0.5584448
2.4221575 11.960616 -0.55821812
2.9514997 14.574508 -0.55640882
3.7827024 18.678988 -0.55453497
5.2631454 25.989418 -0.55104125
8.6463108 42.695488 -0.54310125
0.39029574 2.0569797 -0.56099904
0.40375623 2.1279209 -0.56109589
0.41776413 2.2017467 -0.56072938
0.43511462 2.2931893 -0.5634464
0.45179662 2.3811085 -0.56377435
0.46974316 2.4756923 -0.56413496
0.48702133 2.5667536 -0.5621255
0.50766182 2.6755352 -0.56230956
0.53057152 2.7962766 -0.5630638
0.5539549 2.9195142 -0.56225693
0.58136374 3.0639672 -0.56327093
0.60919219 3.2106321 -0.56222886
0.63975 3.371681 -0.56110561
0.67627078 3.5641572 -0.56222177
0.7157408 3.7721763 -0.56239998
0.75870538 3.9986129 -0.56164956
0.80735624 4.2550182 -0.5610255
0.86397308 4.5534067 -0.56124401
0.93216479 4.9127979 -0.56341475
1.0030991 5.2866435 -0.56104046
1.0888891 5.7387838 -0.55999058
1.1955323 6.3008265 -0.5610854
1.3193969 6.9536309 -0.55998546
1.4725912 7.7610126 -0.55898267
1.674793 8.8266792 -0.56073713
1.9276109 10.159108 -0.55915141
2.2771015 12.001033 -0.55875534
2.7750988 14.625632 -0.55701572
3.5549741 18.735817 -0.55488241
4.9507132 26.091797 -0.55187947
8.1376562 42.887978 -0.54423577
0.36737645 2.0751908 -0.56469095
0.38003045 2.1466691 -0.56476462
0.39104617 2.2088933 -0.5612824
0.4041537 2.2829335 -0.55966318
0.41976383 2.37111 -0.56014252
0.43831077 2.4758756 -0.56290603
0.45567799 2.5739775 -0.56243789
0.47455075 2.6805837 -0.56210166
0.4950372 2.7963049 -0.56180131
0.51601648 2.9148102 -0.56008667
0.54162973 3.0594909 -0.56118125
0.57147717 3.2280896 -0.56401271
0.5973326 3.3741384 -0.56024987
0.6338129 3.580204 -0.56348103
0.66953015 3.7819591 -0.56258857
0.70967805 4.0087419 -0.56180406
0.75691098 4.2755451 -0.56246227
0.80852062 4.5670714 -0.56166041
0.86730939 4.8991504 -0.56058413
0.93851972 5.3013945 -0.56133866
1.0203837 5.7638173 -0.56116652
1.1189675 6.3206854 -0.56158608
1.2357203 6.9801836 -0.56085771
1.3796312 7.7930899 -0.56002885
1.5625776 8.8264952 -0.55946255
1.8035426 10.187629 -0.55945826
2.1257904 12.007902 -0.55781597
2.5973825 14.671773 -0.55751449
3.3270245 18.793285 -0.55533075
4.6366272 26.190807 -0.55272597
7.622467 43.05685 -0.54514807
0.34305969 2.087013 -0.56671721
0.35083553 2.1343174 -0.56033772
0.36679152 2.2313862 -0.56580907
0.37827265 2.3012321 -0.56296617
0.39350989 2.3939281 -0.56434721
0.40813041 2.4828725 -0.56331325
0.42103258 2.5613632 -0.5585081
0.43815458 2.6655252 -0.5577721
0.46255332 2.8139558 -0.56416219
0.48135796 2.9283543 -0.56150937
0.50539565 3.0745883 -0.56276798
0.5304786 3.227181 -0.56267172
0.55901212 3.4007657 -0.56348717
0.58794731 3.5767937 -0.56176394
0.62187433 3.7831895 -0.56159163
0.66219795 4.0284991 -0.56338924
0.70348161 4.2796497 -0.56182176
0.75088072 4.5680037 -0.56059718
0.8079657 4.9152813 -0.56125069
0.87363899 5.3148065 -0.56157887
0.95199668 5.7914977 -0.56267929
1.0398337 6.3258567 -0.56086713
1.1485533 6.9872551 -0.56024873
1.2846922 7.8154597 -0.56045884
1.4567682 8.8622885 -0.56055349
1.6785821 10.211699 -0.55960435
1.9822396 12.059009 -0.55901551
2.4164791 14.700717 -0.55744308
3.0993252 18.85483 -0.55598122
4.3168097 26.261429 -0.55305433
7.1083636 43.243923 -0.54636866
0.3159906 2.0819664 -0.5642491
0.32431772 2.1368313 -0.55990839
0.33806023 2.2273765 -0.56369561
0.35014531 2.3070014 -0.56328171
0.36337611 2.3941753 -0.56330955
0.37505066 2.4710951 -0.55955255
0.39171007 2.5808589 -0.56166643
0.40757048 2.6853585 -0.56083113
0.42582688 2.8056445 -0.56140363
0.44557512 2.9357595 -0.56183624
0.46743917 3.0798154 -0.56263012
0.48801795 3.2154026 -0.55952954
0.51586992 3.3989108 -0.56208628
0.54692262 3.6035078 -0.56486064
0.57878041 3.8134089 -0.56497836
0.61131382 4.0277619 -0.56219232
0.64885437 4.275105 -0.56013536
0.69680482 4.5910358 -0.56232977
0.74891973 4.9344053 -0.56234026
0.80824775 5.3252997 -0.56159502
0.88144267 5.807559 -0.56314409
0.96011716 6.3259211 -0.55978376
1.0651523 7.0179658 -0.56161857
1.1898001 7.8392334 -0.56107205
1.3482782 8.8833961 -0.56079757
1.5552833 10.247291 -0.56046438
1.83304 12.077346 -0.55877841
2.2402036 14.760024 -0.55860513
2.8685305 18.899879 -0.55622745
4.0000749 26.355284 -0.55395311
6.5895648 43.416645 -0.54748577
0.28834927 2.0711954 -0.56032664
0.2996521 2.1523829 -0.56297523
0.31018946 2.2280719 -0.56286383
0.32042509 2.301594 -0.56095701
0.33439851 2.4019642 -0.56413203
0.34671694 2.4904468 -0.56292653
0.36109757 2.5937419 -0.56346118
0.37526947 2.6955378 -0.56195086
0.39048505 2.8048303 -0.56023759
0.40946883 2.9411898 -0.56186938
0.43097809 3.0956893 -0.56451923
0.45256743 3.2507644 -0.56467193
0.47546169 3.4152124 -0.56377262
0.50184166 3.6046984 -0.56403738
0.52965969 3.8045135 -0.56265295
0.56183195 4.035605 -0.56228024
0.59811854 4.2962489 -0.56189966
0.6400997 4.5977974 -0.56215131
0.68897951 4.9488978 -0.56298381
0.74311113 5.3377218 -0.56189895
0.80625015 5.7912459 -0.56055856
0.886751 6.3694787 -0.56263077
0.9787935 7.0306144 -0.56162512
1.0940804 7.8587132 -0.56146097
1.2397653 8.905159 -0.56116658
1.4282722 10.259192 -0.56011242
1.6848749 12.102354 -0.55893469
2.0582254 14.784107 -0.55851656
2.6414123 18.973103 -0.55738443
3.6816003 26.444712 -0.55483931
6.0688472 43.592159 -0.54871649
0.2648688 2.0904303 -0.56460655
0.27345148 2.1581674 -0.56356621
0.28237155 2.2285676 -0.56206936
0.2927016 2.3100958 -0.56210941
0.30459186 2.4039376 -0.56367326
0.31923434 2.5195007 -0.56856346
0.32838279 2.5917032 -0.56209862
0.34259096 2.7038386 -0.56276059
0.35868984 2.8308961 -0.56452036
0.3750042 2.9596546 -0.56447327
0.39120346 3.0875044 -0.56210691
0.41019204 3.2373683 -0.5614264
0.43283722 3.4160914 -0.56299657
0.45544782 3.5945415 -0.56152934
0.48465157 3.825027 -0.56476265
0.51407248 4.0572262 -0.56436932
0.54570967 4.3069172 -0.56237477
0.58307779 4.6018386 -0.56172639
0.62688196 4.9475555 -0.5619117
0.67892295 5.3582797 -0.56314164
0.73695052 5.8162518 -0.56205934
0.8067686 6.3672791 -0.56151772
0.89168745 7.0374861 -0.56125575
0.99698412 7.8685212 -0.56124341
1.1305016 8.9222851 -0.56132734
1.3010571 10.268364 -0.55969733
1.5378395 12.137127 -0.55962497
1.8777375 14.819712 -0.55894709
2.4094346 19.016037 -0.55773312
3.3593633 26.513182 -0.55536723
5.5448036 43.761383 -0.54994678
0.23860785 2.0888195 -0.56333649
0.24554947 2.1495879 -0.56049496
0.25514245 2.2335668 -0.56249636
0.2666021 2.3338866 -0.56705779
0.27340046 2.3934007 -0.56037194
0.28667235 2.5095856 -0.56548774
0.29723382 2.6020427 -0.56350583
0.30872777 2.7026629 -0.5616833
0.32184917 2.8175302 -0.56102335
0.33674839 2.9479611 -0.56141084
0.35372677 3.0965931 -0.56292719
0.37259287 3.2617505 -0.56481755
0.39102039 3.4230685 -0.56331146
0.41218001 3.608304 -0.56284493
0.43556654 3.8130343 -0.56215864
0.46228704 4.0469508 -0.56210679
0.49272627 4.3134217 -0.56239045
0.52544451 4.5998435 -0.56065172
0.56676894 4.9616055 -0.56267339
0.61258364 5.3626766 -0.56276953
0.66559815 5.826776 -0.56224293
0.72881728 6.3802085 -0.56182516
0.80547953 7.0513248 -0.56152707
0.90018165 7.8803654 -0.56125623
1.0214535 8.9420033 -0.56173521
1.1775244 10.308278 -0.5610413
1.3920983 12.1867 -0.56107903
1.6972075 14.857684 -0.55954987
2.1779008 19.065767 -0.55836409
3.0359192 26.577028 -0.55588061
5.0142612 43.895821 -0.55081975
0.2141858 2.104162 -0.56672102
0.22003241 2.1615992 -0.56287879
0.22708218 2.2308559 -0.56106812
0.23683846 2.3267016 -0.56456184
0.24522175 2.4090593 -0.56328952
0.25514531 2.5065484 -0.56405377
0.26476634 2.6010652 -0.56254649
0.27638358 2.715193 -0.56353849
0.28839052 2.8331494 -0.56338471
0.30023944 2.949553 -0.56096858
0.31610936 3.1054595 -0.56378973
0.33111826 3.2529066 -0.5625385
0.3483524 3.4222147 -0.56242353
0.36714956 3.6068783 -0.56187588
0.39109078 3.842077 -0.56568867
0.41352946 4.0625143 -0.56351966
0.43995702 4.3221393 -0.56277913
0.47002921 4.617568 -0.56206518
0.50687647 4.9795556 -0.56395954
0.5447489 5.3516145 -0.56086332
0.59455591 5.8409185 -0.56285959
0.65113074 6.3967099 -0.5625307
0.7183938 7.0575023 -0.5612731
0.80389267 7.8974438 -0.56172609
0.91019988 8.9418058 -0.56097734
1.0510284 10.325306 -0.5612222
1.2399544 12.181315 -0.56008679
1.5148698 14.882086 -0.55972499
1.9425124 19.083246 -0.5581342
2.7133925 26.656376 -0.55680031
4.4856973 44.067505 -0.55224025
0.18612571 2.0823355 -0.5601837
0.19351286 2.1649814 -0.5630973
0.20093206 2.2479858 -0.56471223
0.20824477 2.3297989 -0.56464934
0.21618786 2.4186645 -0.56487113
0.22440059 2.5105469 -0.56428999
0.23424645 2.6207001 -0.5661273
0.24229841 2.710784 -0.56196249
0.25297159 2.8301933 -0.56213582
0.26475319 2.9620032 -0.5626747
0.27806836 3.1109707 -0.56412685
0.29100749 3.2557309 -0.56236559
0.30719763 3.4368627 -0.56416738
0.32323816 3.6163208 -0.56268507
0.3420389 3.8266597 -0.5627569
0.36368638 4.0688472 -0.56373513
0.3872883 4.3329005 -0.56351769
0.41334602 4.6244287 -0.56223911
0.44320548 4.9584899 -0.56091416
0.47945708 5.3640652 -0.56150788
0.52288097 5.8498831 -0.5630613
0.57153291 6.3941908 -0.56164861
0.63312745 7.0832977 -0.5626629
0.70668626 7.9062576 -0.56169248
0.80072963 8.958396 -0.56135798
0.92391002 10.336512 -0.56117141
1.0918257 12.215118 -0.56098133
1.333241 14.916021 -0.56034237
1.7111673 19.144182 -0.55925876
2.3872108 26.707615 -0.55721527
3.9494505 44.185623 -0.55307007
0.16147627 2.0970385 -0.56356233
0.16659902 2.1635661 -0.56215388
0.17282268 2.2443907 -0.56323272
0.17836043 2.3163078 -0.56080568
0.18559276 2.4102316 -0.56232613
0.19362821 2.5145853 -0.56461978
0.20206416 2.62414 -0.56629086
0.21050718 2.7337868 -0.56615174
0.21913771 2.8458686 -0.5646714
0.22793131 2.960068 -0.56173223
0.23965521 3.1123226 -0.56379503
0.25043139 3.252269 -0.56119329
0.26547387 3.4476209 -0.56535476
0.27789366 3.6089125 -0.56095827
0.29488754 3.8296065 -0.5626145
0.31229049 4.055613 -0.56132704
0.33346304 4.3305736 -0.56263924
0.35615131 4.6252189 -0.56176025
0.38353583 4.9808526 -0.56286776
0.41440225 5.3817039 -0.56277829
0.45036337 5.8487196 -0.56237376
0.49384445 6.4133935 -0.5627594
0.54619497 7.0932527 -0.5628776
0.60966825 7.9175587 -0.56192023
0.69117165 8.976016 -0.56188709
0.79701018 10.350507 -0.56135666
0.9419927 12.233346 -0.56124401
1.1519909 14.960522 -0.56143951
1.4769534 19.180704 -0.55975276
2.062454 26.784405 -0.55824608
3.4141133 44.337955 -0.55440938
0.13501136 2.0885246 -0.56078571
0.14037642 2.1715181 -0.56372893
0.14541495 2.2494605 -0.5640136
0.1508956 2.3342419 -0.56465584
0.15592586 2.4120562 -0.56226206
0.16174997 2.502151 -0.56133884
0.16925855 2.6183031 -0.56453937
0.17565492 2.7172501 -0.56223726
0.18302254 2.8312218 -0.5612762
0.19194764 2.9692864 -0.56299108
0.20086631 3.1072516 -0.56238645
0.21172453 3.2752202 -0.56466168
0.22206989 3.4352551 -0.56283665
0.23516929 3.637893 -0.56497073
0.24833362 3.8415353 -0.56387573
0.26333424 4.0735836 -0.56332362
0.28078073 4.3434677 -0.56382328
0.29872349 4.6210289 -0.56076276
0.32098052 4.9653282 -0.56062508
0.34829503 5.3878636 -0.56293201
0.37864262 5.8573179 -0.56271034
0.41431212 6.4090986 -0.56189299
0.45875838 7.0966487 -0.56265694
0.51204574 7.9209642 -0.56167263
0.5804407 8.9789829 -0.56158352
0.66979188 10.361179 -0.56144637
0.79232138 12.256618 -0.5618223
0.9677645 14.970592 -0.56132841
1.2423215 19.217785 -0.56034672
1.7340999 26.825228 -0.55861026
2.8750494 44.474861 -0.55563724
0.11009233 2.1047616 -0.56473923
0.11366297 2.1730256 -0.56371486
0.11801574 2.2562425 -0.5653075
0.12214629 2.335211 -0.5644843
0.12620719 2.4128478 -0.5620423
0.13183989 2.5205345 -0.56505662
0.13660423 2.6116202 -0.56269377
0.14269584 2.7280803 -0.56407249
0.1486907 2.8426912 -0.56314492
0.15499745 2.9632645 -0.56144547
0.16322306 3.1205227 -0.56438249
0.17095309 3.2683067 -0.56306481
0.17986135 3.4386163 -0.56298244
0.19012791 3.6348937 -0.56409919
0.20102115 3.8431523 -0.56370765
0.21318388 4.0756812 -0.56320852
0.22796229 4.3582172 -0.56533128
0.24284191 4.6426878 -0.5629862
0.26090741 4.9880667 -0.56278759
0.28160301 5.383728 -0.56209564
0.30721727 5.8734255 -0.56385219
0.33622745 6.4280462 -0.56314915
0.37107152 7.0942006 -0.56205857
0.4143959 7.922483 -0.56137651
0.47040057 8.9931879 -0.56206775
0.54280967 10.377516 -0.5619275
0.64132339 12.260916 -0.56161535
0.78351998 14.979451 -0.56125689
1.0070647 19.253212 -0.56097627
1.4065779 26.891167 -0.55958086
2.3328297 44.599384 -0.55679244
0.084175222 2.1052158 -0.56454068
0.087191671 2.1806569 -0.56537366
0.089563377 2.2399731 -0.56091279
0.09347707 2.3378541 -0.56480265
0.097428173 2.436671 -0.56726968
0.10032721 2.5091758 -0.56219113
0.10421505 2.6064103 -0.56125271
0.10919748 2.7310207 -0.56436014
0.11445148 2.8624225 -0.56673211
0.11925434 2.9825418 -0.56477743
0.12490575 3.123883 -0.56466979
0.13047679 3.2632141 -0.56186855
0.13789319 3.4486978 -0.5643127
0.14479855 3.6214004 -0.5616864
0.15422405 3.8571315 -0.56543714
0.16334727 4.0853028 -0.56421793
0.17375268 4.345541 -0.56336725
0.18579626 4.64675 -0.56315917
0.20010802 5.0046859 -0.56434244
0.21535935 5.3861203 -0.56202644
0.23469874 5.8697972 -0.56318426
0.25777188 6.4468551 -0.56447655
0.28416249 7.1068821 -0.5627439
0.3182894 7.960393 -0.56374288
0.36022842 9.009285 -0.56275433
0.41566482 10.395745 -0.56259525
0.4910877 12.282065 -0.56226498
0.59938186 14.990495 -0.56135207
0.77003521 19.25852 -0.56081265
1.0772045 26.940798 -0.5602957
1.7883592 44.726723 -0.55806547
0.05790529 2.0924037 -0.56087166
0.060093645 2.1714797 -0.56276017
0.062399346 2.254796 -0.56438982
0.064753018 2.3398459 -0.56504875
0.066843137 2.4153719 -0.56207728
0.069224283 2.5014148 -0.56021917
0.072704352 2.6271667 -0.56548703
0.075396672 2.7244537 -0.56276894
0.078814775 2.8479664 -0.56363541
0.082298592 2.9738541 -0.5628981
0.086610481 3.1296637 -0.56547946
0.090524241 3.2710872 -0.56298995
0.095530339 3.451982 -0.56461525
0.10050426 3.6317146 -0.56305194
0.10604791 3.8320339 -0.56152433
0.11279235 4.0757437 -0.56266361
0.1197356 4.3266373 -0.56068325
0.12864365 4.6485291 -0.56314051
0.13829395 4.9972425 -0.56326872
0.14944249 5.4000945 -0.56325024
0.16228949 5.8643193 -0.56242472
0.17793375 6.4296236 -0.56273371
0.19686429 7.113677 -0.56304771
0.22002363 7.9505386 -0.56281084
0.24948651 9.0151777 -0.56288826
0.28827217 10.416695 -0.56349456
0.34051713 12.304564 -0.5630607
0.41594619 15.030187 -0.56260437
0.53408748 19.299213 -0.56176394
0.74688804 26.988747 -0.56105947
1.240744 44.834198 -0.55917382
0.032405321 2.1080263 -0.56490976
0.033514407 2.1801744 -0.56486398
0.034529798 2.2462275 -0.56209624
0.035843238 2.3316691 -0.56292516
0.037319258 2.4276869 -0.56479365
0.038424958 2.4996147 -0.55966794
0.040113281 2.6094434 -0.56152356
0.041873023 2.723918 -0.56250942
0.043768831 2.8472435 -0.56334329
0.04590591 2.9862647 -0.56509769
0.048058677 3.1263063 -0.56472331
0.050573282 3.2898858 -0.56607556
0.053043328 3.450567 -0.56423444
0.055725377 3.6250391 -0.56186825
0.059085801 3.843641 -0.5630762
0.062857635 4.0890059 -0.56434512
0.066665858 4.3367376 -0.56184345
0.071759731 4.6681032 -0.56536222
0.076869644 5.0005126 -0.56348819
0.083064012 5.4034681 -0.56345302
0.090272233 5.872376 -0.56304836
0.098962098 6.4376683 -0.56328869
0.10941776 7.1178284 -0.56322718
0.12243993 7.9649448 -0.56368142
0.13889094 9.0351133 -0.56398374
0.16000204 10.40843 -0.56289846
0.18916012 12.305218 -0.56294161
0.23118599 15.039078 -0.56278825
0.2969811 19.319172 -0.56219608
0.4153727 27.020765 -0.56157649
0.69087255 44.942543 -0.56037676
0.0064632897 2.1016784 -0.5631448
0.006659044 2.1653318 -0.56095481
0.0069035492 2.2448382 -0.56168491
0.007165127 2.3298957 -0.56243318
0.0074253823 2.4145234 -0.56166744
0.0076794401 2.4971359 -0.55904949
0.0080805896 2.6275783 -0.56536186
0.0084146708 2.736212 -0.56498414
0.0087568909 2.8474922 -0.56332862
0.009187228 2.9874256 -0.56525326
0.0095977997 3.1209319 -0.56368858
0.010075932 3.276407 -0.56369239
0.010660648 3.4665401 -0.56678206
0.011182351 3.636183 -0.56353164
0.011865901 3.858454 -0.56518209
0.01256035 4.084269 -0.56362748
0.013338462 4.3372889 -0.56185108
0.014273819 4.6414404 -0.56206924
0.015382841 5.0020633 -0.56359899
0.016665354 5.4190998 -0.56501895
0.01808802 5.8817105 -0.56387943
0.019799033 6.4380832 -0.56326109
0.021906801 7.1234694 -0.56360966
0.024495766 7.9653273 -0.56364459
0.027788378 9.0359917 -0.56397456
0.03204082 10.418764 -0.56339347
0.03788342 12.318612 -0.56349045
0.046231579 15.033197 -0.56250435
0.059497733 19.346973 -0.56294125
0.083243355 27.068375 -0.56250215
0.13857168 45.059574 -0.56177235
-0.019397872 2.1037028 -0.56370854
-0.020067334 2.1763062 -0.56381911
-0.020746192 2.2499285 -0.56297982
-0.021724911 2.3560708 -0.56877333
-0.022410361 2.430408 -0.56538391
-0.023332052 2.5303655 -0.5665102
-0.024131265 2.6170402 -0.56311572
-0.025161412 2.72876 -0.56346673
-0.026289467 2.8510976 -0.56406319
-0.027441937 2.9760833 -0.56312841
-0.028773468 3.1204879 -0.56362969
-0.030281432 3.2840271 -0.56502473
-0.031840011 3.4530554 -0.56459862
-0.033515636 3.6347771 -0.563335
-0.035596699 3.8604686 -0.56549859
-0.037672386 4.0855775 -0.5638293
-0.040112671 4.3502269 -0.56354839
-0.043007161 4.6641345 -0.56483883
-0.045962181 4.9846072 -0.56165338
-0.049827866 5.4038415 -0.56344932
-0.054256994 5.884181 -0.56413758
-0.059298005 6.4308796 -0.56265217
-0.06576734 7.1324801 -0.56434393
-0.073556051 7.9771676 -0.56450379
-0.083298445 9.0337315 -0.56385487
-0.095981352 10.409196 -0.56289732
-0.11348455 12.307421 -0.56299978
-0.13894679 15.068805 -0.56385803
-0.17849241 19.357536 -0.56326991
-0.2499713 27.109436 -0.56337667
-0.41622072 45.139214 -0.56278646
-0.044963118 2.08939 -0.55997914
-0.046716377 2.1708622 -0.56251502
-0.048309088 2.2448738 -0.56182122
-0.049929559 2.3201756 -0.5602138
-0.05228696 2.4297216 -0.56533104
-0.05405606 2.5119298 -0.56248903
-0.056574564 2.628962 -0.56578791
-0.058529161 2.7197902 -0.56172067
-0.061277043 2.8474815 -0.56345421
-0.063999176 2.9739761 -0.56283605
-0.067255065 3.1252739 -0.56460088
-0.07054548 3.2781761 -0.56412464
-0.074132927 3.4448812 -0.56336856
-0.078108303 3.6296129 -0.56264096
-0.0828216 3.848635 -0.56387168
-0.087754562 4.0778646 -0.56287128
-0.093463048 4.343132 -0.56273562
-0.10025725 4.6588516 -0.56430566
-0.10735562 4.9887061 -0.56222147
-0.11636405 5.4073186 -0.56391841
-0.12676707 5.8907356 -0.56487274
-0.13850793 6.4363217 -0.56323475
-0.15370995 7.1427436 -0.56526279
-0.17176031 7.9815254 -0.56491888
-0.19419423 9.0240068 -0.56335431
-0.22449712 10.432152 -0.56424534
-0.26508933 12.318429 -0.5636099
-0.32393658 15.053001 -0.56337315
-0.41693258 19.37443 -0.56386805
-0.58375436 27.126469 -0.56383717
-0.97348654 45.236923 -0.56411129
-0.071248084 2.1063638 -0.56472039
-0.07336542 2.1689603 -0.56221342
-0.076359116 2.2574654 -0.56516474
-0.079043917 2.3368382 -0.5644291
-0.082026586 2.4250174 -0.56442851
-0.085119911 2.5164678 -0.56369698
-0.088703141 2.6224017 -0.56456804
-0.092456669 2.7333703 -0.56471747
-0.096417986 2.8504815 -0.5642398
-0.10051893 2.9717212 -0.56260073
-0.10594671 3.1321869 -0.5660423
-0.11059047 3.2694743 -0.56281865
-0.11640566 3.4413931 -0.56298965
-0.12260402 3.6246402 -0.56206131
-0.13015297 3.847816 -0.56394356
-0.1383791 4.0910115 -0.56487811
-0.14741042 4.3580117 -0.56485569
-0.15764029 4.6604452 -0.56469077
-0.16912881 5.0000896 -0.56369615
-0.1835987 5.4278746 -0.56625485
-0.19897641 5.8824983 -0.56427479
-0.21774079 6.4372444 -0.56350714
-0.24078292 7.1184573 -0.56353253
-0.26923138 7.9595013 -0.56355178
-0.30572945 9.0385227 -0.56445253
-0.35332459 10.445616 -0.56516588
-0.41701046 12.328412 -0.56425864
-0.50947911 15.062137 -0.56390685
-0.65560263 19.382103 -0.56428331
-0.91852087 27.154964 -0.56462157
-1.5322951 45.300461 -0.56509584
-0.097373739 2.1103599 -0.56607002
-0.10061482 2.1806033 -0.56550932
-0.1031091 2.2346613 -0.55973077
-0.10795425 2.3396692 -0.56539071
-0.1116196 2.4191074 -0.56332982
-0.11602541 2.5145936 -0.56355417
-0.12064733 2.6147637 -0.56320053
-0.12591124 2.728847 -0.56406021
-0.13099866 2.8391058 -0.56226438
-0.13716082 2.9726567 -0.56305456
-0.14412428 3.1235747 -0.56476349
-0.15194426 3.2930551 -0.56715673
-0.15870713 3.4396255 -0.56297719
-0.16767912 3.6340733 -0.56380117
-0.17756987 3.8484335 -0.56431139
-0.18768701 4.0677004 -0.56193554
-0.20044295 4.3441567 -0.56333685
-0.21475002 4.6542311 -0.56421512
-0.230946 5.0052428 -0.56455457
-0.24940318 5.4052615 -0.56417304
-0.27116087 5.8768115 -0.56400645
-0.29690957 6.4348569 -0.56357515
-0.32883769 7.1268282 -0.56447262
-0.36771968 7.9695096 -0.56453782
-0.41660812 9.0290575 -0.56413871
-0.48108467 10.426444 -0.56440598
-0.56860334 12.323217 -0.56429821
-0.6950255 15.063138 -0.56422168
-0.89613938 19.421837 -0.56571811
-1.2544873 27.188231 -0.56559128
-2.0933812 45.369396 -0.56623411
-0.12293635 2.1025376 -0.56433457
-0.12795325 2.1883399 -0.56788081
-0.13124584 2.244652 -0.56259489
-0.13654867 2.3353443 -0.56470865
-0.14121477 2.4151473 -0.56276947
-0.14727151 2.5187335 -0.56484509
-0.15429121 2.6387892 -0.56874108
-0.15872768 2.7146642 -0.56148958
-0.1672772 2.8608837 -0.56694186
-0.1733899 2.9654272 -0.56204653
-0.18301988 3.1301255 -0.56631202
-0.19052586 3.2584975 -0.561566
-0.20163704 3.4485283 -0.56479746
-0.21305498 3.6438053 -0.56567472
-0.22368561 3.8256173 -0.56132662
-0.23802622 4.0708795 -0.56273657
-0.25386322 4.3417344 -0.56338495
-0.27218062 4.6550102 -0.56467265
-0.29215464 4.9966192 -0.56394452
-0.31600127 5.40446 -0.56445229
-0.34424305 5.8874693 -0.56539285
-0.37602249 6.4309821 -0.56359816
-0.41629136 7.1196861 -0.56426972
-0.46577883 7.9660535 -0.56465602
-0.52838218 9.0367365 -0.56498176
-0.60924709 10.419741 -0.56440598
-0.7213003 12.336148 -0.56525373
-0.88229656 15.089611 -0.56557691
-1.1329522 19.376488 -0.56476027
-1.5903949 27.19997 -0.56619954
-2.6577847 45.455166 -0.56766951
-0.14845672 2.0963178 -0.56311256
-0.15416828 2.1769693 -0.56537932
-0.15911962 2.2468858 -0.56360257
-0.1653596 2.3349988 -0.56507409
-0.17173146 2.4249742 -0.5655086
-0.17822756 2.5167038 -0.56483871
-0.18569127 2.6220968 -0.56559277
-0.19325989 2.7289715 -0.56489766
-0.20148726 2.8451478 -0.56427181
-0.21026078 2.9690363 -0.56317806
-0.21994105 3.1057289 -0.56234491
-0.23102757 3.2622788 -0.56266469
-0.24305767 3.4321525 -0.56256241
-0.25717297 3.6314709 -0.56420815
-0.27252141 3.8482022 -0.56508946
-0.28928941 4.0849786 -0.56513453
-0.30769351 4.3448577 -0.56423855
-0.32800621 4.6316881 -0.56229031
-0.35373843 4.9950461 -0.56421518
-0.38173467 5.3903737 -0.56342876
-0.41620681 5.8771453 -0.56485015
-0.45634469 6.443922 -0.5651812
-0.50564855 7.1401286 -0.56633985
-0.56488431 7.9765806 -0.56585181
-0.63883442 9.0208111 -0.56443453
-0.73834133 10.425921 -0.56518978
-0.87283909 12.325129 -0.56519789
-1.0671544 15.069004 -0.56525362
-1.3736328 19.396704 -0.56579906
-1.9265337 27.204069 -0.56673509
-3.2239997 45.525242 -0.56899673
-0.17525512 2.1067669 -0.56645542
-0.17973244 2.1605895 -0.56165689
-0.18667538 2.2440517 -0.56342483
-0.19390987 2.3310182 -0.56464511
-0.20125844 2.4193566 -0.56473297
-0.20867926 2.5085633 -0.56354499
-0.21775109 2.6176169 -0.56516129
-0.2273109 2.7325368 -0.56617147
-0.23667701 2.8451283 -0.56480241
-0.24629112 2.9607008 -0.5621289
-0.25851953 3.1077003 -0.56323487
-0.27218089 3.2719257 -0.56486309
-0.28555611 3.4327111 -0.56318694
-0.30138022 3.6229348 -0.56341511
-0.31963837 3.8424187 -0.56477469
-0.33852449 4.0694513 -0.56351972
-0.36129174 4.3431396 -0.56454968
-0.3862128 4.6427193 -0.56416339
-0.41561368 4.9961514 -0.56487465
-0.45008609 5.4105496 -0.5660733
-0.48928133 5.881721 -0.5658254
-0.53580171 6.440949 -0.56545562
-0.59229243 7.1200323 -0.56528085
-0.66217005 7.9600415 -0.56521344
-0.75065196 9.023695 -0.56514978
-0.86718422 10.424546 -0.56565052
-1.024869 12.320097 -0.56550229
-1.2538165 15.072308 -0.56591308
-1.6136403 19.397802 -0.56636709
-2.2636135 27.211222 -0.56742108
-3.7922158 45.586769 -0.57030541
-0.2004745 2.0974305 -0.56456524
-0.20756327 2.1715953 -0.5651387
-0.21520145 2.2515087 -0.56591874
-0.22202811 2.3229313 -0.56330496
-0.2308332 2.4150531 -0.5643484
-0.23945104 2.5052159 -0.56341183
-0.25055173 2.6213551 -0.56659067
-0.26135746 2.7344079 -0.56718212
-0.27180341 2.8436968 -0.56513906
-0.28300014 2.9608407 -0.56277364
-0.29641861 3.1012294 -0.56268013
-0.3127234 3.2718155 -0.56546515
-0.32823163 3.4340677 -0.56402904
-0.3457717 3.6175778 -0.56320065
-0.36653024 3.8347604 -0.56426883
-0.38981748 4.0783992 -0.5653798
-0.41482055 4.3399892 -0.56476051
-0.4431206 4.6360741 -0.56397533
-0.47764978 4.9973297 -0.56562912
-0.51691151 5.4080987 -0.56643909
-0.56219554 5.881875 -0.56646246
-0.61470765 6.4312744 -0.56522709
-0.6789577 7.1034794 -0.56458682
-0.75890368 7.9399009 -0.5644033
-0.86144334 9.0127048 -0.56508219
-0.99508303 10.410888 -0.5655306
-1.1767801 12.311861 -0.56574571
-1.4401685 15.067518 -0.56635535
-1.8539357 19.396488 -0.56695145
-2.6024973 27.228188 -0.56839919
-4.3590088 45.605389 -0.57116574
-0.22667703 2.0987756 -0.56563485
-0.23340701 2.1610878 -0.5631085
-0.24293751 2.2493296 -0.56607908
-0.24992436 2.3140199 -0.56184673
-0.26040965 2.4111021 -0.56413066
-0.27072003 2.5065646 -0.56442112
-0.28239533 2.6146648 -0.5658524
-0.29305637 2.7133739 -0.56352407
-0.30573276 2.8307433 -0.56326926
-0.32024053 2.9650688 -0.56428307
-0.33677053 3.1181183 -0.56645298
-0.3534306 3.2723718 -0.56626964
-0.37101731 3.435205 -0.56492245
-0.39213711 3.6307509 -0.56595939
-0.41363925 3.8298366 -0.56425011
-0.43860188 4.0609627 -0.5636676
-0.46768087 4.3302016 -0.56419247
-0.49872154 4.6176033 -0.56243193
-0.5384593 4.9855304 -0.5650003
-0.58174199 5.3862801 -0.56486034
-0.63236845 5.8550243 -0.56458277
-0.69485414 6.4335713 -0.56613714
-0.76807636 7.1115274 -0.56593436
-0.85824466 7.9463854 -0.56557167
-0.97192621 8.9989491 -0.56492633
-1.1234103 10.401523 -0.5657295
-1.3294109 12.308858 -0.56631601
-1.6267298 15.061698 -0.5668456
-2.0948629 19.396086 -0.56764972
-2.9393325 27.21493 -0.56883395
-4.9313197 45.658504 -0.57254708
-0.25208879 2.0927029 -0.56479084
-0.26094583 2.166229 -0.56524152
-0.2706131 2.2464817 -0.56615698
-0.27830067 2.3102994 -0.56173182
-0.28930271 2.4016323 -0.5627048
-0.3013998 2.5020556 -0.56419772
-0.31317654 2.5998199 -0.56343055
-0.32722226 2.7164197 -0.56494957
-0.34164709 2.8361666 -0.56514162
-0.35605121 2.9557416 -0.56329864
-0.37456265 3.1094136 -0.56566554
-0.39221013 3.2559133 -0.56421345
-0.4145146 3.4410727 -0.56668276
-0.43526065 3.6132951 -0.56403005
-0.46192223 3.834625 -0.56574965
-0.48917499 4.0608625 -0.56444597
-0.5217703 4.3314509 -0.56514853
-0.55771184 4.629818 -0.56471229
-0.59897959 4.9723997 -0.56430429
-0.64884955 5.3863931 -0.56566614
-0.70464337 5.8495626 -0.5648489
-0.77360082 6.4220095 -0.56591398
-0.85367185 7.0867157 -0.56475246
-0.95712978 7.9455662 -0.5663082
-1.0842197 9.000597 -0.56582391
-1.2522558 10.39554 -0.56619883
-1.4811635 12.295807 -0.56651074
-1.8140998 15.059661 -0.56756556
-2.3334172 19.37075 -0.56770504
-3.2783353 27.214941 -0.56963372
-5.5046649 45.696705 -0.57383156
-0.27770936 2.0887585 -0.5646053
-0.28726107 2.1606007 -0.56465185
-0.29826054 2.2433319 -0.56624466
-0.30880558 2.3226449 -0.56561404
-0.32039878 2.409842 -0.56550872
-0.33385783 2.5110726 -0.56711382
-0.3460266 2.6025984 -0.56491214
-0.36077514 2.7135279 -0.56522804
-0.37591642 2.8274114 -0.56427544
-0.39220738 2.9499419 -0.56306994
-0.41071725 3.0891616 -0.56285757
-0.43183383 3.2479875 -0.5637176
-0.45615506 3.430917 -0.56589127
-0.48245192 3.6287055 -0.5673188
-0.50833464 3.8233798 -0.56497002
-0.53825128 4.0483942 -0.56359023
-0.57365537 4.3146815 -0.5638383
-0.61513573 4.6266713 -0.56520838
-0.65968543 4.9617467 -0.56397325
-0.71522534 5.3794837 -0.56582141
-0.77692527 5.8435526 -0.56514829
-0.85146481 6.4041929 -0.56522381
-0.93971026 7.0679207 -0.56413293
-1.0560155 7.9426966 -0.56698632
-1.193836 8.9792976 -0.56536508
-1.3794848 10.375633 -0.56599569
-1.6310967 12.268104 -0.56611562
-1.9978197 15.026366 -0.56719375
-2.5756772 19.372654 -0.56864607
-3.6189592 27.219578 -0.57061905
-6.0832071 45.754131 -0.57544851
-0.30261362 2.0799816 -0.56319612
-0.3126829 2.1491919 -0.56263262
-0.32544896 2.236938 -0.56559813
-0.33784288 2.3221262 -0.56645656
-0.34868193 2.3966272 -0.56337118
-0.36363819 2.4994273 -0.56545091
-0.37781349 2.5968597 -0.56463224
-0.39457679 2.7120805 -0.56589442
-0.4116199 2.8292243 -0.56560463
-0.43024713 2.9572568 -0.5654332
-0.45023119 3.094615 -0.56481719
-0.47075763 3.2357013 -0.56254733
-0.49739984 3.4188235 -0.56486267
-0.52534992 3.6109354 -0.56550777
-0.55516577 3.8158715 -0.56482661
-0.58843088 4.0445156 -0.56401497
-0.62699884 4.309608 -0.56414014
-0.67296916 4.6255798 -0.56604314
-0.72093618 4.955276 -0.56420279
-0.78046209 5.3644209 -0.56520373
-0.85069209 5.8471389 -0.56646401
-0.93093812 6.3987012 -0.56570673
-1.0278274 7.0646591 -0.56483865
-1.1495821 7.9015274 -0.56501383
-1.3074545 8.9866457 -0.56679714
-1.5090073 10.371998 -0.56676668
-1.7847285 12.267137 -0.5670408
-2.1867249 15.030214 -0.56831098
-2.817364 19.364843 -0.56939071
-3.9565001 27.194571 -0.57107157
-6.6557775 45.747761 -0.57635409
-0.3304162 2.0903442 -0.56705922
-0.34009147 2.1515536 -0.56430304
-0.35048825 2.2173278 -0.56168705
-0.36494163 2.3087656 -0.5642494
-0.38083085 2.4092872 -0.56740505
-0.39485219 2.4979918 -0.56618172
-0.40892327 2.5870111 -0.56354153
-0.4259595 2.6947889 -0.56333673
-0.44743717 2.8306653 -0.56694973
-0.46485987 2.9408882 -0.56335384
-0.48882455 3.0924983 -0.56548518
-0.51334441 3.2476203 -0.56567425
-0.54011053 3.4169538 -0.56560832
-0.56881893 3.5985744 -0.56462467
-0.60446239 3.824069 -0.56709731
-0.63948649 4.0456457 -0.56522638
-0.6792829 4.2974133 -0.56359464
-0.72736406 4.601594 -0.56415981
-0.78127438 4.9426517 -0.56381661
-0.84589976 5.3514977 -0.56489533
-0.92181814 5.8317876 -0.56603211
-1.0090315 6.383534 -0.56541997
-1.1168001 7.065321 -0.5659467
-1.2513065 7.9162621 -0.56712484
-1.4153073 8.9537964 -0.56578016
-1.6372702 10.358022 -0.56706029
-1.9383559 12.26281 -0.56789964
-2.3696404 14.991286 -0.56789786
-3.0560493 19.333782 -0.56953925
-4.2985611 27.194405 -0.57213479
-7.2330813 45.759346 -0.57757694
-0.35521832 2.0809984 -0.56566614
-0.3667368 2.148478 -0.56463641
-0.38074568 2.230547 -0.56617886
-0.39548624 2.3169024 -0.56738365
-0.40806028 2.3905661 -0.56413513
-0.42603752 2.4958832 -0.5668484
-0.44305456 2.5955751 -0.56655103
-0.45826548 2.6846864 -0.56236029
-0.4791376 2.8069627 -0.56333989
-0.5025208 2.9439502 -0.56508136
-0.52554148 3.0788138 -0.5641219
-0.55348539 3.2425191 -0.5659284
-0.58180684 3.4084368 -0.56533998
-0.61308473 3.5916741 -0.56468213
-0.64869308 3.8002808 -0.56470984
-0.68992788 4.0418491 -0.56583846
-0.73629415 4.3134794 -0.56684619
-0.78197777 4.581111 -0.56278491
-0.84395295 4.9441843 -0.56513244
-0.91311342 5.3493514 -0.56581122
-0.99293697 5.8169866 -0.56573784
-1.0878975 6.3733006 -0.56565571
-1.2038811 7.0527744 -0.56608468
-1.3472764 7.8928366 -0.56659067
-1.5282542 8.9530697 -0.56687891
-1.7657427 10.344364 -0.56745833
-2.0907433 12.248337 -0.56837702
-2.5576007 14.983358 -0.56874591
-3.2972524 19.316507 -0.57018161
-4.6381555 27.172007 -0.57282013
-7.8157387 45.787449 -0.57910091
-0.37764695 2.0593965 -0.56101406
-0.39550802 2.1567972 -0.56805795
-0.40684208 2.2186043 -0.56437469
-0.41999644 2.2903383 -0.56210053
-0.43538126 2.3742354 -0.56150228
-0.45718008 2.4931092 -0.56745225
-0.47379172 2.5836964 -0.56518716
-0.49261934 2.6863678 -0.56393874
-0.51566529 2.812043 -0.56558919
-0.53802657 2.933984 -0.56439561
-0.56431085 3.0773182 -0.56507659
-0.5943321 3.2410312 -0.56690133
-0.62266082 3.3955142 -0.56442386
-0.65872979 3.592207 -0.56599659
-0.69833571 3.808187 -0.56711781
-0.73876452 4.0286546 -0.56522036
-0.789226 4.303833 -0.56681097
-0.84264243 4.5951252 -0.56573659
-0.90564388 4.9386868 -0.56573421
-0.97753668 5.3307347 -0.56507081
-1.0672886 5.8201733 -0.56728125
-1.1688309 6.3739066 -0.56694227
-1.2897329 7.0332131 -0.56574482
-1.4430791 7.8694458 -0.56614256
-1.6385823 8.9355707 -0.56700379
-1.8936006 10.326244 -0.56769872
-2.243108 12.232189 -0.56886464
-2.7437479 14.962296 -0.56918406
-3.5358243 19.281673 -0.57039362
-4.9753509 27.131744 -0.57321775
-8.394311 45.776131 -0.58021939
-0.40600091 2.0702062 -0.56527609
-0.421083 2.14711 -0.56682742
-0.43094423 2.1973927 -0.56028438
-0.45006034 2.2948661 -0.56452733
-0.46732354 2.3828917 -0.56486577
-0.4843829 2.4698775 -0.56347758
-0.50737453 2.5871122 -0.56725627
-0.52478588 2.6758931 -0.56305188
-0.55188262 2.8140597 -0.56731689
-0.57525027 2.933212 -0.56556505
-0.60295337 3.0744705 -0.56587231
-0.62952435 3.2099566 -0.5627774
-0.66336405 3.3825057 -0.56357479
-0.69927382 3.5656102 -0.56311822
-0.74253201 3.7861848 -0.56515819
-0.78751343 4.0155458 -0.56469703
-0.84141243 4.2903776 -0.56635869
-0.89786464 4.5782285 -0.56497294
-0.96545005 4.9228477 -0.56523705
-1.0421114 5.3137455 -0.56458557
-1.137391 5.7995777 -0.56659418
-1.2456579 6.3516326 -0.56628066
-1.3788229 7.0306439 -0.56685913
-1.5431594 7.8685985 -0.56740379
-1.7486597 8.9164486 -0.56711191
-2.0203259 10.30168 -0.56767112
-2.3934567 12.20428 -0.56889242
-2.9277554 14.928679 -0.56923175
-3.7765718 19.256809 -0.57098871
-5.3159032 27.10589 -0.57400918
-8.9752159 45.764793 -0.58143061
-0.43096501 2.0628581 -0.56467396
-0.44598362 2.1347463 -0.56496847
-0.4630453 2.216414 -0.56654334
-0.47877324 2.2916973 -0.5651533
-0.4969101 2.3785112 -0.56523311
-0.51481915 2.4642346 -0.56359184
-0.5366317 2.5686426 -0.56461072
-0.55766517 2.6693215 -0.56306946
-0.58311313 2.7911308 -0.56409729
-0.61098516 2.9245431 -0.56529945
-0.64194524 3.0727367 -0.5669632
-0.671 3.2118104 -0.56450629
-0.70601493 3.3794129 -0.56446332
-0.74745792 3.5777841 -0.56644952
-0.78829002 3.7732313 -0.56462884
-0.83783489 4.0103827 -0.56537706
-0.89409924 4.2796979 -0.56635737
-0.95513004 4.5718279 -0.56558967
-1.0295188 4.9278979 -0.56722754
-1.1113739 5.3197055 -0.56662798
-1.2068263 5.776598 -0.5657562
-1.3251703 6.3430634 -0.56692654
-1.464866 7.0117316 -0.56674367
-1.6376486 7.8387728 -0.56666237
-1.8573816 8.8905478 -0.56687438
-2.14815 10.28234 -0.56801802
-2.5419765 12.167431 -0.56858879
-3.1150472 14.910493 -0.56995571
-4.0188761 19.236763 -0.57181638
-5.6548467 27.067505 -0.57462537
-9.5563698 45.742546 -0.58259684
-0.45336351 2.0441792 -0.56104451
-0.47179639 2.1272914 -0.56448823
-0.49143052 2.2158203 -0.56789333
-0.50644988 2.2835414 -0.5646351
-0.52620971 2.3726368 -0.56533206
-0.54565525 2.4603152 -0.56418735
-0.57251567 2.5814266 -0.56892514
-0.58970618 2.6589372 -0.56236607
-0.61877602 2.7900109 -0.56536597
-0.64690775 2.9168544 -0.56530809
-0.67540079 3.0453272 -0.56339562
-0.71196961 3.2102132 -0.56572151
-0.74969095 3.3802955 -0.56610769
-0.79152775 3.5689342 -0.56654656
-0.83613902 3.770083 -0.5656535
-0.88762343 4.0022216 -0.56572253
-0.9459399 4.2651663 -0.56593084
-1.0134468 4.5695491 -0.56680661
-1.088625 4.9085212 -0.56649518
-1.1762139 5.303453 -0.56639457
-1.2775575 5.7604032 -0.56566584
-1.4038017 6.329628 -0.56722569
-1.5497222 6.9875717 -0.56628835
-1.7358021 7.8265901 -0.56728172
-1.9693033 8.8794279 -0.56766647
-2.276284 10.263579 -0.56848496
-2.692136 12.138622 -0.56874645
-3.3026769 14.891501 -0.57073903
-4.2572622 19.195648 -0.57210714
-5.9984946 27.046724 -0.57570654
-10.143317 45.735394 -0.58405018
-0.47899005 2.0406935 -0.5616619
-0.49586588 2.1125915 -0.562163
-0.51397115 2.1897273 -0.56278318
-0.53594416 2.2833414 -0.56617236
-0.55537128 2.3661089 -0.56536108
-0.57615197 2.454643 -0.56446856
-0.59995294 2.5560451 -0.56491446
-0.6248247 2.6620088 -0.56459802
-0.65077639 2.7725735 -0.56341147
-0.68284059 2.9091802 -0.56540537
-0.7142036 3.0427995 -0.56450999
-0.75165039 3.2023382 -0.56591976
-0.79129159 3.3712258 -0.56617552
-0.83286548 3.5483475 -0.5648616
-0.88177943 3.756741 -0.56523585
-0.93455577 3.9815898 -0.56438786
-0.99928313 4.2573547 -0.56648195
-1.0716007 4.5654569 -0.56789052
-1.1489973 4.8951988 -0.56654537
-1.2405168 5.285109 -0.5660218
-1.3485397 5.7453308 -0.56577134
-1.4787456 6.3000607 -0.56616271
-1.6364545 6.9719653 -0.56661153
-1.8322096 7.8059621 -0.56737673
-2.0768843 8.8483763 -0.56727105
-2.4042103 10.242919 -0.5689351
-2.842186 12.108875 -0.5689472
-3.4858758 14.851256 -0.57079625
-4.4970202 19.159145 -0.57262397
-6.3423553 27.021027 -0.57677603
-10.727369 45.702984 -0.58527654
-0.50493181 2.0382285 -0.56264979
-0.52296227 2.111011 -0.563411
-0.54464042 2.1985178 -0.56672084
-0.56144834 2.2663653 -0.56363225
-0.58595937 2.3653076 -0.5668484
-0.60782152 2.4535573 -0.56589484
-0.63009387 2.5434628 -0.56380337
-0.65994811 2.6639738 -0.56669307
-0.68600863 2.7691708 -0.56439143
-0.7198258 2.9056783 -0.5664022
-0.75465661 3.046278 -0.56683403
-0.78837484 3.1823864 -0.56406438
-0.83288205 3.3620458 -0.56631094
-0.87785685 3.5435932 -0.56578034
-0.92895395 3.7498536 -0.56587547
-0.98418885 3.9728169 -0.56481707
-1.050097 4.2388649 -0.56569707
-1.1271057 4.5497212 -0.56761426
-1.2062482 4.8691907 -0.56520927
-1.3078982 5.2795157 -0.56710225
-1.4226898 5.742888 -0.56721061
-1.5576632 6.2877269 -0.56673276
-1.7223325 6.9524379 -0.5667029
-1.9260918 7.774941 -0.56680053
-2.1926947 8.8511209 -0.56913257
-2.5275228 10.202702 -0.56838453
-2.9954925 12.091727 -0.56982911
-3.6693366 14.811794 -0.57097054
-4.7381682 19.126286 -0.57333982
-6.6781564 26.957319 -0.57712537
-11.314078 45.670872 -0.58660263
-0.53524679 2.0521557 -0.5682683
-0.54925728 2.1058726 -0.56379956
-0.57001907 2.1854739 -0.56512254
-0.59075648 2.264982 -0.56505203
-0.61173701 2.345422 -0.56384289
-0.63461578 2.43314 -0.56294304
-0.66321933 2.5428073 -0.56542313
-0.69002783 2.645592 -0.56454509
-0.72272474 2.7709532 -0.56652319
-0.75759506 2.9046471 -0.56797421
-0.79209161 3.0369081 -0.56686008
-0.82879758 3.1776404 -0.56498682
-0.87109292 3.339802 -0.56432575
-0.92560953 3.548821 -0.5683893
-0.97406811 3.7346127 -0.56534028
-1.035545 3.9703174 -0.56622922
-1.1019512 4.2249217 -0.56560183
-1.1805062 4.526104 -0.56643593
-1.2662383 4.854804 -0.56530392
-1.3739635 5.2678261 -0.56761849
-1.4897107 5.7116051 -0.56588739
-1.637194 6.2770619 -0.56754315
-1.8117833 6.9464436 -0.56798726
-2.0271897 7.7723198 -0.56838369
-2.2980161 8.8106775 -0.56830609
-2.655036 10.179505 -0.56886804
-3.143147 12.050941 -0.56968528
-3.8564355 14.785715 -0.57174999
-4.9781585 19.086443 -0.57393706
-7.0202279 26.915812 -0.57804114
-11.901559 45.631012 -0.58792591
-0.55357593 2.0203726 -0.56130964
-0.57595605 2.1020529 -0.56463033
-0.59674275 2.1779175 -0.5650233
-0.61845678 2.2571666 -0.56495684
-0.64163953 2.3417764 -0.56482047
-0.66779125 2.4372215 -0.5657444
-0.69687253 2.5433588 -0.56740832
-0.72128087 2.6324413 -0.56358886
-0.75657898 2.7612679 -0.56640232
-0.78638303 2.870043 -0.56305599
-0.82590574 3.0142882 -0.56449085
-0.86610383 3.1609983 -0.56387883
-0.91637194 3.3444605 -0.56697398
-0.96119493 3.5080497 -0.56370968
-1.0213735 3.7276821 -0.56614953
-1.0853435 3.9611516 -0.56678253
-1.1526226 4.2066989 -0.56501698
-1.234539 4.5056672 -0.5657354
-1.3306167 4.8563199 -0.56734276
-1.4376192 5.2468438 -0.56721956
-1.5600555 5.693697 -0.5659709
-1.7107686 6.2437506 -0.56639045
-1.8951895 6.9168272 -0.56742829
-2.1240637 7.7521443 -0.56877536
-2.4044287 8.7753849 -0.5678938
-2.7834883 10.15883 -0.56958228
-3.2964821 12.031091 -0.57062
-4.0390296 14.741148 -0.57190388
-5.2151408 19.033573 -0.57423222
-7.3586783 26.856789 -0.57867306
-12.489523 45.582706 -0.58923775
-0.58121425 2.0232949 -0.5640645
-0.60033733 2.0898652 -0.56329691
-0.62616086 2.1797609 -0.56745613
-0.64819533 2.2564664 -0.56673372
-0.67167139 2.3381901 -0.5659048
-0.6987676 2.4325161 -0.56660384
-0.72468716 2.5227458 -0.56475496
-0.75791907 2.6384313 -0.56682372
-0.78891408 2.7463295 -0.56528521
-0.82207578 2.8617706 -0.56337357
-0.86214858 3.0012701 -0.56399566
-0.90688771 3.1570137 -0.56511456
-0.95872182 3.3374562 -0.56774217
-1.0036091 3.4937155 -0.56334674
-1.0654082 3.7088475 -0.56523597
-1.1302024 3.9344063 -0.56490147
-1.2021052 4.1847105 -0.56400639
-1.2921519 4.4981771 -0.56674707
-1.3911306 4.8427362 -0.56771135
-1.498476 5.2164226 -0.56588
-1.6324248 5.6827183 -0.56683213
-1.7881458 6.2248068 -0.56662375
-1.9848123 6.9094324 -0.56878084
-2.2199979 7.7281494 -0.56897467
-2.5166519 8.7608471 -0.56891257
-2.909075 10.126931 -0.56975639
-3.4477141 12.002016 -0.57120854
-4.2227964 14.700195 -0.57228631
-5.4558415 18.992611 -0.57497698
-7.6988626 26.800907 -0.57946503
-13.073921 45.512302 -0.59036112
-0.60382551 2.0086033 -0.5619961
-0.62726885 2.0865867 -0.56444955
-0.6490311 2.158978 -0.56408072
-0.67621821 2.2494149 -0.5670082
-0.6977424 2.3210142 -0.56378168
-0.72698617 2.4182925 -0.56533027
-0.75647473 2.5163853 -0.56537068
-0.78546816 2.6128309 -0.56335628
-0.82372093 2.7400773 -0.56604034
-0.85600895 2.8474822 -0.56259036
-0.89789498 2.9868145 -0.56331134
-0.94982338 3.1595523 -0.56761676
-0.99622029 3.31389 -0.56577438
-1.0549977 3.5094106 -0.56792641
-1.1121404 3.6994939 -0.56585181
-1.1799594 3.9250913 -0.56560457
-1.2610923 4.1949773 -0.56743723
-1.3476278 4.4828339 -0.56685895
-1.4455326 4.8085103 -0.56574005
-1.5654174 5.207303 -0.56693602
-1.703191 5.6656022 -0.56717092
-1.8703818 6.221756 -0.56839663
-2.0654855 6.8707609 -0.56764525
-2.3163052 7.7051029 -0.56933188
-2.6229174 8.7250376 -0.56863862
-3.0335619 10.091031 -0.56979221
-3.5949306 11.958404 -0.57119364
-4.4072237 14.660467 -0.57280612
-5.6969872 18.950817 -0.57578897
-8.0402269 26.745516 -0.58036113
-13.665936 45.459229 -0.59180772
-0.62955749 2.004468 -0.56296253
-0.65363425 2.0811269 -0.56510413
-0.67455143 2.1477258 -0.56326538
-0.70046544 2.2302341 -0.56430185
-0.72784114 2.3173966 -0.56503421
-0.75542605 2.405225 -0.56440431
-0.78848881 2.5104945 -0.56618279
-0.82601386 2.629972 -0.56919903
-0.85576129 2.7246854 -0.56499183
-0.89454764 2.8481786 -0.56485856
-0.93634826 2.9812689 -0.5643943
-0.98967105 3.1510451 -0.5682317
-1.0390296 3.3081994 -0.56694126
-1.0945153 3.4848623 -0.56608897
-1.154448 3.675684 -0.56433862
-1.2276798 3.9088488 -0.56539661
-1.3093692 4.168942 -0.56605065
-1.4008007 4.4600539 -0.56611371
-1.5040634 4.788835 -0.56555837
-1.6303314 5.1908641 -0.56728595
-1.7710297 5.6388378 -0.56662887
-1.947168 6.1996498 -0.5685215
-2.1493597 6.8434148 -0.56752664
-2.4080052 7.6669245 -0.56865573
-2.7295105 8.6905756 -0.56853712
-3.1579461 10.054686 -0.56988943
-3.7436554 11.919544 -0.57149309
-4.5923843 14.62184 -0.57345992
-5.9305816 18.882568 -0.57588744
-8.3777943 26.674326 -0.58100784
-14.247285 45.362381 -0.59278286
-0.65829104 2.0091968 -0.56652117
-0.6746375 2.0590885 -0.56133002
-0.70138109 2.1407137 -0.56364566
-0.72488236 2.2124429 -0.56201303
-0.75495803 2.3042381 -0.56404668
-0.78966266 2.4101615 -0.56779826
-0.81752926 2.4952142 -0.56496114
-0.85222584 2.6011131 -0.56517845
-0.89511728 2.7320237 -0.56875283
-0.93036842 2.8396151 -0.56538635
-0.97280997 2.9691529 -0.56432253
-1.0264304 3.1328099 -0.56717646
-1.0752726 3.281883 -0.56465453
-1.1371328 3.4706888 -0.56601518
-1.2031034 3.6720407 -0.56600785
-1.2762846 3.8954 -0.5656786
-1.362075 4.1572442 -0.5666936
-1.4564319 4.4452348 -0.56646305
-1.5710208 4.7949762 -0.5685221
-1.6952305 5.1740818 -0.56768709
-1.8426622 5.6240644 -0.56737828
-2.0210712 6.1685934 -0.5679096
-2.236608 6.8264422 -0.56835687
-2.5095992 7.6596498 -0.57036191
-2.8423638 8.6752939 -0.56978077
-3.2867618 10.031659 -0.57083189
-3.892206 11.87956 -0.57182747
-4.7785697 14.584866 -0.57427096
-6.1682639 18.826408 -0.57644433
-8.7137957 26.595728 -0.58158576
-14.843565 45.304646 -0.59436858
-0.68144351 1.9965503 -0.56527531
-0.7031669 2.0601974 -0.56394684
-0.73077762 2.1410935 -0.56606889
-0.7562868 2.2158325 -0.56519371
-0.78704411 2.305948 -0.56679142
-0.80864167 2.3692262 -0.56045473
-0.85045099 2.4917228 -0.56649554
-0.88910073 2.6049619 -0.56834733
-0.91779822 2.6890423 -0.56211191
-0.96685064 2.8327601 -0.56634581
-1.0150051 2.9738472 -0.56754398
-1.0564991 3.0954196 -0.56271666
-1.1183254 3.2765634 -0.56606245
-1.1821986 3.4637048 -0.56720406
-1.2465277 3.6521814 -0.56526661
-1.3255461 3.8836966 -0.56630319
-1.4125148 4.1385045 -0.56646395
-1.5095319 4.4227533 -0.56592083
-1.6287737 4.7721181 -0.56814361
-1.7609721 5.1594439 -0.56841391
-1.9094441 5.5944495 -0.56671649
-2.1001453 6.153182 -0.56882524
-2.3189549 6.7942686 -0.56800932
-2.5968058 7.6083398 -0.56887591
-2.9446564 8.6275015 -0.56897694
-3.4068153 9.9815731 -0.57032251
-4.0386963 11.832911 -0.57192928
-4.9506955 14.504963 -0.57347846
-6.4012527 18.754929 -0.57662219
-9.0548687 26.529713 -0.58253294
-15.432236 45.214657 -0.59563255
-0.70734245 1.9919683 -0.56639779
-0.73066431 2.0576458 -0.56566495
-0.75827897 2.1354122 -0.56698912
-0.78775859 2.2184308 -0.56828427
-0.81333834 2.2904665 -0.56540167
-0.84193116 2.3709877 -0.56327784
-0.87912077 2.4757183 -0.56527185
-0.91373783 2.5732048 -0.56382734
-0.9532792 2.6845582 -0.5635823
-0.99971378 2.8153241 -0.56527483
-1.0409268 2.9313853 -0.56184059
-1.1021271 3.1037333 -0.56664884
-1.1620617 3.2725167 -0.56778908
-1.2250044 3.4497719 -0.56734627
-1.2934365 3.6424856 -0.56618482
-1.3750283 3.8722584 -0.56705791
-1.4666026 4.1301436 -0.56774503
-1.5706174 4.4230633 -0.5683887
-1.680189 4.7316308 -0.56574035
-1.8270369 5.1451735 -0.56927377
-1.9804077 5.5770855 -0.5673815
-2.1732614 6.1201868 -0.5682025
-2.4071922 6.7789664 -0.56916165
-2.6908114 7.5776749 -0.56901401
-3.0519178 8.5945978 -0.5692389
-3.5344598 9.9534988 -0.57115847
-4.1826324 11.778836 -0.57175827
-5.1379309 14.469082 -0.57451427
-6.6435542 18.709112 -0.57768154
-9.3856468 26.431204 -0.58285993
-16.020319 45.115299 -0.59687358
-0.73474538 1.9911532 -0.56869197
-0.75508803 2.0462816 -0.5650506
-0.78543413 2.1285193 -0.56768036
-0.81129742 2.1986086 -0.56571925
-0.84027231 2.2771301 -0.56461746
-0.87240613 2.3642125 -0.56417418
-0.91151881 2.4702075 -0.56652993
-0.94674069 2.5656586 -0.56468201
-0.98570842 2.6712608 -0.56329268
-1.0369016 2.8099937 -0.56672174
-1.0873603 2.9467363 -0.56730264
-1.141901 3.0945411 -0.56749123
-1.2039417 3.262671 -0.56860638
-1.2653205 3.4290071 -0.56644732
-1.338796 3.628125 -0.56646866
-1.4215955 3.8525107 -0.56668305
-1.5172728 4.1117954 -0.56774455
-1.6166034 4.38098 -0.56549257
-1.7416328 4.7198091 -0.56684464
-1.8819524 5.1000738 -0.56680137
-2.0516248 5.5598845 -0.56815511
-2.2491956 6.0952997 -0.56841671
-2.491338 6.751503 -0.56938487
-2.7845607 7.546134 -0.56917369
-3.1656799 8.5789633 -0.57073843
-3.6572242 9.9110432 -0.57125968
-4.3359694 11.750437 -0.57292449
-5.3225188 14.423977 -0.57527852
-6.8776631 18.638403 -0.57806587
-9.7233295 26.350134 -0.58366466
-16.609947 45.012802 -0.59817445
-0.75011164 1.9583144 -0.56190479
-0.78413224 2.0471318 -0.56790501
-0.80831236 2.1102588 -0.56541836
-0.83607012 2.1827259 -0.56423521
-0.87210804 2.2768099 -0.56715417
-0.90421402 2.3606291 -0.56592947
-0.94161385 2.4582686 -0.56640446
-0.97748077 2.5519063 -0.56425804
-1.0288837 2.6861038 -0.56904751
-1.0673395 2.7865002 -0.56458783
-1.1177595 2.9181316 -0.56439912
-1.1735346 3.0637436 -0.5644471
-1.2380593 3.232198 -0.56590605
-1.30633 3.4104319 -0.56598955
-1.3858806 3.6181147 -0.5675236
-1.4701482 3.8381119 -0.56718135
-1.5684422 4.0947275 -0.56800795
-1.6689342 4.3570819 -0.56501406
-1.8028498 4.7066951 -0.56788915
-1.955336 5.1047902 -0.56995457
-2.1200547 5.534821 -0.56821495
-2.3247864 6.0693135 -0.56861621
-2.5708282 6.7116542 -0.56864721
-2.8793945 7.5172272 -0.56962085
-3.267849 8.5313644 -0.57020199
-3.7875443 9.8881311 -0.57258022
-4.4796996 11.695139 -0.57287079
-5.4992809 14.356957 -0.57525903
-7.1119127 18.567051 -0.57852149
-10.06239 26.269854 -0.58458292
-17.200417 44.905079 -0.59950835
-0.78295082 1.9711418 -0.5683049
-0.80438083 2.0250936 -0.56449246
-0.83095539 2.0919971 -0.56322056
-0.85991257 2.1648991 -0.56231779
-0.90015537 2.2662134 -0.56722891
-0.93175626 2.3457713 -0.56507158
