# .PCD v0.7 - Point Cloud Data file format
VERSION 0.7
FIELDS x y z
SIZE 4 4 4
TYPE F F F
COUNT 1 1 1
WIDTH 1402
HEIGHT 1
VIEWPOINT 0 0 0 1 0 0 0
POINTS 1402
DATA ascii
-0.95085901 -2.5768192 -0.56713837
-0.98810345 -2.6777513 -0.56466138
-1.0348023 -2.8043046 -0.56557441
-1.0841876 -2.9381385 -0.56564742
-1.1386437 -3.0857141 -0.56587249
-1.1969949 -3.2438452 -0.5653255
-1.2648262 -3.4276674 -0.56622601
-1.3382891 -3.6267512 -0.5662542
-1.4275583 -3.86867 -0.56905997
-1.5142597 -4.1036301 -0.56661707
-1.6213057 -4.3937235 -0.56713748
-1.7491105 -4.7400732 -0.56927836
-1.8861688 -5.1115003 -0.56807125
-2.0539923 -5.5663004 -0.56881076
-2.2545512 -6.1098132 -0.56977016
-2.4927034 -6.7552032 -0.5696969
-2.7936182 -7.5706797 -0.57102507
-3.1703587 -8.5916433 -0.57158202
-3.6626062 -9.9256296 -0.5721004
-4.3366427 -11.752262 -0.57301348
-5.3252773 -14.431453 -0.57557666
-6.8894725 -18.670406 -0.57905847
-9.7527037 -26.429737 -0.58542788
-16.673038 -45.183781 -0.60044664
-0.70517588 -1.9858669 -0.56466287
-0.72957575 -2.0545802 -0.5648222
-0.75721592 -2.1324184 -0.56619424
-0.78389114 -2.2075393 -0.56549424
-0.81478053 -2.294528 -0.56640422
-0.8468169 -2.3847466 -0.56654656
-0.88107789 -2.48123 -0.56653029
-0.92349583 -2.6006844 -0.56984854
-0.95604438 -2.6923454 -0.56521708
-1.0011731 -2.8194337 -0.56609994
-1.0453086 -2.9437249 -0.56420571
-1.1042243 -3.1096394 -0.56772715
-1.1570352 -3.2583616 -0.56533313
-1.2226439 -3.4431243 -0.56625301
-1.2975005 -3.6539299 -0.56796372
-1.3735507 -3.8680973 -0.56644857
-1.4676638 -4.133132 -0.56815583
-1.5638291 -4.4039459 -0.56593204
-1.6913536 -4.7630715 -0.56949961
-1.8248253 -5.1389456 -0.56858468
-1.9840244 -5.5872707 -0.56841767
-2.1767445 -6.1299958 -0.56911319
-2.4092879 -6.7848682 -0.56965715
-2.695437 -7.5907011 -0.56999218
-3.057694 -8.6108646 -0.57031626
-3.5378082 -9.9629288 -0.57169962
-4.1911387 -11.802793 -0.57292116
-5.1449218 -14.48877 -0.57529598
-6.6531773 -18.736214 -0.57851833
-9.4108963 -26.502308 -0.58442795
-16.081423 -45.287376 -0.59915018
-0.68041748 -1.9935442 -0.56442416
-0.70816141 -2.0748308 -0.56795245
-0.73088819 -2.1414175 -0.56615454
-0.75585347 -2.2145629 -0.56486988
-0.78535807 -2.301008 -0.56557715
-0.81508166 -2.3880947 -0.56491816
-0.84655428 -2.4803057 -0.56389987
-0.88340431 -2.5882721 -0.56470597
-0.9263044 -2.7139645 -0.5673216
-0.95959359 -2.8114977 -0.56209487
-1.0122861 -2.9658806 -0.56602359
-1.0614504 -3.1099265 -0.56535387
-1.114466 -3.2652559 -0.56410897
-1.1778954 -3.451097 -0.56513947
-1.2488867 -3.6590931 -0.56633639
-1.3237302 -3.878376 -0.56552738
-1.4120536 -4.1371531 -0.56627893
-1.5109141 -4.4268031 -0.56643897
-1.6269376 -4.7667384 -0.56750315
-1.7608372 -5.1590486 -0.56837034
-1.9143547 -5.6088371 -0.56817394
-2.0943894 -6.1363177 -0.56726623
-2.3223484 -6.8042111 -0.56884056
-2.6004081 -7.6188941 -0.56966501
-2.9531741 -8.6524572 -0.5706228
-3.4102073 -9.9915113 -0.57089037
-4.0391941 -11.83437 -0.57199979
-4.9578767 -14.526004 -0.5743103
-6.4084411 -18.77599 -0.57726973
-9.0738726 -26.585394 -0.58375555
-15.486613 -45.373978 -0.59773135
-0.65344989 -1.9944209 -0.56235492
-0.67942405 -2.0736976 -0.56531262
-0.70360208 -2.1474924 -0.56543052
-0.72862601 -2.2238691 -0.5649156
-0.75861496 -2.3153996 -0.5667789
-0.78889769 -2.4078267 -0.56724828
-0.82007182 -2.5029745 -0.56671816
-0.8519733 -2.6003423 -0.56501102
-0.88727045 -2.7080741 -0.56376702
-0.93520397 -2.8543739 -0.56832492
-0.97484827 -2.975374 -0.56550491
-1.0274322 -3.1358676 -0.56773007
-1.0764261 -3.2854042 -0.56526035
-1.1353829 -3.465348 -0.56514418
-1.2001578 -3.6630504 -0.56462204
-1.2773801 -3.8987439 -0.56616414
-1.3624234 -4.1583076 -0.56683856
-1.460628 -4.4580421 -0.56809509
-1.5654614 -4.778008 -0.56651026
-1.6948891 -5.1730399 -0.56757277
-1.8478236 -5.6398177 -0.56896758
-2.0225968 -6.1732502 -0.56833827
-2.2419732 -6.8428173 -0.56972027
-2.4994886 -7.6287904 -0.56806397
-2.8416736 -8.6731873 -0.56964242
-3.2873161 -10.033351 -0.57092816
-3.897243 -11.894934 -0.57256752
-4.7747107 -14.573089 -0.57380724
-6.1811433 -18.865719 -0.57764798
-8.7331486 -26.654797 -0.5828774
-14.89446 -45.459988 -0.59640652
-0.62859166 -2.0013931 -0.56209892
-0.65248919 -2.077481 -0.56411409
-0.67961681 -2.1638534 -0.56749505
-0.70690906 -2.2507503 -0.56949288
-0.72625965 -2.3123612 -0.56380647
-0.75618422 -2.407639 -0.56497079
-0.7900579 -2.5154905 -0.5673095
-0.82158905 -2.6158836 -0.56614989
-0.85717458 -2.7291853 -0.56592494
-0.89718008 -2.85656 -0.56652081
-0.93797284 -2.9864416 -0.5653736
-0.98208815 -3.1269016 -0.56387788
-1.035796 -3.297904 -0.5651769
-1.0940479 -3.4833741 -0.56584722
-1.1619862 -3.6996849 -0.56802356
-1.2291185 -3.9134293 -0.56605917
-1.3138489 -4.1832051 -0.56798726
-1.4031105 -4.4674082 -0.56704718
-1.5133932 -4.8185406 -0.56906658
-1.6294471 -5.1880484 -0.56697822
-1.7749703 -5.6513844 -0.56788963
-1.9443945 -6.1908197 -0.56771171
-2.1526706 -6.8539562 -0.56840086
-2.4082303 -7.6676412 -0.5687089
-2.7365959 -8.7131338 -0.57001287
-3.1633253 -10.071812 -0.57086015
-3.7490056 -11.936578 -0.57230979
-4.5956955 -14.63238 -0.57387334
-5.9420867 -18.919199 -0.57700467
-8.3934326 -26.724119 -0.58209234
-14.299256 -45.527859 -0.59494519
-0.60855824 -2.0243466 -0.566401
-0.6261915 -2.083003 -0.56348014
-0.64502078 -2.1456378 -0.56059527
-0.67538673 -2.2466488 -0.566311
-0.70037347 -2.3297665 -0.5659076
-0.72815621 -2.4221847 -0.56624019
-0.75410455 -2.5085008 -0.56359929
-0.79143733 -2.6326871 -0.5676375
-0.82253623 -2.7361364 -0.56522626
-0.86400849 -2.8740923 -0.56784785
-0.90316147 -3.0043333 -0.5666154
-0.94791341 -3.153199 -0.56647533
-0.99802107 -3.3198802 -0.56679708
-1.0529982 -3.5027597 -0.56685007
-1.1104864 -3.6939921 -0.56501031
-1.1821672 -3.9324355 -0.56666285
-1.2609898 -4.1946359 -0.56739104
-1.3469371 -4.4805365 -0.56656843
-1.4459922 -4.81004 -0.56592
-1.5637603 -5.2017908 -0.56633586
-1.7053169 -5.6726737 -0.56787884
-1.8719248 -6.2268882 -0.56886548
-2.0662501 -6.8733044 -0.56785542
-2.3196185 -7.7161255 -0.57014632
-2.6254718 -8.7335358 -0.56919247
-3.0371134 -10.102846 -0.57045925
-3.6005046 -11.976946 -0.57207924
-4.4107456 -14.672182 -0.57326388
-5.7059751 -18.980717 -0.57669735
-8.0515642 -26.783232 -0.5811795
-13.708727 -45.601574 -0.59366083
-0.5829432 -2.0293138 -0.56574243
-0.60170788 -2.0946364 -0.56458294
-0.62401074 -2.1722763 -0.56550765
-0.64317405 -2.2389863 -0.56234342
-0.66983044 -2.3317814 -0.5643537
-0.69928545 -2.4343188 -0.56702375
-0.72413522 -2.5208244 -0.56432486
-0.75445628 -2.6263766 -0.56423402
-0.79132724 -2.7547302 -0.56701434
-0.8234939 -2.8667073 -0.56434542
-0.86383712 -3.007148 -0.56510025
-0.90456408 -3.1489246 -0.56366664
-0.95533794 -3.3256762 -0.56573826
-1.0105157 -3.5177581 -0.56722355
-1.0674955 -3.7161138 -0.56634337
-1.1331408 -3.9446349 -0.56637013
-1.207067 -4.2019835 -0.56633443
-1.2930428 -4.5012779 -0.56713778
-1.387441 -4.8298926 -0.56620568
-1.5035843 -5.2342048 -0.56780905
-1.6353219 -5.6928034 -0.56783801
-1.7952751 -6.2496252 -0.56888288
-1.9783707 -6.8870082 -0.56693488
-2.2162302 -7.7150331 -0.56800902
-2.5167603 -8.7612238 -0.56893706
-2.9123344 -10.138278 -0.57039475
-3.4491599 -12.007049 -0.57144809
-4.2248249 -14.707255 -0.5725612
-5.4615283 -19.012409 -0.57557631
-7.7150145 -26.857136 -0.58068073
-13.119377 -45.670544 -0.59241378
-0.55645132 -2.0308669 -0.5642252
-0.57378173 -2.0941172 -0.56249875
-0.59766525 -2.1812844 -0.56589675
-0.61400133 -2.2409058 -0.56088686
-0.64166772 -2.3418791 -0.56484526
-0.66979456 -2.4445329 -0.56744158
-0.69109738 -2.5222814 -0.56270605
-0.72447681 -2.6441054 -0.56608611
-0.75521892 -2.756304 -0.56538409
-0.7915104 -2.8887563 -0.56672722
-0.82530785 -3.0121062 -0.56408221
-0.86780822 -3.1672184 -0.56498843
-0.91539419 -3.3408921 -0.56636906
-0.96585572 -3.5250602 -0.56644309
-1.0225517 -3.731982 -0.56680256
-1.0852218 -3.9607077 -0.566719
-1.1521467 -4.2049623 -0.56478375
-1.235027 -4.5074482 -0.56595898
-1.3271245 -4.843574 -0.56585371
-1.4373463 -5.2458477 -0.56711191
-1.5584745 -5.6879268 -0.56539732
-1.7136037 -6.2540979 -0.56732911
-1.8999192 -6.9340892 -0.56884438
-2.123807 -7.7512069 -0.56870657
-2.4051497 -8.778017 -0.56806409
-2.7818584 -10.152882 -0.5692488
-3.2992527 -12.041203 -0.57109964
-4.0435853 -14.757775 -0.57254899
-5.2247152 -19.068516 -0.57528645
-7.3724742 -26.907141 -0.57975799
-12.529799 -45.729706 -0.59113795
-0.53073621 -2.034862 -0.56347942
-0.55195183 -2.1162035 -0.56656539
-0.5738439 -2.2001386 -0.56891447
-0.59091043 -2.2655721 -0.56519932
-0.61381036 -2.3533714 -0.56575388
-0.63620222 -2.4392226 -0.56435031
-0.66777539 -2.5602753 -0.56930733
-0.69275641 -2.6560535 -0.56677747
-0.71806157 -2.7530744 -0.56286788
-0.75396091 -2.8907139 -0.56524968
-0.78897101 -3.0249438 -0.56462687
-0.82853448 -3.1766317 -0.56480747
-0.87373036 -3.3499141 -0.56603438
-0.92134935 -3.5324872 -0.56577325
-0.97710305 -3.746249 -0.56710172
-1.0379376 -3.979491 -0.56753755
-1.1062219 -4.2412953 -0.56779385
-1.17913 -4.5208273 -0.56577563
-1.2699295 -4.8689566 -0.56695187
-1.3740044 -5.267983 -0.56763542
-1.4914653 -5.7183328 -0.56655395
-1.636145 -6.2730398 -0.56717944
-1.8088764 -6.935298 -0.56707597
-2.0255094 -7.7658772 -0.56791258
-2.295424 -8.8007402 -0.5676651
-2.6587424 -10.193716 -0.56966221
-3.1520364 -12.085023 -0.57129651
-3.8568051 -14.787132 -0.57180476
-4.9805827 -19.095736 -0.57421654
-7.0320525 -26.961147 -0.57901478
-11.937575 -45.7691 -0.58970511
-0.50619441 -2.0433249 -0.56405669
-0.52827251 -2.1324463 -0.56913197
-0.54351503 -2.193975 -0.56554979
-0.56170988 -2.2674212 -0.56389481
-0.58311152 -2.353812 -0.56409341
-0.60725147 -2.4512563 -0.56536412
-0.63233095 -2.5524929 -0.56580508
-0.65909427 -2.660527 -0.56595987
-0.68807989 -2.7775314 -0.56609547
-0.71727163 -2.8953681 -0.56439245
-0.75353825 -3.0417633 -0.56599402
-0.79049242 -3.1909342 -0.56557947
-0.83425921 -3.367605 -0.56724739
-0.87939388 -3.5497975 -0.56677091
-0.93045849 -3.7559268 -0.56679195
-0.98222381 -3.964885 -0.56368935
-1.0512993 -4.2437181 -0.56634474
-1.12255 -4.5313315 -0.56531996
-1.2086034 -4.8786979 -0.56631285
-1.3108494 -5.2914286 -0.56838191
-1.4231406 -5.7447081 -0.56739044
-1.5622642 -6.3062997 -0.56840682
-1.7283586 -6.9767632 -0.56868571
-1.9337856 -7.8059983 -0.56906468
-2.190532 -8.842392 -0.56857127
-2.5299685 -10.212574 -0.56893456
-2.9981089 -12.102289 -0.57032681
-3.6750019 -14.834663 -0.57185209
-4.7399435 -19.133451 -0.57355464
-6.6909084 -27.008795 -0.5782274
-11.34743 -45.805504 -0.58833182
-0.48161381 -2.0518718 -0.56473851
-0.49752027 -2.1196399 -0.56403857
-0.51520789 -2.1949964 -0.56413734
-0.53524113 -2.2803462 -0.56542963
-0.55474263 -2.3634305 -0.56472111
-0.57614517 -2.4546139 -0.56446189
-0.60128957 -2.5617397 -0.56617302
-0.62643772 -2.6688809 -0.5660556
-0.64841062 -2.7624943 -0.56136328
-0.68134338 -2.9028015 -0.56416565
-0.71488303 -3.0456941 -0.56504703
-0.75206882 -3.2041209 -0.56623477
-0.79343247 -3.380347 -0.5677073
-0.83515185 -3.5580885 -0.56641227
-0.8833074 -3.7632508 -0.56621528
-0.9400245 -4.004889 -0.56769049
-0.995906 -4.2429671 -0.56456751
-1.0679305 -4.5498209 -0.56594557
-1.148199 -4.8917975 -0.56615174
-1.2414527 -5.2890964 -0.56644881
-1.3515502 -5.7581568 -0.56703436
-1.4813365 -6.3110995 -0.56715471
-1.635766 -6.9690323 -0.56637317
-1.8309585 -7.800632 -0.5669893
-2.0803316 -8.8630638 -0.56821269
-2.4047146 -10.245068 -0.56905437
-2.8470387 -12.129549 -0.56991857
-3.4912462 -14.874137 -0.5716756
-4.5035858 -19.187117 -0.57345998
-6.3466225 -27.039207 -0.57716411
-10.756015 -45.82502 -0.58683938
-0.45578453 -2.0550954 -0.56404054
-0.47208551 -2.1285951 -0.56483418
-0.48956227 -2.2073965 -0.56573439
-0.50694561 -2.2857766 -0.56518781
-0.52269387 -2.3567841 -0.56155485
-0.55006945 -2.4802184 -0.56875145
-0.56778312 -2.5600879 -0.56422228
-0.59063989 -2.6631472 -0.5632565
-0.61771208 -2.7852137 -0.56439388
-0.64449978 -2.905997 -0.56320387
-0.67811221 -3.0575528 -0.56565732
-0.71002156 -3.2014296 -0.56417364
-0.75104415 -3.3863969 -0.56712949
-0.78821623 -3.5540028 -0.56417626
-0.83552486 -3.7673137 -0.56523806
-0.89137465 -4.019136 -0.56811333
-0.94747084 -4.272069 -0.56684679
-1.0132749 -4.5687742 -0.56671047
-1.0880769 -4.9060507 -0.56621003
-1.1807142 -5.3237448 -0.56856167
-1.2811201 -5.7764664 -0.56724328
-1.4030261 -6.3261304 -0.56691223
-1.5528053 -7.0014725 -0.56741494
-1.7375946 -7.8346729 -0.56786758
-1.9721406 -8.8922215 -0.56848437
-2.2786899 -10.274427 -0.56908578
-2.6986458 -12.167975 -0.57012177
-3.3023622 -14.890082 -0.57068461
-4.2673001 -19.24091 -0.57345605
-6.0056391 -27.078939 -0.57639229
-10.167951 -45.846462 -0.58546853
-0.43247649 -2.0700929 -0.56665438
-0.44727248 -2.1409156 -0.56660122
-0.4621838 -2.2122903 -0.56548929
-0.48108062 -2.3027418 -0.56787699
-0.49576631 -2.3730364 -0.56393206
-0.51903582 -2.4844179 -0.56820798
-0.53627568 -2.5669386 -0.56423616
-0.5591045 -2.6762111 -0.56452274
-0.58376086 -2.7942312 -0.56472391
-0.61117595 -2.9254563 -0.56547594
-0.64086437 -3.0675631 -0.56600857
-0.6695888 -3.2050555 -0.56331909
-0.7073642 -3.3858712 -0.56554204
-0.74813598 -3.5810297 -0.56696343
-0.78969872 -3.779974 -0.56563783
-0.83638591 -4.0034471 -0.5643993
-0.89261132 -4.2725759 -0.56541491
-0.95678562 -4.5797524 -0.56657004
-1.0269476 -4.9155903 -0.56581086
-1.1109518 -5.3176842 -0.56641269
-1.2113931 -5.7984571 -0.56789702
-1.3280257 -6.3567314 -0.5681482
-1.4652541 -7.0135889 -0.56689388
-1.6398157 -7.8491459 -0.5674122
-1.8599077 -8.9026394 -0.56764537
-2.148818 -10.285538 -0.56819469
-2.5432284 -12.173424 -0.56886882
-3.1153767 -14.91207 -0.57001603
-4.0215077 -19.249359 -0.57219082
-5.6647601 -27.114956 -0.57563269
-9.5816116 -45.863369 -0.58413571
-0.4061144 -2.070785 -0.5654341
-0.42044938 -2.1438792 -0.56597453
-0.43406764 -2.2133191 -0.56434524
-0.45067373 -2.2979939 -0.56529671
-0.46520633 -2.3720958 -0.56230664
-0.48489559 -2.4724917 -0.56407398
-0.50348949 -2.5673022 -0.56291264
-0.52726305 -2.688524 -0.56570965
-0.54906535 -2.7996945 -0.56442088
-0.57553172 -2.9346471 -0.56584173
-0.6022597 -3.0709333 -0.56522131
-0.63094592 -3.217205 -0.56404823
-0.66375238 -3.3844857 -0.5639047
-0.70226932 -3.5808845 -0.56553048
-0.74205559 -3.7837555 -0.56479561
-0.78996485 -4.0280457 -0.56645489
-0.84257084 -4.2962842 -0.56713843
-0.90090543 -4.5937338 -0.56688637
-0.96495658 -4.9203315 -0.56494814
-1.0446045 -5.326458 -0.56593627
-1.1380764 -5.8030729 -0.56693566
-1.2441885 -6.3441405 -0.56561267
-1.3797415 -7.0353279 -0.56723672
-1.5429107 -7.8673301 -0.56731236
-1.7482662 -8.9144421 -0.5669843
-2.0237308 -10.319041 -0.56862783
-2.3947122 -12.210683 -0.56919086
-2.931493 -14.947739 -0.56995845
-3.781009 -19.279436 -0.57165962
-5.323103 -27.142601 -0.5747866
-8.9981441 -45.881706 -0.58291596
-0.3815529 -2.0806966 -0.56681657
-0.39258614 -2.1408634 -0.56386131
-0.40729651 -2.2210824 -0.56500506
-0.42435279 -2.3140945 -0.56793088
-0.4375273 -2.3859382 -0.56427002
-0.45569512 -2.4850116 -0.56560916
-0.47438475 -2.5869303 -0.56589454
-0.49361685 -2.6918075 -0.56508064
-0.51297462 -2.79737 -0.56263804
-0.53697503 -2.9282498 -0.56329256
-0.56605238 -3.0868151 -0.56682044
-0.59225112 -3.2296832 -0.56491637
-0.62547457 -3.4108584 -0.56697446
-0.65482509 -3.5709133 -0.56264156
-0.69547993 -3.7926137 -0.56479859
-0.7410062 -4.0408792 -0.56693542
-0.78779358 -4.2960215 -0.56578225
-0.84168583 -4.5899086 -0.56509441
-0.90691239 -4.9456038 -0.56652659
-0.97790074 -5.3327198 -0.56528127
-1.0626262 -5.7947478 -0.56480306
-1.1668693 -6.3632097 -0.56599075
-1.2903367 -7.0365067 -0.5660097
-1.4476593 -7.8944225 -0.5679394
-1.6388186 -8.9368591 -0.56708556
-1.8934979 -10.325685 -0.56766796
-2.2411177 -12.221336 -0.56835991
-2.7420115 -14.952826 -0.56882381
-3.5427127 -19.319235 -0.57150483
-4.9850268 -27.184509 -0.57433254
-8.4128695 -45.877331 -0.58150214
-0.3521297 -2.0629041 -0.56074768
-0.36628303 -2.1458194 -0.56393772
-0.38231018 -2.2397125 -0.56850535
-0.39316744 -2.3033183 -0.56405699
-0.40966824 -2.3999858 -0.56635809
-0.42483357 -2.4888299 -0.56524652
-0.44348007 -2.598068 -0.56709516
-0.45969775 -2.6930771 -0.56411785
-0.48072138 -2.8162413 -0.565202
-0.50133675 -2.9370134 -0.56374991
-0.52794057 -3.0928683 -0.56669706
-0.55188435 -3.2331398 -0.5642913
-0.58119184 -3.4048336 -0.56474233
-0.61215711 -3.5862396 -0.56382769
-0.6477868 -3.7949712 -0.56392086
-0.68874782 -4.034936 -0.56487066
-0.73421037 -4.3012719 -0.56524193
-0.78675264 -4.6090841 -0.56622136
-0.8428759 -4.9378743 -0.56441122
-0.91142851 -5.3394809 -0.56476718
-0.99260581 -5.8150468 -0.56554919
-1.0872015 -6.3692226 -0.56529379
-1.2030002 -7.0476136 -0.56567049
-1.3467925 -7.8900013 -0.56638712
-1.5275099 -8.9487095 -0.56660283
-1.7687545 -10.362009 -0.56842625
-2.0912325 -12.251204 -0.56851
-2.5599265 -14.996984 -0.5692631
-3.3021052 -19.344936 -0.57102078
-4.6426821 -27.198524 -0.57337916
-7.8285799 -45.862675 -0.58005238
-0.32905638 -2.0817413 -0.56472546
-0.34086615 -2.1564546 -0.56558841
-0.3556481 -2.2499712 -0.56995612
-0.36379093 -2.3014858 -0.56247026
-0.38049948 -2.4071908 -0.56691134
-0.39278075 -2.4848869 -0.5632115
-0.41000384 -2.593847 -0.56503063
-0.42476436 -2.6872282 -0.56175613
-0.44551355 -2.8184955 -0.56451231
-0.46457726 -2.9391003 -0.56301135
-0.48855814 -3.0908129 -0.56517696
-0.51205254 -3.2394476 -0.56425065
-0.53588492 -3.3902209 -0.56118321
-0.56904787 -3.6000228 -0.56485188
-0.60392922 -3.8206964 -0.56659716
-0.64127475 -4.0569587 -0.56680697
-0.68376392 -4.3257618 -0.56731242
-0.72943658 -4.6147056 -0.56576729
-0.78120941 -4.9422407 -0.5637697
-0.8456623 -5.3499956 -0.56473678
-0.92210025 -5.8335724 -0.56620532
-1.0121413 -6.4032083 -0.56716263
-1.1167982 -7.0653086 -0.56594574
-1.2506686 -7.9122262 -0.5668357
-1.4187078 -8.9753094 -0.56713957
-1.6384282 -10.365348 -0.56746131
-1.9370033 -12.254251 -0.56750327
-2.3711095 -15.000581 -0.56824994
-3.0568855 -19.339071 -0.56969506
-4.3030548 -27.222834 -0.57273287
-7.2476516 -45.851521 -0.57874042
-0.3014628 -2.0720716 -0.56105435
-0.31457755 -2.1622145 -0.56604177
-0.32481337 -2.2325692 -0.56449354
-0.33764398 -2.3207591 -0.56612301
-0.35039803 -2.4084227 -0.56614393
-0.36280087 -2.4936721 -0.5641489
-0.37729564 -2.5933003 -0.56385833
-0.39271367 -2.6992745 -0.56322235
-0.41069183 -2.8228455 -0.56432939
-0.42955548 -2.9525025 -0.56452417
-0.45125723 -3.1016672 -0.56610435
-0.47156057 -3.2412202 -0.56350684
-0.49610165 -3.4099004 -0.56338841
-0.52643746 -3.6184103 -0.5666784
-0.55435491 -3.810298 -0.56400162
-0.59062278 -4.0595813 -0.56611592
-0.62815058 -4.3175244 -0.56517643
-0.67167646 -4.6166945 -0.56495583
-0.72205561 -4.9629703 -0.56507879
-0.78108454 -5.3686996 -0.56565452
-0.84747875 -5.8250527 -0.56432432
-0.93169862 -6.4039288 -0.5661689
-1.0291537 -7.0737753 -0.56556749
-1.1510875 -7.9118743 -0.5657537
-1.309881 -9.0033245 -0.5678491
-1.5077771 -10.363542 -0.56630462
-1.7857842 -12.274393 -0.56737626
-2.1849415 -15.017958 -0.56784755
-2.8171129 -19.363119 -0.56933999
-3.9637496 -27.2444 -0.57211792
-6.6693602 -45.841122 -0.57753032
-0.27774295 -2.0890112 -0.5646736
-0.28720579 -2.1601846 -0.56454313
-0.29900441 -2.2489266 -0.56765687
-0.3090294 -2.3243284 -0.56602401
-0.31817454 -2.3931127 -0.56158286
-0.33258584 -2.5015054 -0.56495315
-0.34464753 -2.592226 -0.56266069
-0.36110279 -2.7159925 -0.56574136
-0.37794563 -2.8426738 -0.56732142
-0.39135104 -2.9435012 -0.56184053
-0.4129774 -3.1061611 -0.56595492
-0.43370584 -3.2620678 -0.56616133
-0.45510182 -3.4229949 -0.56458461
-0.47990963 -3.6095841 -0.56432933
-0.51028705 -3.8380644 -0.56713992
-0.54050773 -4.0653653 -0.5659529
-0.57414967 -4.3183994 -0.56432414
-0.61585224 -4.6320605 -0.56586671
-0.66163015 -4.9763737 -0.56563586
-0.71430928 -5.3725934 -0.56509668
-0.77725172 -5.8460078 -0.56538576
-0.85226089 -6.4101806 -0.56575233
-0.94157547 -7.0819497 -0.5652526
-1.0541642 -7.928772 -0.5659923
-1.1962948 -8.9977913 -0.56652945
-1.3806423 -10.384339 -0.56647062
-1.6322162 -12.276523 -0.56650412
-1.9983785 -15.03057 -0.56735241
-2.5771582 -19.383795 -0.56897312
-3.6230574 -27.250402 -0.57126522
-6.0917754 -45.818577 -0.57625902
-0.25230405 -2.0944898 -0.56527317
-0.25950864 -2.1542983 -0.56212837
-0.27090284 -2.2488868 -0.5667631
-0.28100693 -2.3327653 -0.56719422
-0.28919846 -2.4007668 -0.56250203
-0.30285823 -2.514163 -0.56692785
-0.31509423 -2.6157393 -0.56688064
-0.32699311 -2.7145174 -0.56455392
-0.34130916 -2.8333614 -0.56458259
-0.35694003 -2.9631202 -0.56470484
-0.37276429 -3.0944846 -0.56294966
-0.39186567 -3.2530539 -0.56371796
-0.41194606 -3.4197502 -0.56317133
-0.4354161 -3.6145856 -0.56423151
-0.46090621 -3.8261905 -0.56450522
-0.49059477 -4.0726485 -0.56608421
-0.520697 -4.3225408 -0.56398594
-0.55680799 -4.6223145 -0.56379706
-0.59862536 -4.9694595 -0.56397057
-0.6488961 -5.3867793 -0.56570673
-0.7053892 -5.8557544 -0.56544673
-0.77340019 -6.4203439 -0.56576723
-0.85420716 -7.0911589 -0.56510657
-0.95729059 -7.9469013 -0.56640333
-1.0846798 -9.0044165 -0.56606412
-1.2511431 -10.386304 -0.56569576
-1.4831076 -12.311946 -0.5672543
-1.8113816 -15.037096 -0.56671512
-2.3381352 -19.409916 -0.56885296
-3.2823889 -27.24859 -0.57033801
-5.5147815 -45.780689 -0.57488614
-0.22550088 -2.0878859 -0.56269997
-0.2335407 -2.1623254 -0.56343102
-0.24115904 -2.2328627 -0.56193495
-0.2528182 -2.3408136 -0.56835222
-0.26147875 -2.4210007 -0.56644672
-0.26876011 -2.4884179 -0.56033492
-0.28249222 -2.615562 -0.5660466
-0.2930415 -2.7132363 -0.56349546
-0.30676213 -2.8402741 -0.5651657
-0.31936511 -2.9569635 -0.56274056
-0.33619881 -3.1128247 -0.56549132
-0.35189298 -3.2581351 -0.56380606
-0.37045819 -3.4300284 -0.56407118
-0.39074308 -3.6178436 -0.56394744
-0.41535115 -3.8456869 -0.5665853
-0.43848935 -4.0599208 -0.56352299
-0.46728244 -4.3265123 -0.56371188
-0.50213492 -4.6492076 -0.56628138
-0.53851855 -4.9860792 -0.56506252
-0.58167011 -5.3856144 -0.56479055
-0.63405746 -5.8706627 -0.5660907
-0.69325435 -6.4187593 -0.5648337
-0.7681933 -7.1126108 -0.56602055
-0.85822314 -7.9461856 -0.56555742
-0.97290874 -9.0080462 -0.5654974
-1.1246746 -10.413227 -0.56636614
-1.3302326 -12.316465 -0.56666607
-1.627916 -15.07268 -0.56725895
-2.0955689 -19.402622 -0.56784105
-2.944623 -27.263912 -0.56985778
-4.9410625 -45.748707 -0.57367826
-0.20099334 -2.1028588 -0.56602639
-0.20628914 -2.1582651 -0.56166959
-0.21474482 -2.2467313 -0.56471795
-0.22201906 -2.3228366 -0.56328201
-0.23166268 -2.4237313 -0.56637633
-0.23915809 -2.502151 -0.56272256
-0.24872807 -2.6022751 -0.56246668
-0.25963986 -2.7164381 -0.56345475
-0.27186778 -2.8443706 -0.56527287
-0.28274953 -2.9582188 -0.56227529
-0.29750422 -3.1125875 -0.5647409
-0.31179461 -3.2620981 -0.56378573
-0.3281818 -3.4335463 -0.56394345
-0.3464902 -3.6250949 -0.56437099
-0.36624336 -3.831759 -0.56382716
-0.3906936 -4.0875654 -0.56665045
-0.41338846 -4.3250065 -0.56281078
-0.44442612 -4.6497326 -0.56563693
-0.47648922 -4.9851875 -0.56425482
-0.51562607 -5.39465 -0.56503046
-0.56135309 -5.8730612 -0.56561363
-0.61488986 -6.4331808 -0.56539464
-0.679919 -7.1135373 -0.56538618
-0.75919557 -7.9429545 -0.56462038
-0.86320567 -9.0311432 -0.56623822
-0.99709845 -10.431973 -0.56667596
-1.1773595 -12.317924 -0.5660243
-1.440802 -15.074146 -0.5666045
-1.8555964 -19.413862 -0.56745929
-2.6044352 -27.248461 -0.56882244
-4.3678937 -45.698345 -0.57232994
-0.17429064 -2.0951726 -0.5633381
-0.18022515 -2.1665125 -0.5631966
-0.18614939 -2.2377286 -0.56183732
-0.19422142 -2.3347635 -0.56555235
-0.20167544 -2.4243693 -0.56590313
-0.2094816 -2.5182083 -0.56571174
-0.21739447 -2.6133301 -0.56423569
-0.22570604 -2.7132447 -0.5621742
-0.23541747 -2.8299873 -0.56179667
-0.24680404 -2.9668667 -0.5632996
-0.25946525 -3.1190689 -0.56529528
-0.27157912 -3.2646914 -0.56361419
-0.28611481 -3.4394271 -0.56428879
-0.30326602 -3.6456044 -0.56694055
-0.32030693 -3.8504555 -0.56595594
-0.33918893 -4.0774388 -0.56462574
-0.3614412 -4.3449364 -0.56478322
-0.38708824 -4.6532435 -0.5654422
-0.41578069 -4.9981594 -0.56510162
-0.44904327 -5.3980136 -0.56476176
-0.48842213 -5.8713927 -0.56483179
-0.53519529 -6.4336591 -0.56481558
-0.59156984 -7.1113458 -0.56459117
-0.66251349 -7.9641695 -0.56550658
-0.75027841 -9.0192051 -0.56486857
-0.86619186 -10.412617 -0.56500322
-1.0255582 -12.328382 -0.56588256
-1.2537088 -15.071014 -0.56586456
-1.6145828 -19.409132 -0.5666979
-2.2653596 -27.232214 -0.56785882
-3.7960348 -45.632679 -0.57087976
-0.14807163 -2.0908799 -0.56165183
-0.15349624 -2.1674793 -0.56291473
-0.1582789 -2.235014 -0.56062472
-0.16610932 -2.3455853 -0.56763607
-0.17213181 -2.4306273 -0.56682694
-0.17789838 -2.5120554 -0.56379545
-0.18513615 -2.6142583 -0.56390196
-0.19348291 -2.7321205 -0.56554949
-0.20046508 -2.830714 -0.56140918
-0.21065965 -2.9746687 -0.56424648
-0.2210882 -3.1219277 -0.56527793
-0.23122527 -3.2650702 -0.56314617
-0.24415775 -3.4476864 -0.56510854
-0.25867704 -3.6527095 -0.56750792
-0.27276626 -3.8516598 -0.56559724
-0.28829187 -4.0708923 -0.56318581
-0.30860832 -4.3577757 -0.56591612
-0.32892096 -4.6446052 -0.56385845
-0.35453737 -5.0063276 -0.56548953
-0.38260692 -5.4026904 -0.56471616
-0.41616884 -5.8766088 -0.56479865
-0.45520973 -6.4278951 -0.56377554
-0.50386268 -7.1149111 -0.56433964
-0.56327224 -7.9538174 -0.564237
-0.64066368 -9.0466413 -0.56605071
-0.73847461 -10.427803 -0.56529176
-0.87409848 -12.342912 -0.56601334
-1.0671636 -15.069132 -0.56525844
-1.3748146 -19.413391 -0.56628585
-1.9282045 -27.227663 -0.56722665
-3.2280285 -45.58213 -0.56970775
-0.12272404 -2.0989065 -0.56335998
-0.12656653 -2.1646233 -0.56172633
-0.13130094 -2.2455945 -0.5628311
-0.13668309 -2.3376434 -0.56526458
-0.14090495 -2.4098482 -0.5615347
-0.14633824 -2.5027721 -0.56126559
-0.15235785 -2.6057231 -0.56161433
-0.15961216 -2.7297914 -0.56461841
-0.16669974 -2.8510077 -0.56498474
-0.17411354 -2.9778032 -0.56439221
-0.18262051 -3.1232951 -0.56507623
-0.19143373 -3.2740242 -0.56424183
-0.20198199 -3.4544277 -0.56576365
-0.21309331 -3.6444607 -0.56577647
-0.2240373 -3.8316321 -0.56220919
-0.23943801 -4.0950251 -0.56607431
-0.25414094 -4.3464842 -0.56400126
-0.27168351 -4.6465087 -0.56364137
-0.2922464 -4.9981885 -0.5641216
-0.31588584 -5.4024858 -0.56424606
-0.3438881 -5.8813987 -0.56480986
-0.37695214 -6.4468813 -0.56499153
-0.4167102 -7.1268497 -0.56483746
-0.46555385 -7.9622054 -0.56438333
-0.52711654 -9.0150909 -0.56362844
-0.61023849 -10.436696 -0.56532437
-0.72054136 -12.323169 -0.564659
-0.88192511 -15.083259 -0.56533879
-1.1347055 -19.406475 -0.56563437
-1.5909314 -27.209146 -0.56639051
-2.6616654 -45.521538 -0.56849837
-0.097349904 -2.1098435 -0.56593144
-0.10009857 -2.1694145 -0.56260777
-0.10406858 -2.255456 -0.56493938
-0.10740817 -2.3278341 -0.56253076
-0.11128094 -2.411768 -0.56162071
-0.1164326 -2.5234187 -0.56553197
-0.12119651 -2.6266658 -0.56576413
-0.12584616 -2.7274368 -0.56376868
-0.13176936 -2.855809 -0.56557232
-0.13751574 -2.9803488 -0.56451154
-0.14359091 -3.1120148 -0.56267339
-0.15075785 -3.2673426 -0.56272829
-0.15889932 -3.4437907 -0.56365889
-0.16819622 -3.6452801 -0.56553984
-0.17732358 -3.8430955 -0.56352866
-0.18858625 -4.0871892 -0.56462783
-0.20123047 -4.3612247 -0.56555015
-0.21538146 -4.6679158 -0.5658741
-0.23109543 -5.0084815 -0.56491989
-0.24906708 -5.3979774 -0.56341273
-0.27133536 -5.8805928 -0.56436938
-0.29742202 -6.4459634 -0.5645479
-0.32873082 -7.1245127 -0.56428921
-0.36735672 -7.9616427 -0.56398058
-0.41700307 -9.0376177 -0.56467354
-0.48151898 -10.435857 -0.56491548
-0.56904948 -12.332887 -0.56474096
-0.69522673 -15.0675 -0.56438506
-0.89511067 -19.399542 -0.56506872
-1.2548919 -27.197001 -0.56577367
-2.0965266 -45.437569 -0.56708491
-0.071378037 -2.1102059 -0.56575042
-0.073837042 -2.1829033 -0.56582761
-0.076124683 -2.2505345 -0.56342959
-0.078816116 -2.3301036 -0.56280237
-0.082594857 -2.4418175 -0.56833881
-0.08537668 -2.5240588 -0.56539738
-0.088693202 -2.6221077 -0.5645048
-0.092600144 -2.7376118 -0.56559378
-0.096131764 -2.8420198 -0.56256485
-0.10026603 -2.9642444 -0.56118524
-0.10524397 -3.1114111 -0.56228769
-0.11045506 -3.265471 -0.56212956
-0.11672337 -3.4507856 -0.5645262
-0.12283047 -3.631335 -0.56309944
-0.12999845 -3.8432477 -0.56327397
-0.1382011 -4.0857491 -0.56415147
-0.14759162 -4.3633685 -0.56555009
-0.15737331 -4.6525526 -0.56373441
-0.16918035 -5.0016131 -0.56386793
-0.1826352 -5.3993897 -0.56328321
-0.19892026 -5.8808379 -0.56411552
-0.21754901 -6.4315743 -0.56301081
-0.2411543 -7.1294365 -0.56440169
-0.26956582 -7.9693885 -0.56425184
-0.30566809 -9.0367088 -0.56433922
-0.352539 -10.422391 -0.56390923
-0.41675654 -12.320906 -0.56391501
-0.50980669 -15.07182 -0.56426942
-0.65563726 -19.383127 -0.56431311
-0.91954589 -27.185266 -0.56525165
-1.5342432 -45.358055 -0.56581432
-0.04550425 -2.1145358 -0.56671846
-0.046840966 -2.1766517 -0.56401521
-0.048388962 -2.2485855 -0.56275016
-0.05030809 -2.3377655 -0.56446093
-0.052084953 -2.4203346 -0.56314689
-0.054299649 -2.5232491 -0.56502372
-0.056136522 -2.6086066 -0.56140715
-0.0587883 -2.731832 -0.56420767
-0.061627317 -2.8637583 -0.56667507
-0.063941263 -2.9712851 -0.56232679
-0.067411564 -3.1325464 -0.56591469
-0.070842497 -3.2919784 -0.56649983
-0.074039422 -3.4405363 -0.56265801
-0.078342304 -3.6404865 -0.56432652
-0.082649954 -3.8406589 -0.56270307
-0.087784432 -4.0792527 -0.56306285
-0.093559057 -4.3475933 -0.56331372
-0.10027767 -4.659801 -0.56442064
-0.10766365 -5.0030198 -0.56383461
-0.11635686 -5.4069843 -0.56388354
-0.12646893 -5.8768816 -0.56354421
-0.13856509 -6.4389777 -0.56346714
-0.15309712 -7.1142664 -0.56300914
-0.17139375 -7.9644918 -0.56371331
-0.19455427 -9.0407372 -0.56439877
-0.22450241 -10.432397 -0.56425864
-0.26558736 -12.341574 -0.56466883
-0.32403374 -15.057515 -0.56354207
-0.4169206 -19.373875 -0.56385183
-0.58403683 -27.139593 -0.56410998
-0.97430056 -45.27475 -0.564583
-0.019276503 -2.0905404 -0.56018156
-0.020103782 -2.180259 -0.56484318
-0.020833913 -2.2594419 -0.56536025
-0.021508073 -2.3325546 -0.56309634
-0.022416286 -2.4310503 -0.56553334
-0.023061931 -2.5010707 -0.5599516
-0.024210352 -2.6256173 -0.56496131
-0.025376547 -2.7520912 -0.56828445
-0.026225317 -2.8441408 -0.5626868
-0.027550017 -2.9878044 -0.5653463
-0.028846573 -3.1284163 -0.56506175
-0.030188918 -3.2739937 -0.56329846
-0.03175883 -3.4442513 -0.56315911
-0.033631593 -3.6473525 -0.56528401
-0.035321657 -3.8306406 -0.56112921
-0.037681505 -4.0865664 -0.5639658
-0.04014973 -4.3542457 -0.56406903
-0.042879343 -4.6502728 -0.56316006
-0.046142235 -5.0041342 -0.56385362
-0.049791299 -5.3998756 -0.56303585
-0.054195575 -5.8775201 -0.56349897
-0.059392955 -6.4411774 -0.56355309
-0.065747641 -7.1303444 -0.56417489
-0.073489808 -7.9699841 -0.56399542
-0.083209805 -9.0241194 -0.56325489
-0.096073955 -10.419238 -0.56344038
-0.11355134 -12.314664 -0.56333119
-0.13891147 -15.064975 -0.56371468
-0.17852959 -19.361568 -0.56338722
-0.24998958 -27.111418 -0.56341791
-0.41647872 -45.167194 -0.56313533
0.0064674658 -2.1030362 -0.56350863
0.0067013549 -2.1790903 -0.56451905
0.0069270167 -2.2524691 -0.56359428
0.0071362224 -2.3204968 -0.56016433
0.0074899183 -2.4355087 -0.56654906
0.0077464632 -2.5189297 -0.5639286
0.0080855731 -2.6291988 -0.56571054
0.0084356507 -2.7430341 -0.56639278
0.0087964535 -2.8603568 -0.56587362
0.0091374284 -2.9712322 -0.56218928
0.0096161058 -3.1268845 -0.56476372
0.010076629 -3.2766335 -0.56373137
0.010583029 -3.4413006 -0.56265539
0.011178584 -3.634958 -0.56334174
0.011804054 -3.8383429 -0.56223625
0.012535753 -4.0762706 -0.56252372
0.013430683 -4.3672767 -0.5657357
0.014334885 -4.6612978 -0.56447387
0.015362224 -4.9953589 -0.56284362
0.016639434 -5.4106712 -0.56414014
0.018104188 -5.8869681 -0.56438345
0.019856391 -6.4567347 -0.56489295
0.021897871 -7.1205659 -0.56337988
0.024527872 -7.9757671 -0.56438333
0.02773783 -9.0195541 -0.5629487
0.032017894 -10.41131 -0.56299043
0.037856925 -12.309998 -0.5630964
0.046288185 -15.051603 -0.56319308
0.05948719 -19.343544 -0.56284148
0.083263211 -27.074831 -0.56263632
0.13861379 -45.073269 -0.56194299
0.032343954 -2.1040344 -0.56384003
0.033225995 -2.1614127 -0.56000298
0.034644246 -2.2536724 -0.5639593
0.035749316 -2.3255594 -0.56145006
0.037176907 -2.4184268 -0.5626393
0.038783297 -2.5229254 -0.56488723
0.040165484 -2.6128392 -0.56225431
0.04189226 -2.7251692 -0.5627678
0.043690719 -2.8421621 -0.56233793
0.04565718 -2.9700842 -0.5620358
0.047974203 -3.120811 -0.56373066
0.050329704 -3.2740407 -0.56334919
0.05302611 -3.4494467 -0.56405127
0.05586854 -3.6343522 -0.56331176
0.059108693 -3.8451302 -0.56329435
0.062817186 -4.0863743 -0.56398195
0.066884197 -4.3509412 -0.56368357
0.071339883 -4.6407919 -0.56205446
0.07675501 -4.9930558 -0.56264788
0.082920559 -5.3941364 -0.56247997
0.09036126 -5.8781676 -0.5636037
0.098906361 -6.4340425 -0.56297147
0.10925565 -7.1072826 -0.56239271
0.12249535 -7.9685497 -0.56393659
0.13868718 -9.0218582 -0.56315637
0.16020416 -10.421577 -0.56360954
0.18912014 -12.302616 -0.56282258
0.23109762 -15.033329 -0.56257313
0.29700896 -19.320984 -0.56224877
0.41552788 -27.030859 -0.56178623
0.69115919 -44.961189 -0.56060928
0.058323942 -2.1075315 -0.56492674
0.059795547 -2.160708 -0.55996853
0.062191766 -2.2472951 -0.56251228
0.064036116 -2.3139405 -0.55879289
0.067495495 -2.4389451 -0.56756294
0.069583453 -2.5143933 -0.56312585
0.072316281 -2.6131437 -0.56246865
0.075568885 -2.7306764 -0.56405431
0.078816339 -2.8480229 -0.56364661
0.08245948 -2.9796677 -0.56399852
0.08641386 -3.1225586 -0.56419569
0.090449341 -3.2683804 -0.56252408
0.095620997 -3.4552581 -0.5651511
0.10064906 -3.6369467 -0.5638631
0.106472 -3.8473582 -0.56376994
0.11311788 -4.0875068 -0.56428754
0.12004614 -4.3378587 -0.56213742
0.12856625 -4.6457324 -0.56280172
0.13767704 -4.9749503 -0.56075609
0.14959751 -5.4056954 -0.56383449
0.16276401 -5.8814659 -0.56406915
0.17793325 -6.4296055 -0.5627321
0.19708699 -7.1217251 -0.5636847
0.22018772 -7.9564681 -0.56323057
0.24938676 -9.0115728 -0.5626632
0.28760478 -10.392579 -0.56219
0.3403185 -12.297385 -0.56273216
0.41566077 -15.019874 -0.56221831
0.53429037 -19.306547 -0.56197739
0.74673098 -26.98307 -0.56094146
1.2409899 -44.843082 -0.55928463
0.084429331 -2.1115708 -0.56624496
0.086897813 -2.1733074 -0.56346816
0.090391293 -2.2606792 -0.56609786
0.093499079 -2.3384047 -0.56493562
0.096654624 -2.4173245 -0.56276572
0.10014986 -2.5047402 -0.56119734
0.10451736 -2.6139712 -0.56288087
0.10864234 -2.7171364 -0.56149101
0.11374258 -2.8446929 -0.56322181
0.11898797 -2.9758799 -0.5635159
0.12463222 -3.1170421 -0.56343323
0.13135944 -3.2852895 -0.56566954
0.13786705 -3.4480441 -0.56420577
0.14537144 -3.6357284 -0.5639087
0.15368919 -3.8437548 -0.5634762
0.16298458 -4.0762315 -0.5629651
0.17376852 -4.3459368 -0.56341857
0.18576463 -4.6459589 -0.56306332
0.19950633 -4.9896379 -0.56264549
0.21598552 -5.4017811 -0.56366056
0.23429075 -5.8595934 -0.56220526
0.25674534 -6.4211812 -0.56222862
0.28400996 -7.1030669 -0.56244183
0.31773168 -7.9464445 -0.56275505
0.36021325 -9.0089054 -0.56273067
0.41584107 -10.400153 -0.56283379
0.4903878 -12.264561 -0.56146365
0.60010976 -15.008698 -0.56203377
0.77045929 -19.269127 -0.56112146
1.0774094 -26.945925 -0.56040227
1.78888 -44.73975 -0.55822802
0.11035659 -2.1098139 -0.56609488
0.11384622 -2.1765289 -0.56462365
0.11710816 -2.2388914 -0.56096005
0.12185848 -2.3297086 -0.56315416
0.12651603 -2.4187522 -0.56341767
0.13090062 -2.5025778 -0.56103104
0.13649562 -2.6095436 -0.56224632
0.14337741 -2.7411106 -0.56676668
0.14883108 -2.8453748 -0.5636766
0.1552972 -2.9689951 -0.56253129
0.1630369 -3.1169639 -0.56373882
0.17094228 -3.2681 -0.56302917
0.17979284 -3.4373062 -0.56276792
0.19003536 -3.6331244 -0.56382459
0.20112796 -3.8451943 -0.56400716
0.21277535 -4.0678711 -0.56212926
0.22730455 -4.3456421 -0.56370008
0.24232984 -4.6328979 -0.56179905
0.26126069 -4.9948206 -0.56354964
0.2824004 -5.3989725 -0.56368726
0.306315 -5.8561759 -0.5621962
0.3358252 -6.4203563 -0.56247544
0.370978 -7.0924125 -0.56191689
0.41529468 -7.9396658 -0.56259412
0.47020742 -8.9894953 -0.56183696
0.54275137 -10.376401 -0.56186712
0.6413672 -12.261754 -0.56165373
0.78356427 -14.980298 -0.56128865
1.0068289 -19.248705 -0.5608449
1.4074709 -26.908239 -0.55993617
2.3330147 -44.602924 -0.55683666
0.13520342 -2.0914958 -0.56158346
0.1405271 -2.1738489 -0.56433403
0.1437961 -2.2244179 -0.55773461
0.15057209 -2.3292377 -0.56344527
0.15545845 -2.4048259 -0.56057662
0.16203262 -2.5065234 -0.5623197
0.16965929 -2.6245022 -0.56587601
0.17610814 -2.724261 -0.56368792
0.18296234 -2.8302906 -0.5610916
0.19264098 -2.9800117 -0.56502467
0.20143583 -3.1160617 -0.563981
0.2116051 -3.2733727 -0.56434315
0.22179443 -3.4309938 -0.56213844
0.23358957 -3.613456 -0.56117564
0.24773474 -3.8322711 -0.56251591
0.26196095 -4.05234 -0.56038582
0.28057036 -4.3402138 -0.56340086
0.30036864 -4.6464782 -0.56385112
0.32157135 -4.9744682 -0.56165701
0.34769899 -5.378643 -0.56196862
0.37873092 -5.8586841 -0.56284153
0.41502959 -6.4201975 -0.56286603
0.45901787 -7.1006632 -0.56297523
0.51211137 -7.9219794 -0.56174463
0.58071214 -8.983182 -0.5618462
0.66960686 -10.358317 -0.56129128
0.79243559 -12.258386 -0.5619033
0.96787292 -14.97227 -0.56139129
1.2417587 -19.209078 -0.56009287
1.7341838 -26.826527 -0.55863726
2.8751304 -44.476116 -0.55565292
0.16147998 -2.0970869 -0.56357527
0.16597579 -2.1554725 -0.56005096
0.1724319 -2.2393157 -0.56195909
0.17929165 -2.3284011 -0.56373364
0.18670046 -2.4246168 -0.56568235
0.19274685 -2.5031393 -0.56204975
0.20141698 -2.6157355 -0.56447715
0.20937549 -2.7190897 -0.56310809
0.2178649 -2.829339 -0.56139159
0.22823566 -2.9640205 -0.5624823
0.23906013 -3.1045945 -0.5623951
0.25096551 -3.2592056 -0.56239021
0.26442522 -3.4340024 -0.56312156
0.27889678 -3.6219399 -0.56298321
0.29508871 -3.8322191 -0.56299829
0.31228334 -4.0555196 -0.56131417
0.33343101 -4.3301578 -0.56258518
0.35688335 -4.6347251 -0.56291485
0.3837525 -4.9836659 -0.56318575
0.41515461 -5.3914747 -0.56380004
0.45069984 -5.8530889 -0.56279391
0.49413896 -6.4172182 -0.56309503
0.54531914 -7.0818782 -0.561975
0.61032033 -7.9260268 -0.56252128
0.69141686 -8.9792004 -0.5620864
0.79654855 -10.344511 -0.56103152
0.94232178 -12.237619 -0.56144011
1.1505218 -14.941444 -0.56072354
1.4769664 -19.18087 -0.55975765
2.0622547 -26.781816 -0.55819213
3.4150119 -44.349625 -0.5545553
0.18794824 -2.1027255 -0.56566894
0.19256142 -2.1543369 -0.56032878
0.20112833 -2.2501817 -0.56526387
0.20722406 -2.3183794 -0.56188172
0.21445765 -2.3993073 -0.5603503
0.22501595 -2.5174315 -0.56583738
0.23371941 -2.6148038 -0.56485361
0.24301432 -2.7187934 -0.56362289
0.25395727 -2.8412209 -0.56432617
0.26513511 -2.9662759 -0.5634864
0.2771371 -3.1005518 -0.56223756
0.29113215 -3.2571256 -0.56260651
0.30694646 -3.4340527 -0.56370616
0.32306334 -3.6143651 -0.56238079
0.34202248 -3.8264761 -0.5627299
0.36256954 -4.0563521 -0.56200391
0.3872363 -4.3323188 -0.56344199
0.41379625 -4.6294661 -0.56285149
0.44297016 -4.9558573 -0.56061631
0.47983772 -5.3683243 -0.56195366
0.52121365 -5.8312292 -0.56126583
0.57104337 -6.3887138 -0.56116754
0.63174707 -7.0678539 -0.56143612
0.70668006 -7.906189 -0.56168759
0.8009752 -8.9611425 -0.56153011
0.92512465 -10.350101 -0.56190914
1.0915323 -12.211836 -0.56083059
1.3330414 -14.913789 -0.56025851
1.7106506 -19.138401 -0.55908984
2.387723 -26.713346 -0.55733484
3.9511297 -44.204411 -0.55330521
0.21330854 -2.0955439 -0.5643999
0.21954072 -2.1567686 -0.56162095
0.22908314 -2.2505133 -0.56601202
0.23511796 -2.3097994 -0.56046057
0.24479432 -2.40486 -0.56230766
0.25433123 -2.4985507 -0.56225401
0.26511741 -2.6045144 -0.56329244
0.27670956 -2.7183957 -0.56420314
0.28814358 -2.8307233 -0.56290227
0.30043051 -2.9514301 -0.56132555
0.31518686 -3.0963964 -0.5621444
0.33120283 -3.2537374 -0.56268221
0.34969333 -3.4353881 -0.56458849
0.36766428 -3.6119349 -0.56266356
0.3884179 -3.8158183 -0.56182247
0.41328818 -4.0601439 -0.56319088
0.44041157 -4.3266044 -0.56336057
0.4701772 -4.6190219 -0.56224215
0.5057227 -4.9682212 -0.56267589
0.54506922 -5.3547616 -0.56119317
0.59284621 -5.8241229 -0.56124109
0.65048265 -6.3903437 -0.56197077
0.7184425 -7.057981 -0.56131119
0.80340666 -7.8926692 -0.56138647
0.91239417 -8.9633627 -0.56232977
1.0511279 -10.326283 -0.56127536
1.2397254 -12.179066 -0.55998337
1.5135784 -14.869399 -0.55924785
1.9449095 -19.106796 -0.55882299
2.7142267 -26.664572 -0.55697149
4.4846396 -44.05711 -0.55210996
0.24015538 -2.1023669 -0.56699008
0.24731268 -2.1650233 -0.56451964
0.25544301 -2.2361977 -0.56315899
0.26612231 -2.3296864 -0.5660373
0.27303568 -2.3902075 -0.55962431
0.28531554 -2.4977078 -0.56281132
0.29645208 -2.5951991 -0.5620237
0.3095746 -2.7100763 -0.56322402
0.32283267 -2.8261402 -0.56273776
0.33666673 -2.9472461 -0.56127471
0.35279363 -3.088424 -0.56144214
0.37129962 -3.2504292 -0.56285709
0.39067575 -3.4200516 -0.56281501
0.41241801 -3.6103876 -0.56316996
0.43549001 -3.8123643 -0.56205988
0.46486774 -4.0695429 -0.56524473
0.4935303 -4.3204603 -0.56330812
0.52983344 -4.6382651 -0.5653348
0.56708133 -4.9643402 -0.56298351
0.61198235 -5.3574123 -0.56221712
0.66530013 -5.8241668 -0.56199121
0.72665858 -6.3613105 -0.56016105
0.80538875 -7.0505295 -0.56146371
0.90056938 -7.88376 -0.56149799
1.020721 -8.9355898 -0.56133235
1.1779046 -10.311606 -0.56122243
1.3885121 -12.155305 -0.55963361
1.6969389 -14.855333 -0.55946136
2.1757901 -19.047289 -0.55782288
3.0370312 -26.586761 -0.55608422
5.0137916 -43.891708 -0.55076814
0.26309904 -2.076463 -0.56083411
0.274344 -2.1652117 -0.56540561
0.28342023 -2.2368441 -0.56415677
0.29266658 -2.3098192 -0.56204212
0.30507395 -2.4077425 -0.56456542
0.31521958 -2.4878149 -0.56141311
0.32756194 -2.5852249 -0.56069356
0.34438586 -2.7180045 -0.56570899
0.35591164 -2.8089697 -0.56014788
0.37334469 -2.946557 -0.5619753
0.39292112 -3.1010606 -0.56457496
0.4125734 -3.2561626 -0.56468576
0.43088755 -3.4007039 -0.56046063
0.45548373 -3.594825 -0.56157362
0.48206872 -3.8046422 -0.56175286
0.51238757 -4.0439286 -0.56251961
0.54590857 -4.3084874 -0.56257975
0.58342379 -4.6045694 -0.5620597
0.62735575 -4.9512944 -0.56233639
0.67669171 -5.3406701 -0.56129092
0.73730081 -5.8190169 -0.56232655
0.8055715 -6.357831 -0.5606845
0.89161837 -7.0369406 -0.56121224
0.99764937 -7.8737717 -0.56161791
1.1300217 -8.9184971 -0.56108904
1.3021932 -10.27733 -0.56018609
1.5368379 -12.129222 -0.55926049
1.8770491 -14.814279 -0.55874217
2.4106057 -19.02528 -0.55800426
3.3582232 -26.504183 -0.55517876
5.5415497 -43.735703 -0.54962409
0.28929546 -2.0779917 -0.56216532
0.2994698 -2.1510735 -0.5626328
0.3127974 -2.2468047 -0.56759614
0.32104629 -2.306056 -0.5620445
0.3326495 -2.3894012 -0.56118143
0.34623355 -2.4869745 -0.56214172
0.36055067 -2.5898135 -0.56260777
0.37560338 -2.6979361 -0.56245083
0.39255568 -2.8197036 -0.56320834
0.41041201 -2.9479644 -0.56316364
0.42764932 -3.071779 -0.56015903
0.44952714 -3.2289259 -0.56087852
0.47410259 -3.4054501 -0.56216109
0.50108433 -3.5992582 -0.56318611
0.5280177 -3.7927189 -0.56090868
0.56177086 -4.0351658 -0.56221908
0.59704977 -4.2885723 -0.56089562
0.64183843 -4.6102862 -0.56367832
0.68733215 -4.9370651 -0.5616377
0.74387604 -5.3432159 -0.56247729
0.80714595 -5.7976804 -0.56118137
0.88488275 -6.3560586 -0.56144536
0.97627413 -7.0125179 -0.56017953
1.0921928 -7.8451543 -0.56049222
1.2402239 -8.908453 -0.56137419
1.4271836 -10.251373 -0.55968547
1.6864623 -12.113756 -0.5594613
2.0581031 -14.783229 -0.55848336
2.6384516 -18.951836 -0.55675966
3.6777472 -26.417034 -0.55425864
6.0653534 -43.567062 -0.54840064
0.31729278 -2.0905461 -0.56657434
0.32590672 -2.1473007 -0.56265169
0.33629251 -2.2157295 -0.5607481
0.35022274 -2.3075116 -0.56340629
0.36308464 -2.3922548 -0.56285775
0.37835956 -2.4928966 -0.56448925
0.39320719 -2.5907233 -0.56381315
0.40990287 -2.700726 -0.5640406
0.42690286 -2.8127339 -0.56282222
0.44597957 -2.9384243 -0.56234628
0.46894774 -3.0897548 -0.56444585
0.49194407 -3.2412705 -0.56403095
0.51553214 -3.3966854 -0.56171823
0.54546916 -3.5939312 -0.5633595
0.57491571 -3.7879453 -0.56120574
0.61102378 -4.0258508 -0.56192559
0.6516456 -4.2934957 -0.562545
0.6975919 -4.5962219 -0.56296492
0.74618155 -4.9163642 -0.56028426
0.80796015 -5.3234048 -0.56139523
0.87815279 -5.7858829 -0.56104225
0.96245271 -6.3413095 -0.56114548
1.0658674 -7.0226779 -0.56199563
1.1892958 -7.8359098 -0.56083423
1.3468047 -8.8736887 -0.56018472
1.5549731 -10.245248 -0.56035262
1.8356551 -12.094576 -0.55957562
2.2418196 -14.770671 -0.55900812
2.869894 -18.908863 -0.55649179
3.9982982 -26.343576 -0.55370706
6.5877309 -43.404564 -0.54733342
0.3409155 -2.0739686 -0.56317514
0.3515856 -2.1388807 -0.56153572
0.36801437 -2.2388256 -0.56769544
0.38082504 -2.3167596 -0.56676483
0.39320377 -2.392066 -0.56390822
0.4091396 -2.489012 -0.56470615
0.42529935 -2.5873201 -0.56416804
0.43961266 -2.6743956 -0.55962819
0.46235859 -2.8127711 -0.56392467
0.48433587 -2.9464705 -0.56498313
0.50503373 -3.0723865 -0.56236494
0.53242141 -3.2390003 -0.56473249
0.55713636 -3.3893542 -0.56159633
0.58728921 -3.5727901 -0.56113517
0.62419224 -3.7972903 -0.56368482
0.66003257 -4.0153265 -0.56154698
0.70275533 -4.2752314 -0.56124175
0.75325644 -4.5824561 -0.56237084
0.81070668 -4.9319563 -0.56315464
0.8737269 -5.3153415 -0.56163543
0.94901264 -5.773344 -0.56091553
1.0410485 -6.3332477 -0.56152242
1.1520028 -7.0082402 -0.56193137
1.2858272 -7.8223648 -0.56095397
1.4555441 -8.8548422 -0.5600825
1.6783603 -10.210351 -0.55953044
1.9830828 -12.064138 -0.55925333
2.4188771 -14.715304 -0.55799621
3.1009469 -18.864695 -0.55627209
4.3171563 -26.263538 -0.55309874
7.103888 -43.216698 -0.54602468
0.36858076 -2.0819933 -0.56654209
0.38008836 -2.146996 -0.56485063
0.39254475 -2.2173581 -0.56343335
0.40976197 -2.3146126 -0.56742936
0.42223597 -2.3850741 -0.5634414
0.43676564 -2.4671476 -0.56092167
0.45604828 -2.5760691 -0.562895
0.47534347 -2.6850615 -0.56304061
0.49561143 -2.7995486 -0.56245303
0.51771808 -2.9244218 -0.56193358
0.54260164 -3.064981 -0.56218821
0.56808347 -3.2089198 -0.56066334
0.60121369 -3.3960617 -0.56389004
0.63314831 -3.5764499 -0.56289017
0.66827953 -3.774895 -0.56153774
0.71167082 -4.0199981 -0.56338155
0.75738752 -4.2782369 -0.56281638
0.80694544 -4.5581737 -0.56056619
0.86943716 -4.9111691 -0.56195939
0.93886518 -5.3033457 -0.56154531
1.0205932 -5.7650003 -0.56128174
1.1175759 -6.3128242 -0.56088763
1.2356018 -6.9795146 -0.56080395
1.3800731 -7.7955866 -0.56020826
1.5652068 -8.8413467 -0.56040388
1.8028297 -10.183601 -0.55923712
2.1263404 -12.011008 -0.55796027
2.5961308 -14.664703 -0.55724585
3.3275638 -18.796331 -0.55542076
4.6320872 -26.165163 -0.55218476
7.6183538 -43.033615 -0.54485393
0.39009416 -2.0559173 -0.5607093
0.40362528 -2.1272306 -0.56091392
0.42049545 -2.2161417 -0.56439543
0.43461144 -2.2905371 -0.5627948
0.45303854 -2.3876538 -0.56532401
0.46837848 -2.4685001 -0.56249607
0.48894751 -2.5769053 -0.56434876
0.50673515 -2.6706517 -0.56128317
0.53148633 -2.8010981 -0.5640347
0.55373645 -2.9183631 -0.56203526
0.57845694 -3.0486476 -0.56045461
0.61131912 -3.2218416 -0.56419182
0.64282399 -3.387882 -0.56380177
0.67773366 -3.5718668 -0.56343788
0.71533149 -3.7700191 -0.56207842
0.76024407 -4.0067225 -0.56278861
0.80715412 -4.253953 -0.56088501
0.86438096 -4.5555558 -0.56150895
0.92738754 -4.8876204 -0.56052727
1.0028 -5.2850671 -0.56087315
1.0885091 -5.7367811 -0.55979514
1.1958549 -6.3025265 -0.5612368
1.3207309 -6.9606624 -0.5605517
1.478014 -7.7895927 -0.56104118
1.6709886 -8.8066282 -0.55946338
1.9280704 -10.16153 -0.55928475
2.277199 -12.001547 -0.55877924
2.7719331 -14.608948 -0.55638033
3.555177 -18.736887 -0.55491406
4.9477878 -26.076378 -0.55155331
8.1302948 -42.849178 -0.54374337
0.4135595 -2.0421572 -0.55830121
0.4295544 -2.12114 -0.56065834
0.44555879 -2.2001696 -0.56168061
0.4625164 -2.2839065 -0.56252044
0.48151031 -2.3776984 -0.56432611
0.50162822 -2.4770405 -0.56580496
0.51861107 -2.5609019 -0.56219804
0.54061735 -2.6695688 -0.56241018
0.56296903 -2.7799416 -0.56112611
0.58957237 -2.911309 -0.56203043
0.61875981 -3.0554364 -0.56305879
0.65034199 -3.2113893 -0.56371921
0.68198144 -3.367625 -0.56178373
0.72016376 -3.5561693 -0.56231612
