# .PCD v0.7 - Point Cloud Data file format
VERSION 0.7
FIELDS x y z
SIZE 4 4 4
TYPE F F F
COUNT 1 1 1
WIDTH 1500
HEIGHT 1
VIEWPOINT 0 0 0 1 0 0 0
POINTS 1500
DATA ascii
5.3464551 5.703218 -0.55317217
6.0375133 6.4403896 -0.55097836
6.9569721 7.4212027 -0.55005813
8.1770763 8.722723 -0.54690957
9.9365425 10.599597 -0.54362893
12.653029 13.497351 -0.53831595
17.384548 18.5446 -0.52822399
27.81266 29.668566 -0.50700057
1.4125642 1.544451 -0.5608179
1.4613314 1.5977714 -0.56093419
1.5108644 1.6519293 -0.56013542
1.5602608 1.7059376 -0.55807364
1.6280261 1.78003 -0.5611372
1.6910281 1.8489144 -0.56094307
1.7543054 1.9180995 -0.5592885
1.8309875 2.0019412 -0.56018531
1.9069892 2.0850391 -0.55899423
1.9981301 2.1846895 -0.56018257
2.0835738 2.2781107 -0.55760121
2.1909502 2.3955126 -0.5585174
2.3017173 2.5166216 -0.55761153
2.4398937 2.6676993 -0.56027764
2.5827198 2.8238604 -0.56054723
2.7355268 2.9909346 -0.55934352
2.915659 3.1878853 -0.55962807
3.1096869 3.4000289 -0.55797344
3.3411291 3.65308 -0.55779439
3.5971334 3.9329867 -0.5557152
3.9026868 4.2670689 -0.55437821
4.2780643 4.677494 -0.55457509
4.7251081 5.1662769 -0.55393457
5.2790413 5.7719297 -0.55349874
5.9697428 6.5271192 -0.5520764
6.8632598 7.5040612 -0.54990274
8.0751114 8.8290606 -0.54730976
9.8150959 10.731503 -0.54416293
12.48628 13.652086 -0.53832304
17.191629 18.796759 -0.5293451
27.482723 30.048702 -0.50768328
1.3950351 1.5634594 -0.56144881
1.4375029 1.6110543 -0.55934954
1.501395 1.6826601 -0.56425297
1.5464239 1.7331254 -0.56070471
1.6079524 1.8020823 -0.56181353
1.6740214 1.876128 -0.56291169
1.741568 1.9518296 -0.56283677
1.7975425 2.0145619 -0.55748969
1.891661 2.1200435 -0.56210023
1.9715786 2.2096095 -0.5603137
2.0643046 2.3135304 -0.56001532
2.1623566 2.4234204 -0.55878258
2.2763498 2.5511761 -0.55902344
2.4129448 2.7042625 -0.56168276
2.5394118 2.8459978 -0.55870092
2.6919117 3.0169094 -0.55796862
2.8716667 3.2183664 -0.55873787
3.0652256 3.4352939 -0.55753309
3.2824664 3.6787624 -0.55551082
3.5497127 3.9782736 -0.55590457
3.8620231 4.3282895 -0.55612016
4.2231479 4.7330136 -0.5549587
4.665288 5.2285337 -0.55441695
5.2113824 5.840559 -0.55389297
5.8859406 6.5965571 -0.55178612
6.7679334 7.5850334 -0.54969633
7.9692388 8.9313745 -0.54753619
9.6800756 10.848763 -0.54403204
12.338119 13.827714 -0.53922516
16.952024 18.998663 -0.52912068
27.154816 30.433247 -0.5085004
1.3698353 1.5737492 -0.55905282
1.4102962 1.6202331 -0.55647337
1.4788094 1.698945 -0.56357348
1.5252975 1.7523534 -0.5608151
1.5812162 1.8165963 -0.56023443
1.6420588 1.8864959 -0.55992192
1.7037067 1.9573207 -0.55833691
1.7755884 2.0399027 -0.5584181
1.8619027 2.1390657 -0.56103104
1.9461179 2.2358172 -0.56084877
2.0362401 2.3393552 -0.56016326
2.1295774 2.4465864 -0.55804396
2.2440016 2.5780439 -0.55882227
2.362869 2.714606 -0.55775422
2.4922907 2.8632934 -0.55603796
2.6538091 3.0488555 -0.55779952
2.8276267 3.2485476 -0.55789912
3.030781 3.4819436 -0.55901349
3.2433348 3.7261381 -0.55660033
3.5020576 4.0233741 -0.55614728
3.7999985 4.3656669 -0.55487692
4.1641788 4.784059 -0.55489808
4.6035957 5.2888875 -0.55477226
5.1288323 5.8923111 -0.55277818
5.8041954 6.6682086 -0.55176789
6.6749401 7.6685724 -0.54976064
7.8623338 9.0327215 -0.54778099
9.5511742 10.972963 -0.54432964
12.155767 13.965277 -0.53872001
16.727928 19.21805 -0.52946204
26.815945 30.80777 -0.50921011
1.3463998 1.5857832 -0.55740434
1.4001423 1.6490809 -0.5604257
1.4466804 1.7038933 -0.55927169
1.4996154 1.7662399 -0.5593155
1.568969 1.8479241 -0.56390339
1.6218774 1.9102395 -0.56100738
1.6853815 1.9850343 -0.56028831
1.7556953 2.0678496 -0.56011623
1.8256966 2.1502967 -0.55804646
1.914057 2.2543671 -0.55955571
2.0054834 2.3620489 -0.55965
2.111264 2.4866366 -0.56121516
2.2011538 2.5925083 -0.55604857
2.3281894 2.7421303 -0.55748522
2.4713626 2.9107592 -0.55931187
2.6255441 3.0923531 -0.55980861
2.7910335 3.287266 -0.55861229
2.9759746 3.5050886 -0.55681217
3.205179 3.7750444 -0.55797637
3.456708 4.0712938 -0.55685359
3.7554057 4.4230986 -0.55626523
4.1054387 4.8353658 -0.55495179
4.5311613 5.3367805 -0.5539096
5.0564351 5.9554453 -0.55282629
5.7163749 6.7327189 -0.55124789
6.5876946 7.7589555 -0.55039132
7.756763 9.1358786 -0.5482111
9.4266577 11.102673 -0.54497278
11.994768 14.12738 -0.5392428
16.506681 19.441492 -0.52998585
26.462595 31.167519 -0.50973934
1.3431095 1.6219132 -0.56425619
1.377717 1.6637045 -0.55959582
1.4220005 1.7171804 -0.55785143
1.4836795 1.7916628 -0.56154639
1.5304762 1.8481736 -0.55819446
1.6118655 1.9464577 -0.56578052
1.6582459 2.002466 -0.55941087
1.735257 2.095463 -0.56177372
1.8086624 2.1841059 -0.56100643
1.8904351 2.2828531 -0.56081396
1.9748287 2.3847651 -0.55923647
2.0835917 2.5161052 -0.56204104
2.1734016 2.624558 -0.55714846
2.2972806 2.7741518 -0.55821007
2.4322054 2.9370844 -0.55858135
2.581619 3.1175134 -0.55857438
2.748353 3.3188581 -0.55819571
2.941262 3.5518112 -0.55844682
3.1544483 3.8092511 -0.557257
3.3965957 4.1016636 -0.55525285
3.7036366 4.4724402 -0.55670106
4.0445471 4.8841171 -0.55479705
4.4730887 5.4016161 -0.55488813
4.995935 6.0329947 -0.55428046
5.6442738 6.8159165 -0.55233544
6.5042577 7.8544159 -0.55144781
7.6429744 9.2295094 -0.54814857
9.2857256 11.213264 -0.54475534
11.827304 14.282424 -0.53956884
16.286324 19.667051 -0.5306353
26.107126 31.526463 -0.51032096
1.3083853 1.6201266 -0.55799532
1.3604639 1.6846136 -0.56095946
1.4040221 1.7385503 -0.55914283
1.4556201 1.8024421 -0.55927265
1.5105348 1.8704411 -0.55926758
1.5728678 1.9476258 -0.5604558
1.6274884 2.0152605 -0.55735236
1.7031119 2.1089025 -0.55971998
1.7837049 2.2086978 -0.56164688
1.8542501 2.2960515 -0.55841279
1.9459152 2.4095571 -0.5593968
2.0462408 2.5337865 -0.56032777
2.1489549 2.6609738 -0.55922717
2.259274 2.7975781 -0.55729169
2.3934789 2.9637592 -0.55801487
2.5319822 3.1352627 -0.5561341
2.6968665 3.3394332 -0.55603665
2.8884187 3.5766253 -0.55672187
3.108237 3.8488188 -0.55741197
3.3613696 4.1622639 -0.55781895
3.6467955 4.5156965 -0.55646145
3.9922009 4.9433994 -0.55591279
4.4060059 5.4557991 -0.5548467
4.9185591 6.0904756 -0.55396295
5.562151 6.8874125 -0.55254495
6.3952065 7.9189553 -0.55041629
7.5302753 9.3244696 -0.54824764
9.1544266 11.335599 -0.54518867
11.662465 14.441214 -0.5401091
16.0578 19.883799 -0.53111571
25.758127 31.895365 -0.51112676
1.298683 1.649193 -0.5624637
1.3366715 1.6974344 -0.55971318
1.3871032 1.7614775 -0.56098855
1.4393663 1.8278462 -0.56162095
1.491641 1.8942298 -0.56085378
1.548442 1.9663609 -0.56032562
1.6138589 2.0494337 -0.56127268
1.6746343 2.1266122 -0.55891269
1.756555 2.230643 -0.5616923
1.8337963 2.3287313 -0.56083423
1.9161841 2.4333553 -0.55940932
2.0143528 2.5580194 -0.56016678
2.1186564 2.6904743 -0.55990958
2.2324584 2.834991 -0.55923378
2.3638511 3.0018461 -0.55967081
2.5117457 3.1896567 -0.56026167
2.6732693 3.3947752 -0.55973583
2.8547468 3.6252327 -0.55878162
3.0608616 3.8869774 -0.55744523
3.2979724 4.1880836 -0.55580235
3.5793009 4.5453415 -0.55464906
3.9369855 4.9995637 -0.55674267
4.3409462 5.5125518 -0.55514795
4.8418765 6.1486821 -0.55379999
5.4767475 6.9549022 -0.55251479
6.3012896 8.0019846 -0.55076015
7.4273915 9.4320183 -0.54915965
9.0152769 11.448468 -0.54524428
11.490433 14.59166 -0.5404107
15.81672 20.085596 -0.53127074
25.394304 32.248138 -0.51173729
1.271582 1.6562767 -0.55950457
1.3231338 1.7234246 -0.56287581
1.3702619 1.7848104 -0.56301081
1.4150134 1.8431007 -0.5609194
1.4701606 1.9149317 -0.56158829
1.5319734 1.9954448 -0.56320268
1.5934709 2.0755472 -0.56301558
1.6506677 2.150048 -0.55969524
1.7238042 2.2453105 -0.5600059
1.8034999 2.349117 -0.56036055
1.8933408 2.4661376 -0.56155097
1.9793837 2.5782111 -0.5592162
2.0815771 2.7113214 -0.55887902
2.2054694 2.8726952 -0.5612793
2.3249507 3.0283234 -0.55923492
2.4641318 3.2096114 -0.5584023
2.6255591 3.4198754 -0.55850893
2.8154528 3.6672182 -0.55987453
3.0132878 3.9249046 -0.5575285
3.2506573 4.234086 -0.55656064
3.5402119 4.6112404 -0.55733621
3.8633897 5.0321898 -0.55504364
4.2724571 5.5650134 -0.55509847
4.7602038 6.2003188 -0.55313694
5.393611 7.0253525 -0.55280095
6.2047229 8.081852 -0.5509643
7.309463 9.520812 -0.54905486
8.8849001 11.572869 -0.54592443
11.318282 14.742428 -0.54079914
15.587648 20.303415 -0.5319221
25.048069 32.625919 -0.51280576
1.2511078 1.6717685 -0.55949867
1.2982372 1.7347442 -0.56131661
1.3456384 1.7980832 -0.5619356
1.3852324 1.8509899 -0.55809432
1.4379677 1.9214562 -0.55827403
1.5013853 2.006197 -0.56098431
1.5516404 2.0733492 -0.55720162
1.6259079 2.1725879 -0.56031585
1.7078133 2.2820323 -0.56388444
1.7764168 2.3737025 -0.56097215
1.8623824 2.4885724 -0.56140244
1.9590017 2.6176779 -0.56250918
2.0475905 2.736053 -0.55874473
2.1596792 2.8858292 -0.55861455
2.2865708 3.0553858 -0.55899793
2.4245489 3.2397561 -0.55841774
2.5866694 3.4563868 -0.55923498
2.7647188 3.6943016 -0.55877692
2.9619865 3.9578967 -0.55699921
3.2103815 4.2898097 -0.55865407
3.4761415 4.6449265 -0.55619937
3.8077178 5.0879889 -0.55599183
4.2024913 5.6154971 -0.5549376
4.694932 6.2735119 -0.55447441
5.3118505 7.097857 -0.5533247
6.1193428 8.1768522 -0.55226922
7.1938686 9.6126671 -0.54920918
8.7421494 11.681528 -0.5459379
11.136913 14.881484 -0.54083574
15.346666 20.506685 -0.53226328
24.68009 32.978291 -0.51353544
1.2274792 1.6829411 -0.55814421
1.2711375 1.742799 -0.55882305
1.3178531 1.8068486 -0.55956835
1.3620408 1.8674325 -0.55795991
1.4171921 1.943048 -0.55944192
1.4697005 2.0150397 -0.55836135
1.533623 2.1026809 -0.55997401
1.6010046 2.195065 -0.56099313
1.6681311 2.2870991 -0.56002557
1.7378721 2.3827178 -0.55801028
1.8258647 2.5033605 -0.55963129
1.9142931 2.6246006 -0.55889624
2.0243652 2.7755156 -0.56167769
2.1247375 2.9131315 -0.55879986
2.2533998 3.0895343 -0.56013376
2.3905623 3.2775917 -0.55983013
2.536725 3.477989 -0.55764109
2.7132802 3.7200556 -0.55758375
2.9217663 4.0059018 -0.55865663
3.1593776 4.3316793 -0.55900514
3.4211404 4.6905708 -0.55658555
3.7519991 5.144196 -0.55705023
4.1318722 5.6650233 -0.55476904
4.6240997 6.3398938 -0.55527401
5.2130394 7.1473622 -0.552145
6.0098605 8.2398472 -0.55149102
7.0789523 9.7056303 -0.54950571
8.606657 11.800199 -0.54649663
10.9715 15.042528 -0.54174453
15.121603 20.732546 -0.53325909
24.306995 33.326221 -0.51426023
1.2130866 1.7069018 -0.56110114
1.2493476 1.7579235 -0.5587045
1.2993108 1.8282254 -0.56119817
1.3527383 1.9034017 -0.56369442
1.3940588 1.961543 -0.55978912
1.4578938 2.0513635 -0.56341642
1.5136764 2.1298537 -0.5622111
1.5704255 2.2097037 -0.55975682
1.6406291 2.3084853 -0.56028008
1.7081466 2.4034874 -0.55791318
1.8027595 2.5366147 -0.56206727
1.8819126 2.6479888 -0.55890667
1.9864632 2.7950993 -0.5606553
2.0978134 2.9517772 -0.56122231
2.2103403 3.1101108 -0.5588944
2.3491516 3.3054283 -0.55960858
2.4977486 3.5145152 -0.55853081
2.6649103 3.7497239 -0.55707687
2.870151 4.0385127 -0.55824047
3.0972788 4.358098 -0.55745739
3.3671288 4.7377968 -0.55723429
3.6859851 5.186451 -0.55667573
4.0669293 5.7224674 -0.55545515
4.5379691 6.3852553 -0.55431777
5.1358542 7.2265234 -0.55333984
5.9122891 8.3190241 -0.55188268
6.9637399 9.7984924 -0.54987359
8.4571123 11.899777 -0.54625094
10.798119 15.193744 -0.54236752
14.876526 20.932362 -0.53365308
23.928329 33.668911 -0.51496905
1.1930548 1.7232007 -0.56159407
1.2294221 1.7757282 -0.55951625
1.2710849 1.8359042 -0.55871528
1.3264107 1.9158146 -0.56249774
1.3666161 1.9738858 -0.55847365
1.4289198 2.0638747 -0.56198436
1.4812633 2.1394775 -0.55990118
1.5508511 2.2399874 -0.5625549
1.6121516 2.3285275 -0.56029075
1.6850152 2.4337687 -0.5600903
1.7605646 2.5428891 -0.55861837
1.8574927 2.6828883 -0.56140947
1.9426858 2.8059378 -0.55799556
2.0470247 2.9566407 -0.55731905
2.1678061 3.1310925 -0.55783248
2.3040428 3.3278673 -0.55856872
2.4500864 3.5388069 -0.55756128
2.6226509 3.7880523 -0.55793786
2.8200183 4.073122 -0.55818897
3.0414188 4.3929038 -0.55708361
3.3123188 4.7841811 -0.55785716
3.6256618 5.2367616 -0.55724835
4.0012631 5.7792649 -0.55615044
4.4538107 6.4329066 -0.55365825
5.0560474 7.3027525 -0.5543744
5.8064828 8.386652 -0.5515908
6.8475146 9.8902769 -0.55025762
8.315176 12.010108 -0.54658067
10.610685 15.325649 -0.54237759
14.626771 21.126324 -0.53397232
23.55575 34.022984 -0.51591533
1.1654974 1.7284272 -0.55858451
1.2170436 1.80487 -0.56394053
1.2517221 1.856298 -0.56019515
1.2988249 1.9261513 -0.56080103
1.3453795 1.9951913 -0.55977869
1.4035414 2.0814455 -0.56202686
1.4614 2.1672494 -0.56242383
1.5167553 2.2493412 -0.56017768
1.5888866 2.3563113 -0.56223243
1.6578304 2.4585547 -0.56106061
1.7359219 2.5743639 -0.56080109
1.8160318 2.6931667 -0.55884522
1.9085165 2.8303211 -0.55813539
2.0110388 2.9823611 -0.55746388
2.1283977 3.156404 -0.55763704
2.2598219 3.3513052 -0.55779648
2.4111712 3.5757558 -0.55866921
2.5731153 3.815918 -0.55733973
2.7708507 4.1091585 -0.55841607
2.9854341 4.4273849 -0.55675882
3.2520936 4.8228397 -0.5576598
3.5595999 5.2788701 -0.55702937
3.9204261 5.8139734 -0.55480945
4.3774157 6.4916873 -0.5540427
4.9583569 7.35322 -0.55353522
5.7061844 8.462245 -0.55190605
6.7274866 9.9768314 -0.55042911
8.177742 12.127553 -0.54730785
10.428554 15.465496 -0.54274756
14.379737 21.325083 -0.53448641
23.166101 34.355221 -0.51659465
1.1431738 1.7411289 -0.55810434
1.1848404 1.80459 -0.55925846
1.2304037 1.8739858 -0.56092477
1.2782664 1.9468839 -0.56221849
1.3178198 2.0071263 -0.55853862
1.3764111 2.0963645 -0.56144279
1.4366038 2.1880422 -0.5631929
1.489946 2.2692859 -0.56053966
1.5511125 2.3624463 -0.55910301
1.6273711 2.4785933 -0.56102455
1.7056365 2.5977967 -0.56129444
1.7783591 2.7085578 -0.55745918
1.8774068 2.8594143 -0.55927777
1.983531 3.0210483 -0.56009388
2.0967865 3.1935437 -0.55960113
2.211298 3.3679523 -0.55599946
2.3618295 3.5972219 -0.55744338
2.5281816 3.8505869 -0.55782068
2.7273929 4.1539989 -0.55990976
2.9336472 4.4681377 -0.55730516
3.1857231 4.852066 -0.55646765
3.488915 5.3138471 -0.55615121
3.8624732 5.8828011 -0.55680311
4.3069353 6.5597463 -0.55528939
4.8734312 7.4225569 -0.55420172
5.615922 8.5534191 -0.55330676
6.6048875 10.059678 -0.55047745
8.0259686 12.224078 -0.54716879
10.243329 15.601264 -0.54305083
14.131628 21.523399 -0.53506124
22.777603 34.691788 -0.51740491
1.1324569 1.7719166 -0.56346685
1.1669132 1.8258291 -0.56135136
1.2017703 1.8803689 -0.55836999
1.2512548 1.9577957 -0.56088406
1.3018402 2.0369451 -0.56233925
1.3573591 2.1238134 -0.56428134
1.400457 2.1912472 -0.55954301
1.4723746 2.3037744 -0.56454384
1.5205642 2.3791749 -0.55859476
1.5952851 2.4960883 -0.56050193
1.6685532 2.6107285 -0.55961317
1.7589084 2.752104 -0.56192768
1.8496294 2.894052 -0.5615617
1.9459856 3.0448172 -0.56002188
2.0516732 3.2101829 -0.55805385
2.1829338 3.4155619 -0.55938554
2.3213341 3.6321125 -0.5583846
2.4887779 3.8941059 -0.55964941
2.6690426 4.1761599 -0.55843085
2.8787677 4.5043097 -0.55735946
3.130441 4.8980942 -0.55728966
3.4294038 5.365871 -0.55714041
3.7851875 5.9225535 -0.55611819
4.2235365 6.6084237 -0.55497169
4.7837143 7.4849148 -0.55442375
5.5004768 8.6064091 -0.55231756
6.4865751 10.149323 -0.55097657
7.8836522 12.335282 -0.54776579
10.050936 15.726356 -0.54306197
13.876157 21.71155 -0.53545636
22.387413 35.028824 -0.51828665
1.1139092 1.7910527 -0.56515366
1.1418673 1.8360062 -0.56012106
1.1866817 1.9080634 -0.56221819
1.2260509 1.9713647 -0.56040996
1.2765983 2.05264 -0.56229603
1.3168898 2.1174245 -0.55823928
1.375968 2.2124164 -0.5605858
1.4399418 2.3152795 -0.56298178
1.4950392 2.4038708 -0.56003445
1.5613859 2.5105493 -0.55939567
1.64262 2.6411655 -0.56176537
1.7190243 2.7640159 -0.56000155
1.8087182 2.9082346 -0.55995572
1.9128648 3.0756917 -0.56133187
2.0174015 3.2437758 -0.5595389
2.1429873 3.4457052 -0.55996424
2.2827787 3.6704757 -0.55992472
2.4340544 3.9137113 -0.55812335
2.6141183 4.2032361 -0.55771095
2.8275049 4.5463395 -0.5582158
3.0720479 4.9395399 -0.55766511
3.3615115 5.4049678 -0.55686599
3.7093091 5.964191 -0.55570304
4.1412749 6.6587486 -0.55487955
4.6889892 7.5394163 -0.55414808
5.4010177 8.6842861 -0.55301142
6.3570013 10.22141 -0.55060482
7.7312384 12.431044 -0.54775518
9.8684912 15.867528 -0.54370546
13.62684 21.91057 -0.53619164
21.983408 35.34708 -0.51895672
1.0742111 1.7755361 -0.5560475
1.123047 1.8562555 -0.56204319
1.1596941 1.9168285 -0.56055665
1.2065285 1.99424 -0.56265277
1.2492617 2.0648727 -0.56139648
1.3062814 2.1591191 -0.56495422
1.3491911 2.2300434 -0.5608061
1.4025602 2.3182557 -0.55946952
1.4573178 2.4087634 -0.55695736
1.5349603 2.5370963 -0.56106281
1.6016158 2.6472697 -0.55883253
1.6881365 2.7902775 -0.56107414
1.7737358 2.9317625 -0.56024396
1.8647608 3.0822153 -0.55829543
1.9847578 3.2805552 -0.5616309
2.101295 3.4731765 -0.56018722
2.2389026 3.7006247 -0.56028181
2.3874381 3.9461353 -0.55851847
2.5636466 4.2373857 -0.55801719
2.7740049 4.5850816 -0.55874223
3.009418 4.9741898 -0.55735701
3.2878666 5.4344301 -0.55569404
3.6390798 6.0149417 -0.55622029
4.071197 6.7291775 -0.55653471
4.6042418 7.6102333 -0.55514991
5.2921634 8.7472811 -0.55283719
6.2390547 10.312373 -0.55133045
7.5830269 12.533791 -0.54813248
9.6828842 16.004591 -0.54428101
13.364038 22.089075 -0.53649795
21.578045 35.665798 -0.51970118
1.0633028 1.8073136 -0.56186211
1.0963014 1.8634019 -0.56008291
1.1325837 1.9250716 -0.55885226
1.1766907 2.000041 -0.56016475
1.2203771 2.0742955 -0.55983609
1.269307 2.1574624 -0.56039435
1.3218852 2.2468305 -0.56089759
1.3820338 2.349066 -0.56276125
1.434561 2.4383473 -0.55967671
1.4972862 2.5449624 -0.55868852
1.5775139 2.6813269 -0.56188464
1.654011 2.8113503 -0.5611794
1.742988 2.9625859 -0.56199604
1.8252573 3.1024206 -0.55784768
1.9379671 3.2939951 -0.55980974
2.0674956 3.5141571 -0.56265396
2.1893902 3.7213433 -0.5593003
2.3424582 3.9815156 -0.559407
2.516542 4.2774086 -0.55917042
2.7132847 4.6118155 -0.55789208
2.9471285 5.0092835 -0.55718654
3.2235386 5.4791026 -0.55616677
3.5598121 6.0506721 -0.55543458
3.9824696 6.7690701 -0.55574191
4.5137076 7.6720243 -0.55556661
5.1921921 8.8252554 -0.55368829
6.114172 10.39236 -0.55154562
7.4356833 12.638555 -0.54867405
9.4958696 16.140289 -0.54488367
13.100677 22.267441 -0.53687692
21.168362 35.980217 -0.52045053
1.0405589 1.8194788 -0.56162381
1.0831014 1.8938667 -0.56519389
1.1119074 1.9442357 -0.56040412
1.1606189 2.0294106 -0.56435072
1.2003899 2.0989523 -0.56246454
1.2420713 2.1718349 -0.56011808
1.2888751 2.2536743 -0.5586074
1.3500327 2.3606119 -0.56150782
1.413475 2.4715445 -0.56326455
1.4705902 2.5714138 -0.56048328
1.5331709 2.68084 -0.55778974
1.6196718 2.8320918 -0.56130171
1.7047076 2.980782 -0.5614289
1.8029594 3.152581 -0.56283814
1.8968655 3.3167813 -0.55967593
2.0166736 3.5262725 -0.56058103
2.1428499 3.7468994 -0.55913883
2.3001862 4.0220113 -0.56108028
2.4581447 4.2982106 -0.55789626
2.6676102 4.664474 -0.56025177
2.8802578 5.0363007 -0.55621022
3.1579597 5.5218787 -0.55652511
3.4881883 6.0993032 -0.55591935
3.8958387 6.8121042 -0.5553
4.4134021 7.7170935 -0.55485845
5.0725846 8.8697138 -0.55252242
5.9877763 10.46998 -0.55171573
7.2784185 12.726745 -0.5485757
9.2929792 16.249323 -0.54466563
12.840473 22.452326 -0.53748709
20.766634 36.311684 -0.52151203
1.0160842 1.828492 -0.56050694
1.0504965 1.8904185 -0.56026757
1.09168 1.9645303 -0.56234205
1.1285378 2.0308576 -0.56085169
1.1744655 2.1135068 -0.5624522
1.2182873 2.1923661 -0.56150717
1.2717121 2.2885065 -0.56332254
1.3196918 2.3748484 -0.56099182
1.3811182 2.4853883 -0.56250656
1.4392416 2.5899842 -0.5606311
1.5088334 2.7152178 -0.56103987
1.5824772 2.8477433 -0.56050473
1.6714346 3.0078263 -0.56260908
1.7554621 3.1590378 -0.56009471
1.8620783 3.3508987 -0.56152683
1.9711883 3.5472474 -0.56001979
2.092792 3.7660792 -0.55811858
2.2411051 4.0329757 -0.55872321
2.408751 4.3346624 -0.55874085
2.6064339 4.690402 -0.55947417
2.8332376 5.0985465 -0.55919474
3.0908105 5.5620608 -0.55670232
3.4200704 6.1545801 -0.55708236
3.8194947 6.873363 -0.55642307
4.3176804 7.7698717 -0.55479389
4.9774213 8.9571075 -0.55411196
5.8578329 10.541451 -0.5516445
7.1287355 12.828501 -0.54914188
9.1045656 16.3841 -0.54538947
12.586645 22.650269 -0.53847986
20.353605 36.627285 -0.52241075
0.99382794 1.8414081 -0.56067783
1.0294884 1.9074816 -0.56153029
1.0647615 1.9728372 -0.56092966
1.1044714 2.0464134 -0.56135464
1.1463828 2.1240687 -0.56146908
1.190521 2.2058499 -0.56116879
1.2437068 2.304395 -0.56342643
1.2894201 2.3890944 -0.56056929
1.3528738 2.5066643 -0.56351423
1.4069316 2.6068249 -0.56048924
1.4749987 2.7329426 -0.56091225
1.5483681 2.8688848 -0.56087607
1.6303248 3.0207379 -0.56123191
1.714801 3.1772587 -0.55954444
1.8221343 3.3761306 -0.5619579
1.9307121 3.5773084 -0.56097519
2.0523868 3.8027525 -0.55977106
2.1911883 4.0599303 -0.5586825
2.3597076 4.3721704 -0.55979311
2.5435019 4.7127123 -0.55836254
2.7673707 5.1275067 -0.55859655
3.0306056 5.6152396 -0.55825287
3.3456624 6.1989908 -0.55733627
3.7302773 6.9116225 -0.55576497
4.2251968 7.8286314 -0.55523783
4.8636346 9.0115566 -0.55373871
5.7311816 10.618986 -0.55197233
6.971909 12.917861 -0.54925573
8.9046268 16.498884 -0.5455243
12.312873 22.813835 -0.53872824
19.926849 36.921349 -0.52307051
0.97363585 1.8583064 -0.56213516
0.99863321 1.9060169 -0.55744207
1.0379412 1.9810413 -0.55959117
1.0760719 2.0538182 -0.5597139
1.1210096 2.1395876 -0.56188512
1.1605424 2.2150409 -0.55983418
1.2085104 2.3065939 -0.56028837
1.262552 2.4097393 -0.56172812
1.3201022 2.5195811 -0.56272626
1.3749698 2.6243026 -0.56056952
1.4393045 2.7470932 -0.5601418
1.5110768 2.8840799 -0.56017178
1.5902309 3.0351555 -0.56023526
1.6798288 3.2061641 -0.56095487
1.7780057 3.3935473 -0.56117535
1.8846256 3.5970445 -0.56039369
2.0044892 3.8258197 -0.55949605
2.1446824 4.0933962 -0.55961633
2.3018548 4.3933792 -0.55884236
2.4892373 4.7510223 -0.55923265
2.7048306 5.162509 -0.55874419
2.9585619 5.6467872 -0.55773026
3.269573 6.2403908 -0.55740166
3.6526706 6.971581 -0.55693251
4.1362391 7.8945317 -0.55626237
4.7610621 9.0870857 -0.55474043
5.6062059 10.700148 -0.55256605
6.8147626 13.006831 -0.54943413
8.711153 16.626329 -0.54615515
12.037457 22.974998 -0.53899789
19.499268 37.216801 -0.5238198
0.9543215 1.8772347 -0.56426853
0.98093659 1.929589 -0.56076592
1.0180418 2.0025783 -0.56209624
1.0526165 2.0705898 -0.56071472
1.09666 2.1572273 -0.56293362
1.138289 2.239115 -0.56233859
1.1802793 2.3217137 -0.56039333
1.2320071 2.4234672 -0.56135434
1.2888783 2.5353374 -0.56266314
1.3469893 2.649647 -0.56240273
1.4080216 2.7697029 -0.56117922
1.4768784 2.9051504 -0.56069463
1.555037 3.0588953 -0.56104529
1.642122 3.2301991 -0.56158471
1.7275482 3.3982401 -0.55839634
1.8345581 3.6087379 -0.55865872
1.9556078 3.8468533 -0.55901307
2.0857584 4.1028714 -0.55736327
2.2484796 4.4229579 -0.55904567
2.4277804 4.7756586 -0.55857635
2.6462586 5.2054248 -0.55982488
2.8904138 5.685699 -0.55802095
3.1931362 6.2811809 -0.55749577
3.5639849 7.010673 -0.55651242
4.0330596 7.9333849 -0.55546373
4.6489711 9.1449366 -0.55474031
5.4803658 10.780364 -0.55318666
6.6606922 13.10217 -0.54996014
8.5081739 16.73633 -0.54629058
11.773664 23.159838 -0.53989702
19.07954 37.531143 -0.52490228
0.92609066 1.8785281 -0.56119192
0.95773578 1.9427187 -0.5611167
0.99026221 2.008697 -0.5603534
1.0294764 2.0882409 -0.56202412
1.0718669 2.1742277 -0.56388789
1.1108217 2.2532458 -0.56241453
1.1524915 2.3377707 -0.56080598
1.2040496 2.4423537 -0.56225711
1.2528138 2.5412695 -0.56051844
1.3124478 2.6622341 -0.56160647
1.3693917 2.7777417 -0.55935395
1.4398984 2.9207613 -0.56024796
1.5145024 3.0720916 -0.56000763
1.5966662 3.2387569 -0.55961686
1.6931853 3.4345407 -0.56089771
1.7917669 3.6345086 -0.55919516
1.9155725 3.8856421 -0.56118441
2.0469983 4.1522326 -0.56060708
2.1968479 4.4561954 -0.55979002
2.366358 4.8000379 -0.55798233
2.5808535 5.2351308 -0.55956435
2.8204534 5.7211475 -0.55805403
3.1105542 6.3096023 -0.55658144
3.4832499 7.0655966 -0.55743015
3.9317145 7.9752846 -0.55497038
4.5332851 9.1955404 -0.55438662
5.3443899 10.840825 -0.5528751
6.5113525 13.20795 -0.55099779
8.3069201 16.850168 -0.54663086
11.496249 23.319561 -0.54028416
18.643885 37.81818 -0.52567071
0.90556604 1.8953044 -0.56283462
0.93936718 1.9660485 -0.56447613
0.97688991 2.0445817 -0.56697011
1.0091639 2.1121294 -0.56507093
1.0375793 2.1716015 -0.55985552
1.0813391 2.2631888 -0.561535
1.1226519 2.3496544 -0.56030285
1.173812 2.4567299 -0.56220138
1.2260345 2.5660288 -0.5626117
1.273514 2.6654012 -0.55892885
1.3423661 2.809505 -0.56238371
1.4058404 2.9423535 -0.5610314
1.4738679 3.0847318 -0.55896586
1.5586295 3.2621334 -0.56030208
1.6483936 3.4500055 -0.56007069
1.7491955 3.6609786 -0.55991608
1.859288 3.8913968 -0.55867136
1.9898669 4.1646919 -0.55894345
2.1433465 4.4859171 -0.56017053
2.3154025 4.8460217 -0.55997574
2.5070033 5.2470322 -0.55749929
2.7556612 5.7674608 -0.55922407
3.0395756 6.3616796 -0.55783612
3.3910406 7.0972781 -0.55659783
3.8407724 8.0385447 -0.55604392
4.4209981 9.2529278 -0.5545271
5.2186427 10.922358 -0.55371869
6.344193 13.278079 -0.55062735
8.1065874 16.966682 -0.54713553
11.21602 23.474567 -0.54063928
18.211948 38.116695 -0.52666742
0.87782139 1.8968475 -0.56004506
0.91340083 1.9737295 -0.56341416
0.94460458 2.0411563 -0.56275672
0.97688389 2.1109073 -0.56148785
1.0127308 2.1883676 -0.56092507
1.0517391 2.2726588 -0.56063348
1.0960854 2.368485 -0.56153679
1.1432137 2.4703226 -0.56205255
1.1860232 2.5628278 -0.55867004
1.2503227 2.7017701 -0.56328869
1.303404 2.8164709 -0.5605275
1.3750927 2.9713802 -0.56329942
1.4410962 3.1140041 -0.56101668
1.5233961 3.2918427 -0.56214499
1.6043931 3.4668658 -0.5595628
1.7085723 3.691982 -0.5614022
1.8159536 3.9240179 -0.56010652
1.9401777 4.1924486 -0.55942452
2.0868244 4.5093312 -0.55984771
2.2540452 4.8706717 -0.55957901
2.4469495 5.2875104 -0.55856091
2.6761322 5.7827415 -0.55747283
2.9646165 6.4061155 -0.55849379
3.3044536 7.1404552 -0.5567553
3.7466021 8.0958748 -0.55678076
4.309186 9.3115387 -0.55482215
5.0823698 10.98228 -0.55354637
6.1819472 13.358311 -0.55076051
7.9069042 17.085697 -0.54779679
10.946989 23.654888 -0.54165107
17.765524 38.388775 -0.52736849
0.85886651 1.9173967 -0.56295151
0.88854027 1.9836426 -0.56308246
0.91989219 2.0536349 -0.56303596
0.94951391 2.1197646 -0.56069577
0.99058229 2.2114487 -0.56367642
1.0226328 2.2830007 -0.56004035
1.0626944 2.3724372 -0.55933338
1.1145324 2.4881639 -0.56295115
1.1645508 2.5998287 -0.56357169
1.2229357 2.7301714 -0.56603211
1.2667886 2.8280718 -0.55969393
1.334381 2.9789703 -0.56158519
1.3976347 3.1201823 -0.55899125
1.4765579 3.296376 -0.55977625
1.5681063 3.5007555 -0.56187803
1.6566927 3.6985226 -0.55925673
1.7664081 3.9434593 -0.55973881
1.8862702 4.2110481 -0.55876911
2.0319712 4.5363216 -0.56005418
2.1928527 4.8954859 -0.55928969
2.3844788 5.3232851 -0.55920041
2.6136086 5.8348117 -0.55935198
2.8861654 6.4432878 -0.55859822
3.218595 7.1854277 -0.55713379
3.649786 8.1480503 -0.55724037
4.1946201 9.364378 -0.55485529
4.9463115 11.042509 -0.55347466
6.02387 13.44813 -0.55136806
7.701623 17.193668 -0.54818076
10.665808 23.811132 -0.54218465
17.322939 38.673 -0.5283069
0.83727634 1.9325441 -0.56433338
0.86063015 1.9864477 -0.56083226
0.89166242 2.0580742 -0.56120461
0.92928743 2.1449177 -0.56428379
0.96616745 2.2300417 -0.56534463
0.99561149 2.2980025 -0.56067479
1.0388211 2.3977361 -0.56224382
1.0840037 2.5020232 -0.56302845
1.1282587 2.6041698 -0.56146282
1.1729201 2.7072542 -0.55824834
1.2331983 2.8463838 -0.56027454
1.2973207 2.9943869 -0.56144178
1.3596017 3.13814 -0.55917102
1.4379488 3.318975 -0.56056893
1.5245578 3.5188801 -0.56173569
1.6150477 3.7277427 -0.56062984
1.7191498 3.9680243 -0.56018269
1.8387262 4.2440224 -0.56010205
1.9795781 4.5691271 -0.56105667
2.1381862 4.935215 -0.56078249
2.3227491 5.3612108 -0.56014174
2.5351911 5.8515549 -0.55792642
2.8085709 6.4825511 -0.55896586
3.133754 7.2331166 -0.55780149
3.5429976 8.1777048 -0.55624694
4.0850205 9.4287653 -0.55565208
4.8108802 11.104145 -0.5535571
5.8622422 13.530827 -0.55176145
7.4954233 17.300423 -0.54860437
10.374874 23.946575 -0.54232281
16.879656 38.960468 -0.52935851
0.81256121 1.9405669 -0.56371582
0.83721608 1.9994478 -0.5615536
0.87310618 2.085161 -0.56562042
0.89691204 2.1420143 -0.56057608
0.93326807 2.2288401 -0.56208831
0.96529531 2.3053279 -0.55952382
1.0071157 2.4052038 -0.56104863
1.0503033 2.5083449 -0.56150228
1.0951996 2.6155667 -0.56097412
1.1417594 2.7267613 -0.5593335
1.1970732 2.8588622 -0.55979103
1.2577863 3.0038579 -0.56027526
1.3218915 3.1569548 -0.55958492
1.3946295 3.330668 -0.55960512
1.4741197 3.5205073 -0.55905956
1.5693604 3.7479622 -0.56072611
1.6662542 3.9793649 -0.55884892
1.7813483 4.2542338 -0.55851668
1.917935 4.5804315 -0.5595066
2.0705678 4.9449506 -0.5589534
2.2537198 5.3823562 -0.55941325
2.466856 5.8913703 -0.55878824
2.7236602 6.5046725 -0.55794328
3.0436997 7.2689943 -0.55763984
3.4461253 8.2300711 -0.55688441
3.9645908 9.4682751 -0.55506551
4.6838508 11.186019 -0.55472553
5.6980462 13.608131 -0.55201489
7.2846756 17.397335 -0.54879552
10.095872 24.111061 -0.54319543
16.425495 39.227531 -0.53020275
0.789536 1.9526281 -0.56435663
0.81208855 2.0084038 -0.56122196
0.83972687 2.076757 -0.5604974
0.87411112 2.1617937 -0.56289703
0.91124636 2.2536342 -0.56547254
0.94423455 2.3352184 -0.56391782
0.97789806 2.4184728 -0.56129646
1.0191569 2.5205114 -0.561378
1.0578557 2.616219 -0.5582819
1.1110865 2.7478659 -0.56081766
1.1634279 2.8773129 -0.56056023
1.2228006 3.0241497 -0.56121314
1.2929629 3.1976705 -0.56394118
1.3635154 3.3721561 -0.56371611
1.4360688 3.5515902 -0.56114894
1.5220993 3.7643552 -0.56033611
1.6217928 4.0109105 -0.56043613
1.7357618 4.2927713 -0.56073153
1.8594028 4.5985518 -0.55888486
2.0082083 4.966568 -0.55856335
2.188401 5.4122086 -0.55967683
2.3967719 5.9275379 -0.55938107
2.6479495 6.5487337 -0.55888748
2.9559422 7.3104405 -0.55798882
3.3422015 8.2657118 -0.55647314
3.8501196 9.5218611 -0.55538952
4.5449572 11.240288 -0.55460328
5.5393152 13.699469 -0.55291516
7.0762639 17.500549 -0.54926503
9.8032112 24.244654 -0.54344827
15.970094 39.496181 -0.53113943
0.76453197 1.9597898 -0.56366676
0.78830618 2.0207322 -0.56191581
0.81946236 2.1005976 -0.56416959
0.84105164 2.1559391 -0.55863744
0.87403148 2.2404792 -0.55943269
0.91607994 2.3482656 -0.56430566
0.94641203 2.4260185 -0.5603044
0.99393427 2.5478361 -0.56469911
1.0322347 2.6460147 -0.56188911
1.0802732 2.7691562 -0.56240928
1.1262702 2.8870642 -0.55971956
1.1846805 3.036792 -0.56081349
1.2458056 3.1934795 -0.56045806
1.3165303 3.3747742 -0.56140506
1.3973681 3.5819924 -0.56319505
1.4773312 3.7869687 -0.5609557
1.5744683 4.0359683 -0.56118977
1.6849025 4.3190541 -0.56141597
1.8056321 4.6285305 -0.55978757
1.9529899 5.0062652 -0.56028473
2.1245122 5.4459429 -0.56042147
2.3260512 5.9625649 -0.55994505
2.5652947 6.5758381 -0.55846643
2.8666265 7.3482671 -0.55814332
3.2368467 8.2972841 -0.55587709
3.7363892 9.5778046 -0.55593067
4.4122629 11.310328 -0.55534023
5.3705297 13.766735 -0.55292296
6.8646522 17.596746 -0.54959339
9.520853 24.405611 -0.5443908
15.514221 39.768921 -0.53220153
0.7380507 1.9628538 -0.56189525
0.7687304 2.0444467 -0.56583887
0.79491955 2.1140971 -0.56512725
0.81955796 2.1796234 -0.56212062
0.85598826 2.27651 -0.56575841
0.8840915 2.3512509 -0.56236804
0.92090911 2.4491677 -0.56299299
0.95713776 2.5455182 -0.56153435
0.99151301 2.6369398 -0.55733079
1.0459726 2.7817752 -0.56231749
1.0930371 2.906944 -0.56092554
1.1447767 3.0445461 -0.55960357
1.2129598 3.2258797 -0.56348407
1.2773958 3.397248 -0.5624882
1.346637 3.5813956 -0.56045532
1.4219993 3.7818227 -0.55756122
1.5243134 4.0539279 -0.56103832
1.6314754 4.3389268 -0.56134897
1.7506286 4.6558156 -0.56044167
1.8909427 5.0289826 -0.56018257
2.0490761 5.4495401 -0.55815655
2.253459 5.9930987 -0.56016791
2.4869506 6.6140723 -0.55907416
2.7735357 7.3762484 -0.55763608
3.1467922 8.368928 -0.55804235
3.6226945 9.6345949 -0.55659932
4.2749548 11.369288 -0.55561209
5.2007656 13.831492 -0.55291355
6.6590362 17.709778 -0.55052465
9.2330875 24.555496 -0.54516041
15.046826 40.0172 -0.53300774
0.71274632 1.9687026 -0.56101829
0.74027562 2.0447421 -0.56335872
0.76148796 2.1033335 -0.55970466
0.79139084 2.1859293 -0.56119484
0.82281351 2.272723 -0.56226027
0.85644168 2.3656087 -0.56324071
0.8890785 2.4557562 -0.56195188
0.92758888 2.5621269 -0.56263947
0.96718889 2.6715076 -0.56208074
1.0092584 2.7877092 -0.56096596
1.0601661 2.9283235 -0.56249291
1.1139013 3.0767472 -0.56296217
1.1665504 3.2221713 -0.56028831
1.2337466 3.4077764 -0.56167704
1.3014423 3.5947609 -0.56000018
1.3849659 3.8254647 -0.5614422
1.4748436 4.073719 -0.56122506
1.5774938 4.3572531 -0.56116796
1.6912855 4.6715608 -0.55979127
1.8318974 5.0599504 -0.56108052
1.9878439 5.490696 -0.55982596
2.1804581 6.0227227 -0.56038839
2.4078379 6.6507764 -0.55963165
2.6883357 7.42555 -0.55882186
3.0456398 8.4124718 -0.55840647
3.5014889 9.6715899 -0.55620712
4.1375694 11.428531 -0.55597883
5.03618 13.910616 -0.55355906
6.4394941 17.786762 -0.55041468
8.9380951 24.688238 -0.5456261
14.582006 40.277489 -0.53404605
0.68942517 1.980014 -0.56178337
0.70681769 2.0299649 -0.55685061
0.73750985 2.1181121 -0.56118166
0.76734883 2.203809 -0.56332004
0.79686964 2.2885921 -0.56371951
0.82208693 2.3610158 -0.55969799
0.86089075 2.4724593 -0.56330919
0.89364922 2.566541 -0.56115329
0.92912453 2.6684256 -0.55898625
0.97361612 2.7962043 -0.56022394
1.0198681 2.929039 -0.56017911
1.0735397 3.0831826 -0.56168181
1.125407 3.2321444 -0.55957383
1.194693 3.4311323 -0.56306273
1.2599864 3.6186535 -0.56126618
1.3326838 3.8274386 -0.55928457
1.4245709 4.0913367 -0.56119645
1.5218624 4.3707557 -0.56045449
1.6374623 4.7027559 -0.56107414
1.7680753 5.0778742 -0.56061482
1.9204781 5.5155716 -0.55991215
2.09975 6.0304365 -0.55866146
2.3293035 6.6897087 -0.56045514
2.5965087 7.4571161 -0.55875242
2.9408467 8.4460478 -0.55819255
3.3865731 9.7261639 -0.55690867
3.9908059 11.461507 -0.55515385
4.8644862 13.970699 -0.55352783
6.2285299 17.888203 -0.55114204
8.6405306 24.815414 -0.54604739
14.106069 40.512321 -0.53481942
0.66773468 1.9964347 -0.56407011
0.68736017 2.0551124 -0.56138796
0.71252018 2.1303372 -0.56205684
0.7370671 2.2037292 -0.5609405
0.77055192 2.303844 -0.56509972
0.79622257 2.3805957 -0.56197613
0.82942331 2.4798615 -0.5626294
0.86142009 2.5755274 -0.56075972
0.90049767 2.692364 -0.56163889
0.93970633 2.8095925 -0.56054884
0.99182534 2.9654212 -0.564762
1.0315034 3.0840533 -0.55948746
1.0919938 3.2649112 -0.56287944
1.1521194 3.4446783 -0.56291825
1.2116069 3.6225376 -0.55951548
1.2922179 3.8635533 -0.56219745
1.371835 4.1015978 -0.56024778
1.4699789 4.3950343 -0.56120747
1.5761156 4.7123685 -0.55986643
1.7060558 5.1008716 -0.56079537
1.8502091 5.5318704 -0.55921489
2.031446 6.0737433 -0.56031698
2.2403991 6.6984844 -0.5588401
2.506916 7.4953337 -0.55926394
2.8381968 8.485817 -0.55847216
3.2671196 9.7682371 -0.55697531
3.8549139 11.525661 -0.55592322
4.6943016 14.035316 -0.5537591
6.0126157 17.976892 -0.55155498
8.3484755 24.960793 -0.54694605
13.639157 40.779202 -0.53608799
0.64203209 2.0010502 -0.56310105
0.66020674 2.0576961 -0.55983382
0.69189751 2.1564682 -0.56666356
0.71155518 2.2177362 -0.56223625
0.73770642 2.2992427 -0.56170356
0.76238811 2.3761694 -0.55867594
0.79668897 2.4830766 -0.56109381
0.83269948 2.5953119 -0.56279546
0.865013 2.6960249 -0.56014138
0.90834588 2.8310826 -0.56256539
0.95160061 2.9658966 -0.56258154
0.99634999 3.1053691 -0.5610894
1.0458306 3.2595875 -0.55970222
1.1051967 3.4446166 -0.56064498
1.1685778 3.642159 -0.56028438
1.2406626 3.8668292 -0.56041181
1.3247869 4.1290231 -0.56172627
1.4148479 4.4097199 -0.56081879
1.5241185 4.750289 -0.56210256
1.6448631 5.1266189 -0.56135994
1.7817112 5.5531397 -0.55910796
1.9542832 6.0910025 -0.55965
2.1580839 6.7261977 -0.55889601
2.4141688 7.5243492 -0.55917168
2.7310708 8.5120516 -0.55794638
3.1528502 9.8266296 -0.55805206
3.7173297 11.585969 -0.55658525
4.5245543 14.101882 -0.55414844
5.7942767 18.059284 -0.55185515
8.0468035 25.079836 -0.54734504
13.160595 41.018219 -0.53706217
0.61672282 2.0066564 -0.56250209
0.63653952 2.0711348 -0.5613181
0.65992367 2.1472208 -0.56205875
0.68259603 2.2209907 -0.56089103
0.71313846 2.3203678 -0.56467944
0.7446717 2.4229689 -0.56748348
0.76765597 2.4977536 -0.56223482
0.79955101 2.601532 -0.56196982
0.83403528 2.7137349 -0.56164765
0.87352598 2.8422272 -0.562603
0.91717911 2.9842632 -0.56388348
0.96016997 3.1241446 -0.56230605
1.0122374 3.2935584 -0.56335551
1.0621606 3.4559956 -0.5603289
1.1254692 3.6619856 -0.56116295
1.1977139 3.8970506 -0.5626148
1.2700014 4.1322556 -0.55999917
1.3612823 4.4292603 -0.56113267
1.4613805 4.7549539 -0.56048578
1.5800242 5.1409898 -0.56076372
1.7141244 5.5773172 -0.55937779
1.8839766 6.129972 -0.56105959
2.0767674 6.7572637 -0.55931312
2.3247929 7.5642743 -0.55997193
2.6332676 8.5679703 -0.55944705
3.0255289 9.8442869 -0.55689996
3.5727692 11.624866 -0.5563013
4.3545866 14.168697 -0.55462795
5.5759735 18.142773 -0.55226946
7.7468944 25.206388 -0.54798657
12.672438 41.23283 -0.53779119
0.59308445 2.017766 -0.56352937
0.6118995 2.0817776 -0.5621208
0.63468188 2.159287 -0.56313175
0.65832412 2.2397215 -0.56353438
0.68583667 2.3333235 -0.56573719
0.70784348 2.4081941 -0.56194204
0.73219979 2.4910579 -0.55865878
0.76777095 2.6120768 -0.5621658
0.80334097 2.7330914 -0.56356674
0.8386451 2.8532016 -0.56269151
0.87907487 2.9907501 -0.56302416
0.92025429 3.1308489 -0.56143355
0.97036266 3.3013253 -0.56260055
1.0196369 3.4689641 -0.56035632
1.0816363 3.6798959 -0.56182694
1.1459413 3.8986712 -0.56077206
1.2224455 4.1589503 -0.56153727
1.3063207 4.4443069 -0.56096148
1.4041561 4.7771583 -0.5610255
1.5142609 5.151752 -0.55986428
1.6483723 5.6080203 -0.56038189
1.806273 6.1452231 -0.56038016
1.9979044 6.797183 -0.56054145
2.230922 7.5899453 -0.55979925
2.5235782 8.5856066 -0.55853021
2.9070454 9.8902225 -0.5574342
3.4342959 11.684011 -0.55706865
4.1868043 14.244163 -0.55552471
5.3566651 18.224211 -0.55270159
7.4421234 25.319267 -0.54840964
12.187467 41.463665 -0.53880656
0.56831789 2.0252185 -0.56361645
0.58831877 2.0964923 -0.56409806
0.60776663 2.1657953 -0.56283754
0.62881863 2.2408149 -0.56182152
0.65042806 2.3178208 -0.5599969
0.67763078 2.4147584 -0.56148696
0.70560133 2.5144324 -0.5619126
0.73616767 2.6233566 -0.56260264
0.76836228 2.7380831 -0.56260526
0.80291313 2.8612061 -0.56228048
0.84259051 3.0025976 -0.56326145
0.88556242 3.1557293 -0.56389987
0.9326002 3.3233502 -0.56435698
0.97866493 3.4875031 -0.56136465
1.037868 3.6984751 -0.5626725
1.0975617 3.9111955 -0.56058985
1.170971 4.172792 -0.56141961
1.2515531 4.4599485 -0.56095082
1.3435618 4.7878246 -0.56029552
1.452755 5.1769381 -0.56061763
1.576592 5.6182346 -0.55942309
1.7293243 6.1625013 -0.55997437
1.9160311 6.827837 -0.56108403
2.1351328 7.6086125 -0.55919737
2.4192924 8.6212244 -0.55886978
2.7888532 9.9381657 -0.55816132
3.2912984 11.728645 -0.55722499
4.0131497 14.300985 -0.55577427
5.1380644 18.309652 -0.55333489
7.1385255 25.438358 -0.54904634
11.698579 41.688251 -0.53981489
0.54347825 2.032444 -0.56372482
0.56182331 2.1010489 -0.56342262
0.58364737 2.1826644 -0.56531358
0.60197103 2.2511892 -0.5625242
0.6272307 2.3456528 -0.56481516
0.65075845 2.4336395 -0.56397396
0.67550629 2.5261889 -0.56264102
0.70372367 2.6317134 -0.56249654
0.73566556 2.7511663 -0.56339222
0.7663396 2.8658779 -0.56130433
0.80382991 3.0060804 -0.56201804
0.84378827 3.1555126 -0.56196463
0.88696057 3.3169637 -0.56137794
0.93694371 3.5038855 -0.56210464
0.99368161 3.716068 -0.56344754
1.0523384 3.9354265 -0.56216568
1.1179445 4.1807737 -0.56060159
1.1944956 4.4670515 -0.55995452
1.2876724 4.8155046 -0.56163943
1.3916146 5.204217 -0.56167614
1.5105088 5.6488452 -0.56057918
1.6544727 6.1872268 -0.56033009
1.8334818 6.8566661 -0.56155801
2.0400629 7.6292176 -0.55882579
2.3157623 8.6602488 -0.55951124
2.6676726 9.9762878 -0.55841786
3.1458206 11.764416 -0.55704451
3.8385918 14.35517 -0.55600363
4.9181757 18.392487 -0.55396873
6.8314977 25.547731 -0.54955232
11.208385 41.915966 -0.54093796
0.51947427 2.0430121 -0.56484163
0.53490824 2.1037116 -0.56233031
0.5531354 2.175396 -0.56162697
0.57636511 2.2667549 -0.56460011
0.59451795 2.3381474 -0.56120509
0.61931825 2.4356833 -0.56264025
0.64325231 2.5298121 -0.56164384
0.67431235 2.6519663 -0.56501043
0.69981593 2.7522681 -0.56181318
0.7336781 2.8854427 -0.56332666
0.76924384 3.0253174 -0.56380355
0.80328089 3.1591799 -0.56081623
0.84315979 3.3160174 -0.55942076
0.89113271 3.5046875 -0.56043309
0.94546384 3.7183633 -0.56199026
1.0006173 3.9352732 -0.56034386
1.0716828 4.2147632 -0.5633496
1.1394153 4.4811444 -0.55992246
1.2290909 4.8338246 -0.56197095
1.3247336 5.2099729 -0.56049693
1.4430596 5.6753302 -0.56140417
1.5794078 6.2115674 -0.56073326
1.7476327 6.8731699 -0.56110722
1.9503245 7.6703258 -0.56003791
2.2097359 8.6905508 -0.55967116
2.5466137 10.015439 -0.55881429
3.0062444 11.823095 -0.55803049
3.6645892 14.412264 -0.5564276
4.6918588 18.452356 -0.55399239
6.5265217 25.667803 -0.5503673
10.713057 42.132801 -0.54199523
0.49332792 2.0451524 -0.56371361
0.50487262 2.0930126 -0.55776882
0.52477843 2.1755347 -0.55995446
0.54794586 2.2715781 -0.56408054
0.56332386 2.3353293 -0.55882388
0.59089082 2.4496117 -0.56413668
0.6140514 2.5456269 -0.56343603
0.63743353 2.6425602 -0.56129402
0.66564167 2.7595007 -0.56157625
0.69601709 2.885426 -0.56161004
0.72793418 3.0177422 -0.56068128
0.76690495 3.1793003 -0.56267148
0.80475163 3.3361986 -0.56111354
0.84987134 3.523248 -0.56168747
0.90259653 3.7418268 -0.56381643
0.9515397 3.9447269 -0.55998158
1.0165665 4.2143035 -0.56157494
1.0904509 4.5206008 -0.56313455
1.1671462 4.8385506 -0.56080943
1.2646844 5.2429075 -0.56232458
1.3717611 5.6868072 -0.56082851
1.5020479 6.2269273 -0.56041014
1.6623863 6.8916306 -0.56090307
1.8549312 7.6898494 -0.55975568
2.1040308 8.7225227 -0.5600217
2.4290657 10.069996 -0.56014943
2.8613739 11.862184 -0.55817252
3.4880433 14.46012 -0.55657727
4.4703298 18.53231 -0.55470055
6.2172832 25.774527 -0.55097473
10.213161 42.339939 -0.54300332
0.47004607 2.0593956 -0.56600356
0.48569885 2.1279745 -0.5654515
0.50180435 2.1985371 -0.56424415
0.51846814 2.2715454 -0.56244683
0.53659523 2.350965 -0.56094408
0.55865431 2.4476116 -0.56205153
0.58093333 2.5452218 -0.56172282
0.60346955 2.643959 -0.55997264
0.63241619 2.770782 -0.56224698
0.66122293 2.8969917 -0.56223613
0.69358426 3.0387752 -0.562962
0.72548264 3.1785305 -0.56091398
0.76727933 3.3616526 -0.56376523
0.8083446 3.5415704 -0.56298131
0.85537076 3.7476046 -0.56305963
0.90632355 3.9708421 -0.56206423
0.96867645 4.2440267 -0.56390578
1.0315862 4.5196509 -0.56139362
1.1078998 4.854001 -0.56097877
1.1963831 5.2416692 -0.56057149
1.3019038 5.7039833 -0.56090122
1.4266655 6.250597 -0.56091911
1.5766208 6.9075909 -0.56058186
1.7609591 7.7152252 -0.55998433
1.9958622 8.7443981 -0.55980814
2.2986491 10.070987 -0.55859005
2.7156746 11.898086 -0.55824834
3.3087575 14.496538 -0.55637091
4.2474136 18.609037 -0.55539185
5.9075303 25.882444 -0.55168712
9.7077169 42.532066 -0.54389524
0.44401196 2.0618746 -0.56514162
0.45534387 2.1144972 -0.56034011
0.47293183 2.1961708 -0.5621019
0.49133763 2.2816427 -0.56340837
0.51020682 2.3692663 -0.56377125
0.52811944 2.4524477 -0.56162834
0.54929864 2.5507984 -0.56142038
0.57456148 2.6681125 -0.56354922
0.59788966 2.7764423 -0.56186128
0.62595278 2.90676 -0.56259561
0.65579253 3.0453279 -0.56263947
0.68731785 3.1917231 -0.56170815
0.72602612 3.3714743 -0.56387252
0.7642073 3.5487776 -0.56259066
0.80934447 3.7583828 -0.56314117
0.85913545 3.989599 -0.56318134
0.91113359 4.2310648 -0.56065249
0.97525918 4.5288472 -0.56100392
1.0488869 4.8707547 -0.561382
1.1332387 5.2624626 -0.56126255
1.2345308 5.7328362 -0.56220323
1.3515824 6.2763929 -0.56170011
1.4925854 6.9311738 -0.56096381
1.6706997 7.7582898 -0.56157649
1.8889326 8.7717056 -0.560027
2.1781504 10.114758 -0.55948997
2.568707 11.928399 -0.55814648
3.1367664 14.566318 -0.55752653
4.0199389 18.66754 -0.55562055
5.597136 25.991627 -0.55250555
9.2028017 42.73539 -0.54500705
0.41934696 2.0707357 -0.56611419
0.4314537 2.1305187 -0.56313729
0.44414854 2.1932058 -0.55990285
0.46222335 2.2824593 -0.56216401
0.48063621 2.3733821 -0.56330168
0.49777076 2.4579926 -0.561454
0.5186525 2.5611064 -0.56224298
0.54202867 2.6765382 -0.56387848
0.56276858 2.7789516 -0.56092626
0.59117901 2.9192424 -0.56356198
0.61733884 3.0484197 -0.56176579
0.64771104 3.1983976 -0.56143868
0.68483871 3.3817341 -0.5641374
0.72180945 3.5642955 -0.56360108
0.76251549 3.7653022 -0.56273055
0.80979365 3.9987617 -0.56302655
0.86144906 4.2538362 -0.56222379
0.92131984 4.5494781 -0.5621137
0.99045414 4.8908634 -0.56225348
1.0693904 5.2806506 -0.56175745
1.1618398 5.7371659 -0.56118435
1.2740545 6.2912822 -0.56158811
1.4072583 6.9490428 -0.56096709
1.5721595 7.7633252 -0.56049925
1.7802157 8.7907066 -0.55980027
2.0514667 10.130144 -0.55890346
2.4247649 11.973491 -0.558819
2.9586816 14.609972 -0.55776274
3.7942045 18.735785 -0.55622113
5.2779298 26.062424 -0.55258912
8.6918364 42.920296 -0.54596084
0.392975 2.0711002 -0.56485009
0.40443712 2.1315093 -0.56204212
0.41649657 2.1950665 -0.55902809
0.43615445 2.2986693 -0.56479293
0.44897044 2.3662136 -0.56024766
0.46856573 2.469487 -0.56272095
0.48624161 2.5626442 -0.56122553
0.50862259 2.680599 -0.5633738
0.5297659 2.7920308 -0.56220889
0.55488324 2.924407 -0.56319922
0.5793364 3.0532827 -0.56130672
0.60995334 3.2146437 -0.56293136
0.64064389 3.3763921 -0.56188965
0.67891812 3.5781095 -0.56442267
0.71665245 3.7769809 -0.56311637
0.75965917 4.0036397 -0.56235564
0.80593878 4.2475476 -0.56004047
0.86505586 4.559113 -0.56194735
0.93064082 4.9047661 -0.56249362
1.002349 5.2826905 -0.5606209
1.0940193 5.7658215 -0.56262892
1.1940727 6.2931337 -0.56040037
1.3234755 6.9751267 -0.56171656
1.4761056 7.7795348 -0.56031674
1.6722815 8.8134432 -0.55989629
1.9303962 10.173788 -0.55995941
2.2762082 11.996325 -0.55853611
2.7811167 14.657349 -0.55822366
3.5677817 18.803316 -0.55688149
4.9658904 26.171783 -0.55357128
8.1773634 43.097244 -0.54689133
0.36454979 2.0592237 -0.56034613
0.37686804 2.1288056 -0.56006497
0.393379 2.2220707 -0.56463081
0.40864879 2.3083248 -0.56588787
0.42029965 2.3741367 -0.56085753
0.43772793 2.4725835 -0.56215751
0.45329115 2.5604949 -0.55949187
0.47571331 2.6871505 -0.56347871
0.49578428 2.800525 -0.56264919
0.51660395 2.9181285 -0.56072426
0.54074848 3.0545132 -0.56026822
0.57245928 3.2336371 -0.564982
0.59809011 3.3784175 -0.56096035
0.6322521 3.5713875 -0.56209344
0.66926265 3.7804482 -0.5623638
0.71114391 4.0170217 -0.5629645
0.75718379 4.2770863 -0.56266499
0.8094005 4.5720415 -0.56227165
0.86897284 4.9085464 -0.56165928
0.93721056 5.2939992 -0.56055564
1.0220975 5.7734976 -0.56210905
1.1221585 6.3387103 -0.5631876
1.2355725 6.9793491 -0.56079066
1.3815175 7.8037453 -0.56079453
1.566146 8.846652 -0.56074017
1.8061608 10.202417 -0.56027043
2.1333041 12.050344 -0.55978757
2.6024117 14.700182 -0.55859399
3.3382623 18.856764 -0.55720651
4.6482735 26.256592 -0.55411428
7.664957 43.29686 -0.5481869
0.34263131 2.0844071 -0.56600958
0.35137436 2.1375954 -0.56119829
0.36263686 2.2061114 -0.55940014
0.37822112 2.3009186 -0.56288952
0.39250243 2.3877993 -0.56290239
0.40997037 2.494066 -0.56585282
0.42348301 2.5762706 -0.56175864
0.44115552 2.6837816 -0.56159228
0.46099618 2.8044827 -0.56226295
0.48320392 2.9395843 -0.56366271
0.50592542 3.0778112 -0.56335789
0.53011113 3.2249455 -0.56228197
0.55688441 3.3878214 -0.56134242
0.58798367 3.5770147 -0.56179863
0.62367165 3.7941234 -0.56321472
0.66263455 4.0311556 -0.5637607
0.70469439 4.2870274 -0.56279033
0.75456041 4.5903888 -0.56334436
0.80840427 4.9179497 -0.56155533
0.87269592 5.3090696 -0.56097269
0.94790506 5.7666063 -0.56026089
1.0413805 6.3352671 -0.56170148
1.1513695 7.0043874 -0.56162244
1.288691 7.839787 -0.56220335
1.4566284 8.8614388 -0.56049979
1.6801271 10.221099 -0.56011945
1.9848294 12.074764 -0.55974585
2.4225309 14.737534 -0.55883914
3.1057739 18.89406 -0.55713803
4.3325558 26.357222 -0.55507171
7.1458821 43.472168 -0.54925245
0.31530923 2.0774772 -0.56303245
0.32418206 2.1359377 -0.5596742
0.33914417 2.2345183 -0.56550306
0.34939399 2.3020513 -0.56207305
