# .PCD v0.7 - Point Cloud Data file format
VERSION 0.7
FIELDS x y z
SIZE 4 4 4
TYPE F F F
COUNT 1 1 1
WIDTH 1509
HEIGHT 1
VIEWPOINT 0 0 0 1 0 0 0
POINTS 1509
DATA ascii
33.43845 21.51598 -0.49573132
1.741082 1.1508143 -0.55922008
1.8038503 1.1923027 -0.56016195
1.8641337 1.2321486 -0.55910641
1.9236735 1.2715031 -0.55664146
2.0109713 1.3292049 -0.56074244
2.0791509 1.37427 -0.55796093
2.1687522 1.4334943 -0.55935878
2.2569931 1.4918195 -0.55863279
2.3508179 1.5538354 -0.55747825
2.4681344 1.631379 -0.55978918
2.5720851 1.7000879 -0.5568651
2.7081048 1.7899938 -0.55849528
2.847091 1.8818604 -0.5579958
3.0016451 1.9840169 -0.55762416
3.1772764 2.100105 -0.55787867
3.3627424 2.2226939 -0.55626422
3.5899575 2.3728776 -0.55744487
3.8259523 2.5288649 -0.55537498
4.1103587 2.7168508 -0.55515015
4.4431634 2.9368269 -0.55531305
4.8184891 3.1849084 -0.55373657
5.2788115 3.4891708 -0.55360383
5.818687 3.8460155 -0.55185062
6.4946804 4.2928314 -0.55089545
7.3352456 4.8484254 -0.54879242
8.4310007 5.5726938 -0.54649282
9.9049749 6.5469561 -0.54311013
12.035331 7.9550714 -0.53981167
15.259924 10.086452 -0.53224564
20.919218 13.827112 -0.52109528
33.20435 21.947294 -0.49622416
1.7304791 1.174632 -0.56041139
1.7753888 1.2051163 -0.55588335
1.8416184 1.2500721 -0.55692166
1.9296575 1.3098322 -0.56299102
1.9961019 1.354934 -0.56119955
2.0779192 1.4104708 -0.56224227
2.1525421 1.4611241 -0.55976951
2.2460849 1.5246199 -0.56053072
2.3403153 1.5885826 -0.5595777
2.4416649 1.6573777 -0.55836576
2.5627699 1.7395825 -0.55943716
2.6853247 1.8227715 -0.55837744
2.8280489 1.9196513 -0.55884778
2.9756467 2.0198393 -0.55736625
3.1467144 2.1359584 -0.55708206
3.345485 2.2708819 -0.55798644
3.5483692 2.4085975 -0.55554402
3.795074 2.5760584 -0.55544883
4.0707879 2.7632101 -0.55435282
4.4034905 2.9890454 -0.55490637
4.786294 3.2488885 -0.55458575
5.2292609 3.5495701 -0.55294287
5.7766647 3.9211421 -0.5523963
6.4351454 4.3681126 -0.55035996
7.2769465 4.9395185 -0.54893345
8.3669634 5.6794109 -0.54682732
9.8355303 6.6762595 -0.54376262
11.936911 8.1026554 -0.53982538
15.157474 10.288741 -0.5330447
20.757923 14.090271 -0.52135396
32.962627 22.374702 -0.49668592
1.7260776 1.2029092 -0.56373352
1.7683067 1.2323388 -0.55836827
1.8305726 1.2757322 -0.55828303
1.90064 1.3245623 -0.55923462
1.9838966 1.3825842 -0.5625053
2.0607798 1.4361643 -0.56234056
2.1380918 1.4900434 -0.56073409
2.2089458 1.5394216 -0.55594432
2.3177264 1.6152312 -0.55888331
2.424612 1.6897202 -0.55917525
2.5412903 1.7710335 -0.55945987
2.6442342 1.8427756 -0.55450308
2.7891672 1.9437798 -0.55584556
2.9438691 2.0515921 -0.55609727
3.1246154 2.1775548 -0.55786794
3.3228228 2.3156862 -0.55891365
3.5213745 2.4540575 -0.55600011
3.7618275 2.6216302 -0.55525905
4.0583549 2.8282812 -0.55735362
4.3619876 3.0398836 -0.55434483
4.7436538 3.3058681 -0.5543133
5.1840572 3.6127865 -0.55281866
5.7096653 3.9790847 -0.55062664
6.3780484 4.4448833 -0.55010962
7.2138114 5.0273294 -0.5487926
8.3030252 5.786406 -0.54725754
9.7513533 6.7957506 -0.54368764
11.841743 8.2525492 -0.54006982
15.034244 10.477414 -0.53320152
20.597469 14.354445 -0.52171773
32.713558 22.798187 -0.49711946
1.6954802 1.2128276 -0.55856901
1.7510633 1.2525878 -0.5577448
1.8197634 1.301731 -0.55982584
1.8833357 1.3472061 -0.5589751
1.956019 1.3991987 -0.55943704
2.0346825 1.455469 -0.56006056
2.114418 1.5125061 -0.55936074
2.2042665 1.5767775 -0.55960411
2.2908461 1.6387104 -0.55721837
2.4022539 1.7184037 -0.55884981
2.5079286 1.793996 -0.55692971
2.6485684 1.8945998 -0.56025505
2.7837055 1.9912674 -0.55959451
2.932718 2.0978606 -0.55882156
3.0933812 2.2127876 -0.55710721
3.2786355 2.3453057 -0.55628997
3.4956431 2.5005376 -0.55675006
3.7340245 2.6710591 -0.55596119
4.0242991 2.8787012 -0.55749577
4.3314714 3.0984304 -0.55526662
4.7098918 3.3691258 -0.5551672
5.1436133 3.6793799 -0.5532887
5.6770577 4.0609684 -0.55225599
6.3364792 4.5326724 -0.55128986
7.1549072 5.1181183 -0.54905772
8.2290554 5.8864884 -0.54711157
9.6778507 6.9228549 -0.5442946
11.732485 8.3925962 -0.53975272
14.900352 10.658666 -0.53306091
20.437082 14.619253 -0.52216905
32.471241 23.227646 -0.49773985
1.6736733 1.2286155 -0.55631989
1.7470232 1.2824606 -0.56143844
1.8000113 1.3213582 -0.55870563
1.8674293 1.3708485 -0.55921483
1.939319 1.4236217 -0.55962509
2.0092025 1.4749218 -0.55799699
2.0901647 1.5343549 -0.55789369
2.1925526 1.6095161 -0.56161231
2.2732582 1.6687608 -0.55788934
2.3726017 1.7416873 -0.55689186
2.4964001 1.8325655 -0.55933142
2.6214898 1.9243919 -0.55949032
2.7454932 2.0154207 -0.5568527
2.9039989 2.131777 -0.55830187
3.0726364 2.2555709 -0.55832404
3.2489767 2.3850195 -0.55619168
3.4640541 2.5429041 -0.55665696
3.7037504 2.7188613 -0.55638939
3.9760749 2.9187701 -0.55574512
4.2823386 3.1435931 -0.55388159
4.6681328 3.4267981 -0.55516982
5.101409 3.744859 -0.55366033
5.6314969 4.1339874 -0.5527271
6.289156 4.6167645 -0.55207002
7.090425 5.2049623 -0.5489794
8.1583471 5.9889064 -0.54726523
9.5958214 7.0441322 -0.5445115
11.637063 8.542573 -0.54015452
14.790051 10.857129 -0.53385067
20.275261 14.883731 -0.52267116
32.205154 23.641266 -0.49807954
1.6643283 1.2535362 -0.55829501
1.7250992 1.2993075 -0.5594849
1.7939897 1.3511943 -0.56195116
1.8525653 1.3953122 -0.55985934
1.9241917 1.4492596 -0.56035995
1.9976697 1.5046017 -0.55988997
2.0864656 1.5714809 -0.56202161
2.1570067 1.6246108 -0.5575822
2.2644734 1.7055526 -0.56083798
2.357203 1.7753943 -0.55835944
2.4642506 1.8560203 -0.55719954
2.593899 1.9536688 -0.55868667
2.7289934 2.055419 -0.55859017
2.8791137 2.1684864 -0.55860174
3.0372052 2.2875574 -0.55695504
3.2304437 2.4331005 -0.55809855
3.4241161 2.5789704 -0.55529314
3.6678402 2.7625382 -0.55605578
3.9450231 2.9713063 -0.55646968
4.247252 3.1989386 -0.5543893
4.6244659 3.483048 -0.55502826
5.0512309 3.8044782 -0.5532499
5.5763931 4.2000189 -0.55234593
6.2229238 4.6869717 -0.55127347
7.0397096 5.3021569 -0.55005914
8.0883789 6.0919924 -0.54755533
9.5137768 7.1655717 -0.54481459
11.529591 8.6838388 -0.54008156
14.657858 11.039983 -0.53393883
20.087448 15.129433 -0.52258593
31.954084 24.067125 -0.49873579
1.6574693 1.2806114 -0.56123406
1.7116246 1.3224535 -0.56034642
1.7691536 1.3669021 -0.55939418
1.8339016 1.4169284 -0.55944216
1.9012241 1.4689438 -0.55888939
1.9855013 1.534059 -0.56172395
2.0577681 1.5898944 -0.5595153
2.1541421 1.6643561 -0.56208962
2.2362783 1.7278169 -0.55907464
2.3364058 1.8051784 -0.55864888
2.4413996 1.8862998 -0.55723518
2.5716987 1.9869729 -0.55912524
2.6988785 2.0852361 -0.55763227
2.8555005 2.2062469 -0.55924159
3.0113459 2.3266578 -0.55741727
3.1953406 2.4688177 -0.55723661
3.4085395 2.6335418 -0.55797654
3.6170857 2.7946708 -0.55352914
3.9098246 3.0208499 -0.55670226
4.2118092 3.2541723 -0.5549441
4.569591 3.5306056 -0.55361086
5.0101385 3.870986 -0.55392069
5.5376558 4.2785621 -0.55367827
6.1757765 4.7715936 -0.55225289
6.9731798 5.387692 -0.54999572
8.0144577 6.192215 -0.54766434
9.4189711 7.2773843 -0.5444687
11.421645 8.8247118 -0.54006732
14.528339 11.225039 -0.53420842
19.920984 15.391562 -0.52313948
31.6775 24.475004 -0.49907848
1.6374761 1.2976276 -0.55982476
1.7021997 1.3489181 -0.56264853
1.7688942 1.4017705 -0.56471962
1.8210597 1.4431094 -0.5608955
1.891421 1.4988676 -0.56138313
1.9554454 1.5496042 -0.55856937
2.0322773 1.6104901 -0.55792671
2.1154871 1.6764302 -0.55734003
2.2197483 1.7590525 -0.56030732
2.3221102 1.8401699 -0.56059873
2.4255285 1.9221244 -0.55896509
2.5405135 2.0132446 -0.5576852
2.6804373 2.1241283 -0.55917645
2.8316917 2.2439907 -0.55994046
2.9858565 2.3661594 -0.55804259
3.1652784 2.5083435 -0.55733079
3.3738015 2.6735888 -0.55762953
3.6043072 2.8562543 -0.55690634
3.8661911 3.0637858 -0.55581164
4.1712613 3.3055403 -0.55491513
4.5394139 3.597285 -0.55527186
4.9608679 3.9312687 -0.55377603
5.4768319 4.3401475 -0.55289108
6.107337 4.8397946 -0.55141288
6.901279 5.4689589 -0.54958725
7.9404922 6.2924895 -0.54785591
9.3342819 7.3970065 -0.54478991
11.320257 8.9708042 -0.54044831
14.387978 11.401837 -0.53416216
19.749054 15.650252 -0.52363855
31.427107 24.904594 -0.49992052
1.6217549 1.3179537 -0.55994827
1.6689489 1.3563069 -0.55712837
1.747519 1.4201586 -0.56342804
1.8114892 1.4721454 -0.56348073
1.8705509 1.520143 -0.5606944
1.9404957 1.5769852 -0.55979574
2.0153286 1.6377999 -0.55876034
2.1059141 1.711416 -0.56031984
2.203994 1.7911228 -0.56184757
2.2984064 1.867849 -0.56037873
2.3989663 1.9495713 -0.55832613
2.5172522 2.0456986 -0.55805874
2.6472623 2.1513541 -0.55773216
2.7922814 2.269207 -0.55762285
2.9523678 2.3993046 -0.55725551
3.1341615 2.5470431 -0.55732435
3.3331826 2.708782 -0.55637914
3.5748224 2.9051557 -0.55782807
3.822336 3.1063027 -0.5549562
4.1339741 3.3595622 -0.55540842
4.497848 3.655272 -0.55564344
4.9157071 3.9948545 -0.55417645
5.4149671 4.4005885 -0.55206668
6.0329018 4.9027662 -0.55009389
6.8358335 5.5552859 -0.54977381
7.8537812 6.3825426 -0.54724681
9.2386065 7.5079508 -0.54455298
11.223677 9.1211605 -0.54115111
14.251698 11.581946 -0.53434962
19.575102 15.908124 -0.52417326
31.147293 25.312511 -0.50038284
1.6031977 1.3359365 -0.5591706
1.6686158 1.390449 -0.56268215
1.7144752 1.4286634 -0.55839598
1.7785451 1.4820527 -0.55885965
1.852633 1.5437896 -0.56097132
1.9156153 1.5962725 -0.55823851
2.0074019 1.6727577 -0.56222296
2.0767207 1.7305208 -0.55817199
2.1644969 1.8036643 -0.55739063
2.2789497 1.8990371 -0.56128585
2.3774195 1.9810915 -0.55893868
2.4940131 2.0782483 -0.55852991
2.6218677 2.1847889 -0.55799985
2.7637413 2.3030117 -0.55753654
2.9302437 2.4417572 -0.55870461
3.0956764 2.5796113 -0.55607933
3.2986319 2.748733 -0.55621171
3.5327036 2.943784 -0.55686206
3.7824605 3.1519051 -0.55475193
4.0944057 3.4118471 -0.55568683
4.4408364 3.7005265 -0.55417991
4.8660436 4.0548491 -0.55415666
5.3658543 4.4713392 -0.55262321
5.9835696 4.9860783 -0.55114448
6.7721601 5.6432061 -0.55019206
7.7882156 6.4898806 -0.54819739
9.1638594 7.6361971 -0.54564053
11.108361 9.2565413 -0.54103827
14.126944 11.77191 -0.53505898
19.375246 16.145294 -0.52409816
30.871021 25.724665 -0.50098836
1.5891516 1.3576846 -0.56005204
1.6392205 1.4004606 -0.55853444
1.6981311 1.4507906 -0.55884087
1.7473888 1.4928738 -0.55479592
1.8229777 1.5574528 -0.5577485
1.8994292 1.6227688 -0.55929434
1.986239 1.6969343 -0.56209743
2.0588806 1.7589953 -0.55914813
2.151257 1.8379169 -0.55975866
2.245626 1.9185405 -0.55884659
2.3579934 2.0145409 -0.56015313
2.4705017 2.110662 -0.55903459
2.6027715 2.2236662 -0.55971271
2.7562134 2.3547585 -0.56181669
2.8989453 2.4767008 -0.55850148
3.0683336 2.621417 -0.55691588
3.2662265 2.7904859 -0.55649137
3.5046349 2.994169 -0.55819899
3.7547221 3.20783 -0.55642682
4.0455108 3.456264 -0.55477703
4.4053493 3.7636905 -0.55548477
4.830894 4.1272526 -0.55589134
5.3261046 4.5503335 -0.55425012
5.9332232 5.0690227 -0.55220664
6.7054491 5.7287703 -0.55045372
7.695673 6.5747638 -0.54733276
9.0607643 7.7410231 -0.54512846
10.995076 9.3935938 -0.54110563
13.983712 11.946921 -0.53515768
19.204651 16.407408 -0.52490127
30.581381 26.127066 -0.50146377
1.5736614 1.3782805 -0.56052345
1.6227813 1.4213018 -0.55884588
1.679561 1.4710319 -0.55864012
1.7502874 1.5329771 -0.56165868
1.810114 1.5853759 -0.55973494
1.8825136 1.6487865 -0.56024092
1.9647393 1.7208034 -0.56195873
2.0376925 1.7846991 -0.55931163
2.1265907 1.8625599 -0.55925751
2.2280133 1.9513899 -0.56039256
2.3160114 2.0284626 -0.55606341
2.4436803 2.1402805 -0.55887848
2.5716257 2.2523406 -0.55892849
2.7026587 2.3671048 -0.55679125
2.877562 2.5202928 -0.56031007
3.0353458 2.6584866 -0.55681974
3.2308805 2.8297443 -0.5563556
3.4551997 3.0262127 -0.55621004
3.7138655 3.2527633 -0.55625743
4.0173159 3.5185382 -0.55680162
4.3580256 3.8169465 -0.55539376
4.7609057 4.1698065 -0.55369604
5.258244 4.6053967 -0.55303961
5.8661842 5.137857 -0.55180556
6.6309443 5.8076668 -0.55015844
7.6185975 6.6726961 -0.54764521
8.9804716 7.8654838 -0.5460754
10.894362 9.5417519 -0.5418824
13.846612 12.12746 -0.53557736
19.014362 16.653597 -0.52525765
30.293739 26.532562 -0.50205898
1.5550154 1.3961065 -0.55995435
1.6084772 1.4441049 -0.55999273
1.666939 1.4965925 -0.56052053
1.729269 1.5525528 -0.56099778
1.7884691 1.6057032 -0.55910498
1.8416402 1.6534407 -0.55408573
1.9321307 1.7346839 -0.55869073
2.0211036 1.8145645 -0.56084025
2.1016772 1.8869042 -0.55876523
2.20175 1.9767505 -0.55985826
2.3115396 2.0753207 -0.56107438
2.4134181 2.1667879 -0.55800873
2.5446563 2.2846146 -0.55913037
2.6853147 2.4108992 -0.55928326
2.8373506 2.5473983 -0.5585373
2.9989243 2.6924605 -0.55616981
3.2114799 2.8832948 -0.55907774
3.4227118 3.0729406 -0.5570209
3.6695499 3.294554 -0.55564564
3.961293 3.5564835 -0.55505615
4.2985687 3.8592925 -0.55382246
4.7124867 4.2309117 -0.55407357
5.2046247 4.6727576 -0.55340159
5.7977118 5.2052364 -0.55134374
6.5593429 5.8890352 -0.55018425
7.5551276 6.7830596 -0.54903686
8.8810797 7.9735112 -0.54595226
10.774265 9.6732292 -0.54178417
13.704751 12.304246 -0.5359019
18.816368 16.893499 -0.52548689
30.00359 26.937487 -0.50270194
1.5464587 1.4231516 -0.56313217
1.5932825 1.4662418 -0.56093729
1.643629 1.5125738 -0.55889422
1.7092912 1.5730007 -0.56074923
1.7759744 1.6343668 -0.56143916
1.8383927 1.6918082 -0.5593254
1.9090257 1.7568092 -0.55821407
1.9955167 1.8364038 -0.55996388
2.0701783 1.9051124 -0.55657691
2.1666887 1.9939274 -0.55713522
2.2743061 2.0929637 -0.55824137
2.3927929 2.2020032 -0.55945814
2.5059083 2.3060994 -0.55680507
2.651933 2.4404807 -0.55853868
2.7984331 2.5752995 -0.55706793
2.9696484 2.7328629 -0.55693042
3.1627135 2.9105339 -0.55677652
3.3876297 3.1175165 -0.55750805
3.6298172 3.3403933 -0.55580693
3.9136605 3.6016042 -0.55454546
4.2670102 3.9267795 -0.5559355
4.6600184 4.2884512 -0.55406278
5.150146 4.7394981 -0.55376381
5.7428198 5.2849154 -0.55226189
6.4878616 5.970551 -0.55030501
7.4691629 6.8736081 -0.54889047
8.7804308 8.0803213 -0.54583174
10.656222 9.8065472 -0.54187107
13.552786 12.472153 -0.53591609
18.614937 17.130672 -0.5257045
29.708992 27.340139 -0.50336069
1.5191748 1.4329388 -0.55957079
1.5681268 1.479112 -0.558442
1.628634 1.5361845 -0.56017625
1.6917374 1.5957059 -0.5613851
1.7515264 1.6521009 -0.56009024
1.8308783 1.7269484 -0.56345731
1.8934937 1.7860094 -0.5600518
1.9691876 1.8574066 -0.55894244
2.0526507 1.9361318 -0.55822307
2.1551619 2.032824 -0.56055641
2.2465897 2.1190619 -0.55779189
2.3696616 2.2351477 -0.56043357
2.4874728 2.3462715 -0.55907708
2.6204746 2.4717233 -0.55827218
2.7649322 2.6079807 -0.55674082
2.9415751 2.7745965 -0.55802184
3.1277933 2.9502439 -0.55697334
3.3407345 3.1510975 -0.55612504
3.5891607 3.3854218 -0.55591375
3.8730378 3.6531847 -0.5551126
4.2116456 3.9725716 -0.55504465
4.6063261 4.3448477 -0.55398923
5.0836058 4.7950344 -0.55290711
5.6811309 5.3586411 -0.55262434
6.4165459 6.0523105 -0.55052686
7.3651295 6.9470477 -0.54748154
8.6812019 8.1884136 -0.54588121
10.550966 9.9520407 -0.54270059
13.413625 12.6522 -0.53652465
18.418768 17.373226 -0.52615786
29.399096 27.730255 -0.50384933
1.5088804 1.4587013 -0.5623433
1.5558275 1.5040872 -0.560606
1.6154771 1.5617532 -0.56221372
1.66808 1.6126066 -0.56007248
1.7278558 1.6703945 -0.55904686
1.7993926 1.7395524 -0.5603081
1.8561774 1.7944487 -0.55549896
1.9518255 1.886916 -0.56055784
2.0341761 1.9665278 -0.55973268
2.1253002 2.0546217 -0.55931848
2.2228291 2.1489069 -0.55841094
2.3435521 2.2656155 -0.56080496
2.4511812 2.3696651 -0.55742723
2.593792 2.5075333 -0.55911428
2.7499139 2.6584632 -0.56025672
2.9096961 2.8129318 -0.55849373
3.105396 3.0021236 -0.55951637
3.3071444 3.1971626 -0.5570358
3.5520921 3.4339645 -0.55667043
3.8192551 3.6922426 -0.55386949
4.1752863 4.0364342 -0.55675197
4.5597305 4.408093 -0.55486232
5.035079 4.8676333 -0.55409735
5.6094737 5.4229264 -0.55209869
6.3546381 6.1433096 -0.55165488
7.3038893 7.0609927 -0.54934186
8.5816469 8.296257 -0.54599458
10.422904 10.076283 -0.5424456
13.263447 12.82236 -0.5367837
18.224874 17.618792 -0.52676809
29.093704 28.126169 -0.50450462
1.4952803 1.4815522 -0.56402171
1.540836 1.5266896 -0.56192601
1.5921803 1.5775626 -0.56081462
1.6484538 1.6333194 -0.56018388
1.7141467 1.6984092 -0.56132603
1.7800503 1.7637078 -0.56099594
1.8501039 1.8331182 -0.56038475
1.9208308 1.9031957 -0.55833519
2.0109198 1.9924576 -0.56003267
2.0952201 2.075984 -0.55807805
2.2084632 2.1881874 -0.56151903
2.3107164 2.2895019 -0.55964202
2.4322782 2.4099476 -0.55982524
2.5636516 2.5401149 -0.55930781
2.6914072 2.6666975 -0.55497557
2.8779063 2.8514845 -0.55907983
3.0619006 3.0337894 -0.55835879
3.2770357 3.2469494 -0.5586471
3.5113704 3.4791327 -0.55695105
3.7880688 3.7532909 -0.55599779
4.1155181 4.0777335 -0.5554263
4.5019274 4.4605956 -0.55446106
4.9776673 4.9319677 -0.55441135
5.554275 5.5032816 -0.55328441
6.2810283 6.2233624 -0.55186623
7.2143416 7.1481071 -0.54917616
8.4831038 8.405221 -0.5462594
10.304417 10.209812 -0.54277188
13.117297 12.996868 -0.53729618
18.01438 17.848991 -0.52698791
28.791813 28.527477 -0.50531435
1.4647567 1.4874426 -0.55936497
1.51577 1.5392458 -0.559645
1.5737079 1.5980812 -0.56118727
1.6299406 1.6551849 -0.5607667
1.6910921 1.7172835 -0.56064904
1.7491902 1.7762812 -0.55811161
1.8284736 1.8567926 -0.56070638
1.901966 1.9314232 -0.55971277
1.9832804 2.0139971 -0.55918992
2.065377 2.0973651 -0.55695647
2.1763952 2.2101028 -0.56023294
2.2823186 2.3176668 -0.55962425
2.3985298 2.4356778 -0.55890876
2.5270002 2.5661378 -0.55815363
2.6776958 2.7191672 -0.55900055
2.843184 2.8872187 -0.55918914
3.0197747 3.0665443 -0.55751091
3.2233624 3.2732854 -0.55631673
3.4544463 3.5079482 -0.55472207
3.7388031 3.7967091 -0.55557722
4.0696988 4.1327295 -0.55605894
4.4380708 4.5068069 -0.55337989
4.9104781 4.9865303 -0.55371535
5.4821029 5.5670085 -0.5528723
6.207375 6.3035135 -0.55216348
7.1333036 7.243783 -0.54974622
8.3810244 8.510828 -0.5463838
10.181462 10.33915 -0.54295099
12.957039 13.157715 -0.53731841
17.811888 18.087755 -0.52753085
28.465496 28.906363 -0.50578731
1.4451329 1.504066 -0.55889153
1.4991395 1.5602751 -0.56054616
1.5611852 1.624851 -0.56380391
1.6085535 1.6741511 -0.56044877
1.6740179 1.742285 -0.56204855
1.7308723 1.8014579 -0.5592925
1.8064225 1.8800892 -0.56099123
1.8704981 1.9467778 -0.55745488
1.9632832 2.0433466 -0.56059361
2.0543942 2.1381731 -0.56104237
2.1316805 2.2186112 -0.55570328
2.2577715 2.3498442 -0.5606479
2.3714173 2.4681246 -0.55962068
2.5013556 2.6033618 -0.5595178
2.6305172 2.7377908 -0.55613744
2.8017888 2.9160469 -0.55805773
2.9847102 3.1064279 -0.55804729
3.1883848 3.3184085 -0.5572803
3.4285414 3.5683589 -0.55756611
3.695883 3.8466024 -0.5561859
4.0207214 4.1846881 -0.55635566
4.3851962 4.5640264 -0.55374289
4.8498416 5.0476203 -0.55383492
5.4106302 5.631278 -0.55260587
6.1147108 6.3640714 -0.55084014
7.0338001 7.3206415 -0.54897374
8.2860556 8.6239643 -0.54706454
10.060622 10.470899 -0.54333204
12.805898 13.328127 -0.53780639
17.607233 18.325264 -0.52810347
28.154579 29.302734 -0.50662684
1.4235042 1.5184929 -0.55770594
1.4789525 1.5776412 -0.56020927
1.5297633 1.6318426 -0.55966049
1.5892421 1.6952903 -0.56094104
1.6322173 1.7411332 -0.5551604
1.7125347 1.82681 -0.56058329
1.7805163 1.8993279 -0.56015664
1.8608063 1.9849757 -0.56179827
1.9393014 2.0687087 -0.56096691
2.0278435 2.1631591 -0.56101322
2.1148474 2.2559686 -0.55850452
2.2159197 2.3637853 -0.55743086
2.3499224 2.5067298 -0.56177974
2.4646735 2.6291382 -0.55850184
2.6245389 2.7996714 -0.56210935
2.7647769 2.9492671 -0.55786687
2.9508123 3.1477163 -0.55890393
3.1452794 3.3551602 -0.55691504
3.3874326 3.6134717 -0.55806446
3.6394312 3.8822861 -0.5548327
3.9625812 4.2269998 -0.55546087
4.3363686 4.6257291 -0.55471778
4.7902493 5.1098971 -0.55416322
5.3401675 5.6965103 -0.55252165
6.0493555 6.4530215 -0.55205905
6.9491992 7.4129109 -0.54944348
8.1803904 8.7262583 -0.54713124
9.9344854 10.597402 -0.5435164
12.642661 13.486291 -0.53787482
17.388348 18.548651 -0.52833939
27.82645 29.683275 -0.50725198
1.4220212 1.554791 -0.56457251
1.4519411 1.5875045 -0.55732977
1.5058239 1.646418 -0.5582667
1.5626698 1.7085716 -0.55893528
1.6264693 1.7783278 -0.56060058
1.6807485 1.8376747 -0.55753309
1.7576293 1.9217337 -0.56034815
1.8282514 1.9989496 -0.55934823
1.9082309 2.0863967 -0.55935824
1.9934834 2.1796091 -0.55887985
2.0906169 2.2858114 -0.55948603
2.2028043 2.4084735 -0.56153923
2.3091938 2.5247962 -0.55942273
2.432663 2.6597931 -0.55861723
2.5753911 2.8158476 -0.55895668
2.7283919 2.9831336 -0.55788463
2.8988996 3.1695611 -0.55641133
3.1079276 3.3981054 -0.55765778
3.3382721 3.6499565 -0.55731744
3.6055508 3.9421902 -0.55701554
3.9045992 4.2691598 -0.55464983
4.287735 4.6880674 -0.55582869
4.730401 5.1720643 -0.55455506
5.2715545 5.7637434 -0.55271375
5.961884 6.5185275 -0.5513497
6.8576345 7.497911 -0.54945201
8.0645447 8.8175058 -0.54659355
9.8133421 10.729584 -0.54406571
12.486535 13.652365 -0.53833401
17.183676 18.788063 -0.52910018
27.484966 30.051155 -0.5077247
1.393875 1.5621592 -0.56098193
1.4544901 1.6300924 -0.56595951
1.497559 1.6783611 -0.56281132
1.5552537 1.7430212 -0.56390625
1.6049962 1.7987694 -0.5607807
1.6705793 1.8722702 -0.56175423
1.7327569 1.9419546 -0.55998921
1.8139209 2.0329177 -0.56256932
1.885982 2.1136789 -0.56041276
1.9736106 2.2118871 -0.56089121
2.0624812 2.311487 -0.55952066
2.1662729 2.4278097 -0.5597946
2.2743769 2.548965 -0.55853897
2.4070365 2.6976409 -0.56030744
2.5429964 2.8500154 -0.55948961
2.6884606 3.0130415 -0.5572533
2.8631768 3.2088516 -0.55708605
3.0671394 3.4374387 -0.55788118
3.2855499 3.6822181 -0.5560326
3.5505159 3.9791737 -0.55603033
3.8562272 4.321794 -0.55528557
4.2314553 4.7423239 -0.55605042
4.661037 5.2237697 -0.55391181
5.198657 5.8262973 -0.55254048
5.8907795 6.6019802 -0.55223978
6.7766218 7.5947709 -0.55040205
7.9744248 8.9371862 -0.54789251
9.6759243 10.84411 -0.54379874
12.323351 13.811164 -0.53857976
16.954807 19.001781 -0.52920753
27.158258 30.437107 -0.50856489
1.374185 1.5787462 -0.56082797
1.4248707 1.6369772 -0.56222421
1.476666 1.6964827 -0.56275666
1.5203398 1.7466578 -0.55899227
1.5754765 1.8100022 -0.55820078
1.6348618 1.8782276 -0.55746782
1.7131945 1.9682208 -0.56144625
1.7725314 2.0363905 -0.55745667
1.8553481 2.1315355 -0.55905604
1.9475261 2.2374351 -0.56125456
2.0389273 2.3424425 -0.56090254
2.1414025 2.4601719 -0.56114268
2.2425449 2.5763705 -0.55845952
2.3648312 2.7168603 -0.55821741
2.5051062 2.8780167 -0.55889714
2.6533525 3.0483308 -0.55770355
2.8336136 3.2554257 -0.5590803
3.0247571 3.4750228 -0.55790234
3.2429719 3.7257211 -0.55653805
3.5125234 4.035398 -0.55780929
3.8055298 4.3720217 -0.55568463
4.1658726 4.786005 -0.55512381
4.605001 5.2905021 -0.55494159
5.133635 5.8978286 -0.55329579
5.8058772 6.6701407 -0.55192775
6.6816835 7.6763196 -0.55031604
7.8695107 9.040967 -0.54828101
9.5509319 10.972685 -0.54431581
12.157344 13.967088 -0.53878987
16.729216 19.219528 -0.52950275
26.818407 30.810598 -0.5092569
1.3634192 1.6058286 -0.56445032
1.4049494 1.6547427 -0.5623498
1.4474829 1.7048384 -0.55958188
1.5055832 1.7732686 -0.56154132
1.5538703 1.8301409 -0.55847675
1.6246127 1.913461 -0.56195354
1.6875595 1.9875995 -0.56101239
1.7542329 2.0661271 -0.55964971
1.8273686 2.152266 -0.55855751
1.9123387 2.2523434 -0.55905336
2.0090921 2.3662992 -0.56065708
2.098227 2.4712818 -0.55774963
2.217124 2.6113181 -0.56008297
2.3412194 2.757477 -0.56060523
2.4670389 2.9056666 -0.55833334
2.6194329 3.0851555 -0.55850565
2.7868924 3.2823884 -0.55778342
2.9781966 3.5077059 -0.55722797
3.1918778 3.7593784 -0.55566078
3.4539351 4.0680285 -0.55640692
3.7542009 4.42168 -0.55608678
4.1070414 4.8372536 -0.55516845
4.5329432 5.3388791 -0.5541274
5.0589266 5.9583797 -0.55309862
5.7342029 6.7537169 -0.55296707
6.584836 7.7555881 -0.55015248
7.74474 9.1217175 -0.54736137
9.4281797 11.104465 -0.54506075
11.992981 14.125276 -0.53916252
16.521864 19.459372 -0.53047329
26.477348 31.184895 -0.51002353
1.3353932 1.6125952 -0.56101447
1.3803698 1.6669079 -0.56067336
1.4373883 1.7357625 -0.56388807
1.48984 1.7991022 -0.56387806
1.5402839 1.8600172 -0.56177151
1.5878941 1.9175103 -0.55736625
1.6599082 2.0044732 -0.55997157
1.739279 2.1003199 -0.56307584
1.8053735 2.1801343 -0.55998629
1.8953558 2.2887952 -0.56227374
1.9699494 2.3788729 -0.55785471
2.0717387 2.5017917 -0.55884373
2.1884971 2.642787 -0.56101817
2.296984 2.7737937 -0.55813801
2.4343128 2.9396293 -0.55906534
2.5844307 3.120909 -0.55918276
2.7435153 3.3130162 -0.55721313
2.93803 3.5479085 -0.55783319
3.1557631 3.8108387 -0.55748928
3.4027877 4.1091409 -0.55626512
3.7024105 4.4709597 -0.55651677
4.0485544 4.8889565 -0.55534679
4.4786539 5.4083362 -0.55557853
4.9918323 6.0280404 -0.55382526
5.6457553 6.8177056 -0.5524804
6.4857054 7.8320127 -0.5498749
7.651505 9.23981 -0.54876041
9.2845535 11.211847 -0.54468656
11.82838 14.283724 -0.53961796
16.297495 19.68054 -0.53099924
26.126017 31.549276 -0.51069021
1.3163589 1.6300001 -0.56139594
1.354176 1.6768277 -0.55836684
1.4129795 1.7496419 -0.56271005
1.4597502 1.8075564 -0.56085956
1.5172893 1.8788049 -0.56176841
1.5660964 1.9392412 -0.558043
1.6352876 2.0249181 -0.56002331
1.698917 2.103708 -0.55834132
1.7841458 2.209244 -0.56178576
1.8610569 2.3044801 -0.56046271
1.941093 2.4035859 -0.55801052
2.0437567 2.5307107 -0.55964756
2.1486559 2.6606038 -0.55914938
2.2701607 2.8110588 -0.55997705
2.401612 2.97383 -0.55991101
2.5406756 3.1460276 -0.5580436
2.7068105 3.3517466 -0.55808693
2.8828979 3.5697892 -0.55565774
3.1050975 3.8449309 -0.55684888
3.3588209 4.1591077 -0.55739594
3.648155 4.5173798 -0.55666894
3.9865661 4.9364219 -0.55512816
4.4034529 5.4526381 -0.55452526
4.914484 6.0854292 -0.55350393
5.5642228 6.8899779 -0.55275077
6.4054012 7.9315786 -0.55129373
7.5375695 9.3335028 -0.54877871
9.1464376 11.325706 -0.54471284
11.664924 14.444258 -0.540223
16.0555 19.880951 -0.53103966
25.759066 31.896528 -0.51114535
1.2983923 1.6488239 -0.56233776
1.3422533 1.7045227 -0.56205052
1.389649 1.7647104 -0.56201816
1.4432204 1.8327404 -0.56312472
1.4882383 1.8899087 -0.55957437
1.5489974 1.9670663 -0.56052661
1.6234304 2.0615885 -0.56460148
1.6794386 2.1327131 -0.56051618
1.7488854 2.2209034 -0.5592398
1.8463124 2.3446255 -0.5646621
1.9141986 2.4308341 -0.55882967
2.0221288 2.5678942 -0.56232923
2.1213191 2.6938555 -0.56061321
2.2339277 2.8368571 -0.5596019
2.3637094 3.0016663 -0.55963731
2.5125041 3.1906199 -0.56043088
2.6745634 3.3964186 -0.56000674
2.8491905 3.6181769 -0.55769402
3.0687907 3.8970463 -0.55888927
3.3047707 4.1967168 -0.55694807
3.5905206 4.5595894 -0.55638766
3.9322877 4.9935985 -0.55607831
4.3359623 5.5062232 -0.55451059
4.8386302 6.1445589 -0.55342859
5.4738417 6.9512124 -0.55222172
6.3064981 8.0086002 -0.55121541
7.4173765 9.4193001 -0.54841918
9.0154619 11.448704 -0.54525548
11.494526 14.596858 -0.54060316
15.820085 20.089869 -0.53138375
25.40048 32.255978 -0.51186168
1.2735878 1.6588893 -0.56038713
1.3136035 1.7110109 -0.5588215
1.3654281 1.7785141 -0.56102467
1.4155478 1.8437968 -0.56113124
1.4616174 1.9038038 -0.55832487
1.5202807 1.9802147 -0.55890411
1.5844022 2.063735 -0.55981135
1.6577196 2.1592333 -0.56208634
1.7237923 2.245295 -0.56000209
1.8014617 2.346462 -0.55972725
1.8902702 2.4621379 -0.56064028
1.9824592 2.582217 -0.56008512
2.0757203 2.7036927 -0.55730653
2.195343 2.8595052 -0.55870223
2.3337386 3.0397699 -0.56134874
2.4654214 3.2112911 -0.55869454
2.618577 3.4107811 -0.5570237
2.8066099 3.6557 -0.55811608
3.0150414 3.9271886 -0.55785292
3.2572935 4.2427297 -0.55769682
3.525208 4.5916972 -0.55497414
3.8689587 5.0394435 -0.55584377
4.2751598 5.5685339 -0.5554496
4.7582126 6.1977258 -0.55290562
5.3871551 7.0169435 -0.55213928
6.2051044 8.0823488 -0.55099809
7.3092189 9.5204935 -0.5490365
8.8759232 11.561176 -0.54537284
11.32134 14.746411 -0.54094523
15.582332 20.29649 -0.53174067
25.057396 32.638065 -0.51299673
1.2478987 1.6674803 -0.55806351
1.2943879 1.7296008 -0.55965233
1.3389693 1.7891718 -0.55915064
1.3858883 1.8518664 -0.55835855
1.4453816 1.9313631 -0.5611524
1.4916365 1.9931703 -0.55734169
1.566438 2.0931222 -0.56251556
1.6211302 2.1662037 -0.55866945
1.6938299 2.2633474 -0.5592674
1.7700552 2.365202 -0.55896324
1.8572506 2.481715 -0.55985546
1.9468009 2.6013749 -0.55900586
2.0445917 2.7320461 -0.55792648
2.1615372 2.8883121 -0.55909514
2.2839177 3.0518405 -0.55834931
2.4327106 3.2506623 -0.56029755
2.5818369 3.4499295 -0.55819017
2.7542157 3.6802673 -0.55665416
2.9607155 3.9561985 -0.55676019
3.2031951 4.2802072 -0.55740356
3.4756658 4.6442909 -0.55612326
3.8153732 5.0982184 -0.55710965
4.2038875 5.617363 -0.55512196
4.6944246 6.2728338 -0.55441445
5.3104072 7.0959287 -0.55317438
6.1018405 8.1534662 -0.5506897
7.1929092 9.6113853 -0.54913592
8.7401533 11.678861 -0.54581326
11.145363 14.892775 -0.54124606
15.352754 20.514818 -0.5324744
24.684074 32.983612 -0.51361835
1.2302394 1.6867255 -0.55939925
1.2723333 1.7444385 -0.55934876
1.3193749 1.8089352 -0.56021452
1.3667902 1.8739442 -0.55990553
1.4170666 1.9428759 -0.55939233
1.4762892 2.0240734 -0.56086451
1.5400696 2.1115196 -0.56232792
1.605031 2.2005854 -0.56240398
1.6705346 2.2903943 -0.5608325
1.7477771 2.3962979 -0.56119066
1.8299828 2.5090065 -0.56089348
1.9244194 2.6384842 -0.56185275
2.0197296 2.7691598 -0.56039149
2.1272106 2.9165223 -0.55945027
2.2511997 3.0865178 -0.55958688
2.3850386 3.2700186 -0.55853665
2.5352454 3.4759603 -0.55731583
2.7120736 3.7184012 -0.55733579
2.9251981 4.0106068 -0.55931276
3.1482689 4.3164492 -0.55703968
3.4285502 4.7007298 -0.55779105
3.7450507 5.1346693 -0.55601859
4.1478944 5.6869898 -0.55692017
4.6204281 6.3348594 -0.55483305
5.2200031 7.1569099 -0.55288261
6.017993 8.2509975 -0.55223727
7.0751195 9.7003756 -0.54920822
8.5928631 11.781286 -0.54562074
10.968836 15.038875 -0.54161292
15.109156 20.715479 -0.53282011
24.310371 33.330849 -0.51433164
1.2072159 1.6986412 -0.55838573
1.2517333 1.7612805 -0.55977142
1.3079463 1.8403764 -0.56492811
1.3483866 1.8972787 -0.56188107
1.3960334 1.9643213 -0.56058204
1.4576765 2.0510576 -0.56333244
1.5125545 2.1282749 -0.5617944
1.5781097 2.220516 -0.56249571
1.6501161 2.3218341 -0.5635199
1.717599 2.4167876 -0.56100053
1.7922302 2.5217991 -0.55878443
1.886029 2.6537809 -0.56012917
1.9835154 2.7909513 -0.55982327
2.0962715 2.9496074 -0.56080979
2.2071443 3.1056135 -0.55808622
2.3417823 3.2950592 -0.5578531
2.5011215 3.5192614 -0.5592851
2.6791222 3.769721 -0.56004775
2.8661399 4.0328684 -0.55746025
3.0868902 4.3434806 -0.55558765
3.368377 4.739553 -0.55744082
3.6792841 5.177022 -0.5556637
4.0657921 5.7208672 -0.55529982
4.5360847 6.3826036 -0.55408758
5.1327901 7.2222114 -0.55300969
5.9129219 8.3199139 -0.55194181
6.9625793 9.7968588 -0.54978198
8.4514084 11.891751 -0.54588252
10.785397 15.175842 -0.5417285
14.87101 20.924599 -0.53345519
23.935556 33.679081 -0.51512462
1.1917454 1.7213094 -0.5609777
1.2361196 1.7854018 -0.56256431
1.2736162 1.8395605 -0.55982798
1.318422 1.904276 -0.55910993
1.3642291 1.9704379 -0.55749816
1.4256599 2.0591662 -0.5607022
1.4883842 2.1497629 -0.56259286
1.5495396 2.2380931 -0.56207913
1.6152176 2.3329556 -0.56135625
1.6832101 2.4311614 -0.55949032
1.766317 2.5511978 -0.56044358
1.8581944 2.6839018 -0.56162155
1.9452012 2.809571 -0.55871803
2.0580354 2.972544 -0.5603168
2.1708016 3.1354191 -0.55860329
2.2993371 3.3210707 -0.55742794
2.462919 3.5573418 -0.56048155
2.6210439 3.7857311 -0.55759597
2.824106 4.0790257 -0.55899805
3.0382626 4.3883452 -0.5565055
3.3118098 4.7834458 -0.55777138
3.6204307 5.2292056 -0.55644435
4.0005426 5.778224 -0.55605024
4.4627976 6.4458871 -0.55477542
5.0491576 7.2928014 -0.55361891
5.8194251 8.405345 -0.55282027
6.8399043 9.8792849 -0.54964608
8.3184948 12.014902 -0.54679888
10.605112 15.3176 -0.54209274
14.623784 21.122009 -0.53386331
23.551077 34.016235 -0.51581299
1.1775552 1.7463089 -0.56436342
1.2156571 1.8028139 -0.56329805
1.2589582 1.8670291 -0.56343365
1.2987924 1.926103 -0.56078702
1.3442477 1.9935131 -0.55930781
1.4046824 2.0831375 -0.56248373
1.4571176 2.1608984 -0.5607757
1.5213988 2.2562273 -0.56189263
1.5822358 2.3464484 -0.55987906
1.6538892 2.4527099 -0.55972677
1.7328809 2.5698543 -0.55981874
1.8128237 2.6884089 -0.55785793
1.923926 2.8531733 -0.5626418
2.01089 2.9821405 -0.55742264
2.1391082 3.1722875 -0.56044316
2.272635 3.370307 -0.56095916
2.4103646 3.5745597 -0.55848229
2.576561 3.821028 -0.5580861
2.7699044 4.1077552 -0.55822533
2.9980392 4.4460783 -0.55910957
3.2452474 4.8126864 -0.55648583
3.5512116 5.2664304 -0.55571675
3.9297009 5.8277283 -0.556122
4.3875918 6.5067778 -0.55533069
4.9544744 7.3474627 -0.55310178
5.7123222 8.4713469 -0.55249971
6.7194862 9.9649668 -0.54977453
8.1753931 12.12407 -0.54715067
10.426273 15.462114 -0.54262882
14.378222 21.322836 -0.53443015
23.171291 34.362919 -0.51671046
1.1471618 1.7472029 -0.56005126
1.1918837 1.8153174 -0.56258297
1.235679 1.8820205 -0.56332976
1.277547 1.9457883 -0.56190211
1.3240411 2.0166018 -0.56117541
1.3725311 2.0904553 -0.55986017
1.4319925 2.1810188 -0.5613851
1.4830229 2.2587416 -0.55793512
1.5529785 2.3652885 -0.55977565
1.613026 2.4567447 -0.55607915
1.7037183 2.5948751 -0.56066316
1.7801172 2.7112355 -0.55801028
1.8853174 2.8714626 -0.56163436
1.982198 3.0190179 -0.55971748
2.0996919 3.197969 -0.56037652
2.2229106 3.3856392 -0.55891931
2.3700256 3.6097052 -0.55937785
2.5335293 3.858732 -0.55900061
2.7206364 4.1437082 -0.5585227
2.9353518 4.4707341 -0.55762893
3.1852567 4.8513556 -0.55638617
3.4949572 5.32305 -0.55711436
3.85918 5.8777852 -0.55632836
4.3080058 6.5613761 -0.55542737
4.8667521 7.412384 -0.55344218
5.6006737 8.5301943 -0.55180442
6.601151 10.053988 -0.55016607
8.0388622 12.243716 -0.54804778
10.23722 15.591959 -0.54272693
14.137077 21.5317 -0.53526759
22.774921 34.687706 -0.517344
1.1255709 1.7611424 -0.56004065
1.1633588 1.8202678 -0.55964154
1.2019057 1.8805808 -0.55843288
1.2505454 1.9566858 -0.56056607
1.2969825 2.0293443 -0.56024092
1.3488256 2.1104615 -0.5607338
1.4051127 2.1985319 -0.56140321
1.4638064 2.2903681 -0.56125861
1.525335 2.3866396 -0.56034738
1.6018945 2.5064297 -0.56282419
1.6729364 2.6175866 -0.5610832
1.7562675 2.747972 -0.56108397
1.8435501 2.8845398 -0.55971599
1.9448333 3.0430143 -0.5596903
2.0627885 3.2275748 -0.56107724
2.1835988 3.4166026 -0.55955595
2.3236508 3.6357369 -0.55894184
2.4847369 3.8877831 -0.55874068
2.6690161 4.1761184 -0.55842531
2.8732336 4.4956503 -0.55628794
3.1349866 4.9052067 -0.55809885
3.4346774 5.3741226 -0.55799717
3.7859702 5.9237785 -0.55623323
4.2222581 6.6064234 -0.55480373
4.7893534 7.4937382 -0.55507731
5.5073681 8.6171904 -0.55300945
6.4821873 10.142457 -0.55060387
7.8852053 12.337711 -0.54787368
10.057482 15.736599 -0.54341573
13.886585 21.727867 -0.53585875
22.393427 35.038231 -0.51842588
1.1005428 1.7695607 -0.55837208
1.1512088 1.8510264 -0.56470335
1.1908423 1.914753 -0.56418931
1.2229137 1.9663206 -0.55897599
1.2778538 2.0546589 -0.56284904
1.3254941 2.1312594 -0.56188673
1.3772173 2.2144251 -0.56109476
1.4331682 2.3043883 -0.56033349
1.4962478 2.4058139 -0.56048715
1.5664816 2.5187428 -0.5612213
1.6368147 2.6318314 -0.55978
1.714282 2.7563908 -0.55845672
1.8136274 2.9161282 -0.56147552
1.9067054 3.065788 -0.55952442
2.0206141 3.2489419 -0.56042999
2.1412559 3.4429212 -0.55951184
2.2844005 3.6730831 -0.56032246
2.4351327 3.9154453 -0.55837065
2.615591 4.2056036 -0.55802512
2.8175056 4.530262 -0.55624175
3.0661848 4.9301124 -0.55660075
3.3564081 5.3967624 -0.55602056
3.7154071 5.9739962 -0.5566166
4.1377721 6.6531157 -0.55441016
4.691699 7.5437741 -0.55446839
5.3985295 8.6802855 -0.55275667
6.3639812 10.232634 -0.55120939
7.7383919 12.442546 -0.54826206
9.8672323 15.865505 -0.54363614
13.626121 21.909414 -0.53616339
21.979504 35.340801 -0.51886457
1.0770491 1.7802268 -0.55751652
1.1165264 1.8454777 -0.5587799
1.1629854 1.9222687 -0.56214762
1.2035323 1.9892877 -0.56125551
1.2453853 2.0584655 -0.55965447
1.3000586 2.1488335 -0.56226283
1.3476518 2.227499 -0.56016624
1.4084028 2.3279128 -0.56180006
1.4655552 2.4223785 -0.5601055
1.5312731 2.531002 -0.55971509
1.6051971 2.6531889 -0.56008214
1.6805104 2.7776725 -0.55853957
1.7723594 2.9294875 -0.55980927
1.872274 3.0946338 -0.56054485
1.9845556 3.280221 -0.56157368
2.0962169 3.464783 -0.55883348
2.2388535 3.7005434 -0.56026947
2.3868604 3.9451804 -0.55838335
2.5670311 4.2429795 -0.55875385
2.7713988 4.5807738 -0.55821729
3.0087507 4.9730868 -0.55723345
3.2982135 5.4515324 -0.55744284
3.6341598 6.0068097 -0.55546832
4.0698018 6.726871 -0.55634397
4.6059122 7.6129942 -0.55535126
5.2952604 8.7524004 -0.55316073
6.2431955 10.319218 -0.55169642
7.5799403 12.528689 -0.54790938
9.6860199 16.009773 -0.54445726
13.362998 22.087357 -0.53645623
21.584797 35.676956 -0.51986378
1.0607672 1.8030038 -0.56052232
1.091983 1.8560617 -0.55787671
1.137808 1.9339511 -0.56143004
1.1839486 2.0123773 -0.56361985
1.2146956 2.0646384 -0.5572297
1.2722518 2.1624677 -0.56169444
1.3236579 2.2498434 -0.56164974
1.3788235 2.3436093 -0.561454
1.4362004 2.441134 -0.56031632
1.4993033 2.5483909 -0.55944121
1.5791035 2.6840286 -0.56245083
1.6469884 2.7994139 -0.55879676
1.7364396 2.9514554 -0.55988461
1.8336807 3.1167378 -0.56042212
1.930499 3.2813013 -0.55765247
2.0605674 3.5023811 -0.56076854
2.18836 3.7195921 -0.55903715
2.3451226 3.9860442 -0.56004328
2.51472 4.2743115 -0.55876559
2.7173734 4.6187649 -0.55873281
2.9452212 5.0060415 -0.55682594
3.2325068 5.4943461 -0.5577141
3.5712817 6.0701675 -0.55722421
3.983083 6.770113 -0.55582756
4.5018444 7.6518607 -0.55410647
5.1903334 8.8220968 -0.5534901
6.1142941 10.392568 -0.55155665
7.4399309 12.645775 -0.54898745
9.4906015 16.131334 -0.54458135
13.11454 22.291002 -0.53744501
21.174566 35.990765 -0.52060312
1.039438 1.8175187 -0.56101882
1.0701213 1.8711702 -0.55842054
1.1181138 1.9550878 -0.56353211
1.1557381 2.0208762 -0.56197745
1.189684 2.0802326 -0.55744809
1.2454802 2.1777956 -0.56165534
1.2971814 2.2681983 -0.5622074
1.3473917 2.355994 -0.56040937
1.3977227 2.4440007 -0.55698729
1.4712555 2.5725772 -0.56073684
1.5365932 2.6868238 -0.55903482
1.6182042 2.8295257 -0.5607931
1.7027365 2.9773352 -0.56077975
1.792021 3.1334543 -0.55942339
1.8957428 3.3148179 -0.55934465
2.0150437 3.5234227 -0.56012797
2.1437569 3.7484856 -0.55937552
2.291024 4.0059905 -0.5588454
2.4569392 4.296103 -0.55762267
2.6545231 4.6415901 -0.55750316
2.8975286 5.0665002 -0.5595454
3.1577926 5.5215869 -0.55649567
3.4930158 6.1077442 -0.55668867
3.9080746 6.833499 -0.55704409
4.4160628 7.7217464 -0.55519301
5.0834293 8.8886766 -0.55370367
5.9840569 10.463476 -0.551373
7.2840357 12.736567 -0.54899907
9.2966232 16.255695 -0.54487926
12.842998 22.456739 -0.53759271
20.76479 36.30846 -0.52146572
1.0271341 1.8483769 -0.56660247
1.0527424 1.8944602 -0.56146538
1.0954654 1.9713423 -0.56429195
1.130633 2.0346279 -0.56189299
1.1702985 2.1060081 -0.56045657
1.2164072 2.1889827 -0.56064057
1.2719325 2.2889032 -0.56342018
1.3170929 2.3701715 -0.55988705
1.3766086 2.477273 -0.5606699
1.4389614 2.5894797 -0.5605219
1.5126919 2.7221613 -0.56247461
1.5790972 2.8416607 -0.55930752
1.6663622 2.9986982 -0.5609017
1.7632335 3.173023 -0.56257427
1.8555989 3.3392386 -0.55957288
1.9724482 3.5495148 -0.56037778
2.1031384 3.7846978 -0.5608778
2.2389991 4.0291858 -0.55819821
2.4107549 4.3382683 -0.55920565
2.6035573 4.685226 -0.55885673
2.8263314 5.0861182 -0.55783165
3.0967522 5.5727534 -0.55777258
3.4122283 6.1404676 -0.55580497
3.818049 6.8707614 -0.55621243
4.3215537 7.7768421 -0.55529165
4.9732952 8.9496822 -0.55365258
5.8563323 10.53875 -0.55150312
7.1316104 12.833673 -0.54936332
9.1018648 16.37924 -0.54522771
12.579261 22.63698 -0.53816396
20.355417 36.630543 -0.52245718
0.99380535 1.8413664 -0.56066507
1.0362579 1.9200242 -0.56522262
1.0675454 1.9779952 -0.56239623
1.1017929 2.0414505 -0.55999321
1.1513807 2.1333289 -0.56391692
1.1940314 2.2123539 -0.56282341
1.2448453 2.3065042 -0.56394219
1.2863711 2.383445 -0.55924374
1.3516341 2.5043674 -0.56299788
1.4113303 2.614975 -0.56224161
1.4722698 2.7278864 -0.55987453
1.5536529 2.8786767 -0.56279039
1.6240464 3.0091047 -0.55907059
1.7157377 3.1789947 -0.55985016
1.8167104 3.366081 -0.56028515
1.9288229 3.573808 -0.56042629
2.0471697 3.7930861 -0.55834812
2.2018948 4.0797677 -0.56141233
2.3586452 4.3702021 -0.55954111
2.5457828 4.7169385 -0.55886328
2.7753282 5.1422505 -0.56020278
3.0301664 5.6144257 -0.55817193
3.3458123 6.1992683 -0.55736125
3.7349539 6.9202876 -0.55646175
4.2229762 7.8245163 -0.55494595
4.8631692 9.0106936 -0.55368572
5.7334967 10.623276 -0.55219531
6.9727964 12.919504 -0.54932564
8.9026289 16.495184 -0.54540193
12.313758 22.815474 -0.53876698
19.930862 36.92878 -0.52317584
0.97087324 1.8530335 -0.56054014
1.005254 1.9186535 -0.56113786
1.0370716 1.9793814 -0.55912232
1.0777175 2.0569594 -0.56056994
1.116163 2.1303375 -0.55945587
1.1671302 2.2276146 -0.56301212
1.2079892 2.3055992 -0.56004673
1.2593495 2.4036267 -0.56030327
1.3126303 2.5053198 -0.55954117
1.3795668 2.6330764 -0.56244367
1.4405384 2.7494485 -0.56062204
1.5080444 2.8782921 -0.55904764
1.590698 3.036047 -0.56039983
1.6786067 3.2038319 -0.56054676
1.7740734 3.3860419 -0.5599342
1.8872429 3.6020403 -0.56117195
2.0087686 3.8339872 -0.56069046
2.1473112 4.098413 -0.56030226
2.3036566 4.3968182 -0.5592798
2.4903941 4.7532301 -0.55949253
2.7029145 5.1588516 -0.55834836
2.9486408 5.6278515 -0.55585998
3.2700696 6.2413387 -0.5574863
3.6505718 6.9675751 -0.55661249
4.1269574 7.8768167 -0.55501419
4.7538815 9.0733805 -0.55390376
5.6058574 10.699484 -0.55253172
6.8263206 13.028891 -0.55036598
8.7102461 16.624599 -0.54609829
12.040538 22.980879 -0.53913587
19.508688 37.234779 -0.52407283
0.95259929 1.873847 -0.56325024
0.98308551 1.9338161 -0.56199437
1.0133544 1.9933577 -0.55950809
1.0530711 2.0714841 -0.5609569
1.0935105 2.151032 -0.56131691
1.1359395 2.2344935 -0.56117791
1.179673 2.3205209 -0.56010544
1.227403 2.4144104 -0.55925649
1.2900101 2.537564 -0.56315726
1.342839 2.6414828 -0.56066984
1.4074974 2.768672 -0.56097031
1.4725828 2.8967006 -0.55906379
1.557081 3.0629158 -0.56178272
1.6379185 3.2219305 -0.56014717
1.7312014 3.4054263 -0.55957717
1.8486862 3.6365292 -0.56296104
1.9587375 3.8530099 -0.55990773
2.0878153 4.1069174 -0.55791295
2.2456062 4.4173059 -0.55833125
2.4240749 4.7683697 -0.55772382
2.640116 5.1933413 -0.55852532
2.888345 5.6816301 -0.5576216
3.193162 6.2812319 -0.5575003
3.5684445 7.0194454 -0.55720878
4.0408449 7.9486995 -0.55653596
4.6415939 9.1304255 -0.55386007
5.4756551 10.771098 -0.55271113
6.6575823 13.096053 -0.54970342
8.5133762 16.746565 -0.54662466
11.77337 23.15926 -0.53988355
19.082502 37.536968 -0.52498376
0.92728084 1.8809423 -0.56191319
0.95554674 1.9382783 -0.55983418
0.98913169 2.0064037 -0.55971366
1.0215564 2.0721755 -0.55770034
1.0764298 2.1834836 -0.56628841
1.1088623 2.2492712 -0.56142247
1.1511964 2.3351438 -0.56017584
1.2031158 2.4404597 -0.5618211
1.2578604 2.5515065 -0.56277633
1.3127463 2.6628394 -0.5617342
1.3722403 2.7835202 -0.56051761
1.442362 2.9257584 -0.56120652
1.5104042 3.0637786 -0.55849224
1.6008122 3.2471669 -0.56106997
1.6934636 3.4351053 -0.56098992
1.7979109 3.6469717 -0.5611127
1.9120232 3.8784425 -0.5601446
2.0463827 4.1509838 -0.56043851
2.1926546 4.4476891 -0.55872148
2.3720548 4.8115931 -0.55932558
2.5731413 5.2194872 -0.5578922
2.8209529 5.7221603 -0.55815279
3.1129558 6.3144741 -0.55701119
3.473736 7.0462985 -0.55590761
3.9411225 7.9943681 -0.55629838
4.53616 9.2013712 -0.55473816
5.3454833 10.843042 -0.55298817
6.5113106 13.207865 -0.55099428
8.3115587 16.859577 -0.54693615
11.495723 23.318495 -0.54025948
18.64925 37.829063 -0.52582192
0.90482891 1.8937616 -0.56237644
0.93809319 1.9633821 -0.56371057
0.96731669 2.0245454 -0.561414
0.99938565 2.0916641 -0.5595957
1.0457937 2.1887939 -0.56428778
1.0813813 2.2632768 -0.56155688
1.1262916 2.3572719 -0.56211931
1.1731498 2.4553437 -0.56188416
1.2249005 2.5636554 -0.56209129
1.2729422 2.6642044 -0.55867785
1.339612 2.803741 -0.56122994
1.4082386 2.9473729 -0.56198847
1.4762907 3.0898025 -0.55988467
1.5573685 3.2594943 -0.55984879
1.6497253 3.4527926 -0.56052315
1.7485944 3.6597207 -0.55972373
1.860822 3.8946071 -0.55913222
1.9887164 4.1622839 -0.55862027
2.142524 4.4841952 -0.55995554
2.3176522 4.8507299 -0.56051975
2.5145981 5.2629285 -0.55918825
2.7529745 5.761838 -0.55867881
3.0397229 6.3619881 -0.55786318
3.3997202 7.1154442 -0.5580225
3.8384042 8.0335875 -0.55570108
4.4206047 9.2521038 -0.55447769
5.2146864 10.914078 -0.55329889
6.3495049 13.289196 -0.55108839
8.1059713 16.965393 -0.54709399
11.223802 23.490854 -0.54101437
18.208752 38.110004 -0.52657497
0.88190287 1.9056669 -0.56264895
0.9127059 1.9722278 -0.56298548
0.93790311 2.0266755 -0.55876428
0.97656411 2.1102164 -0.56130403
1.010406 2.1833439 -0.55963737
1.0580001 2.2861881 -0.56397098
1.0980929 2.3728228 -0.56256521
1.1408634 2.4652438 -0.56089699
1.1861832 2.5631735 -0.55874538
1.2447269 2.6896782 -0.56076771
1.3059306 2.8219309 -0.56161416
1.3711891 2.962945 -0.56170028
1.4358453 3.1026578 -0.55897254
1.5230237 3.291038 -0.56200755
1.6046038 3.4673212 -0.55963629
1.7064023 3.6872931 -0.56068915
1.8174466 3.9272442 -0.56056696
1.9407425 4.1936693 -0.55958736
2.083019 4.5011082 -0.55882674
2.2572927 4.8776894 -0.56038529
2.443152 5.2793045 -0.55769408
2.674901 5.7800813 -0.55721635
2.9626777 6.401926 -0.55812854
3.3026431 7.1365433 -0.55645025
3.7447412 8.0918541 -0.55650425
4.315958 9.3261728 -0.5556941
5.0856943 10.989463 -0.55390847
6.1855145 13.366018 -0.55107832
7.9039383 17.079288 -0.54759133
10.948222 23.657555 -0.54171211
17.774549 38.408279 -0.52763647
0.85557693 1.9100528 -0.56079531
0.87825572 1.9606825 -0.55656493
0.91836172 2.0502181 -0.56209922
0.95554286 2.133224 -0.56425589
0.98793167 2.2055311 -0.56216812
1.0277225 2.2943633 -0.56282765
1.0694005 2.3874083 -0.56286305
1.1147606 2.4886737 -0.56306642
1.1624537 2.5951469 -0.5625568
1.2140429 2.7103186 -0.56191611
1.2728225 2.8415425 -0.56235981
1.3400598 2.991648 -0.56397516
1.4024938 3.1310301 -0.56093466
1.4790281 3.3018909 -0.56071275
1.5637043 3.4909282 -0.56030071
1.6542797 3.6931355 -0.55844218
1.7696487 3.9506936 -0.56076568
1.8952625 4.2311234 -0.56143296
2.031136 4.5344572 -0.55982399
2.1951299 4.900569 -0.55987048
2.3790717 5.3112144 -0.55793238
2.6104453 5.8277497 -0.55867499
2.8824463 6.4349847 -0.55787838
3.2181964 7.1845374 -0.55706477
3.6464257 8.1405478 -0.55672735
4.193851 9.3626604 -0.55475354
4.9397726 11.027911 -0.55274296
6.0267673 13.454598 -0.5516333
7.6986537 17.18704 -0.5479694
10.671856 23.824635 -0.54249209
17.338106 38.70686 -0.52876943
0.83389699 1.924744 -0.56205559
0.86159915 1.9886843 -0.56146371
0.89493543 2.0656288 -0.56326461
0.92487329 2.1347294 -0.56160343
0.96016449 2.216186 -0.56183207
1.0007749 2.3099201 -0.56358254
1.0418829 2.4048028 -0.56390095
1.0824945 2.4985397 -0.56224453
1.1236098 2.5934391 -0.55914932
1.1745067 2.7109158 -0.55900347
1.2370458 2.8552647 -0.56202263
1.298255 2.9965434 -0.56184614
1.3634698 3.1470678 -0.56076181
1.4398652 3.3233986 -0.56131601
1.5257537 3.5216405 -0.56217635
1.6203556 3.739994 -0.5624724
1.7183503 3.9661787 -0.55992216
1.8375567 4.241323 -0.55974579
1.9709015 4.5490999 -0.55859751
2.1327927 4.9227667 -0.55936795
2.3179705 5.3501811 -0.55898935
2.5433309 5.8703427 -0.55971783
2.8010776 6.4652557 -0.55747455
3.1266077 7.2166224 -0.55652946
3.5438232 8.1796103 -0.55637658
4.0783429 9.413353 -0.55474377
4.8160005 11.115963 -0.55414623
5.8627734 13.532053 -0.55181146
7.4938197 17.296722 -0.54848701
10.382919 23.965145 -0.54274338
16.882322 38.966621 -0.52944213
0.80963975 1.9335898 -0.56168902
0.83708084 1.9991249 -0.56146288
0.87061876 2.0792205 -0.56400895
0.89739478 2.1431673 -0.5608778
0.92908674 2.2188544 -0.55956995
0.96759051 2.3108094 -0.5608542
1.0110679 2.4146423 -0.5632503
1.0518448 2.5120263 -0.56232637
1.0945932 2.6141183 -0.56066346
1.141903 2.7271044 -0.5594039
1.1982715 2.8617239 -0.56035137
1.2615796 3.0129173 -0.56196505
1.3252208 3.1649058 -0.56099427
1.3989615 3.3410139 -0.56134337
1.4718938 3.5151916 -0.55821544
1.5691675 3.7475014 -0.56065714
1.6731018 3.9957182 -0.56114554
1.7828461 4.2578111 -0.55898631
1.9196146 4.5844426 -0.55999655
2.0721841 4.9488106 -0.55938965
