# .PCD v0.7 - Point Cloud Data file format
VERSION 0.7
FIELDS x y z
SIZE 4 4 4
TYPE F F F
COUNT 1 1 1
WIDTH 1455
HEIGHT 1
VIEWPOINT 0 0 0 1 0 0 0
POINTS 1455
DATA ascii
1.2571737 3.6105754 -0.56001323
1.3331898 3.8288922 -0.55949694
1.4230126 4.0868611 -0.56058258
1.5226893 4.3731308 -0.56075901
1.635903 4.698278 -0.5605399
1.7652123 5.0696511 -0.55970699
1.9202056 5.5147886 -0.55983269
2.0999496 6.0310092 -0.55871457
2.3235373 6.6731486 -0.55906779
2.5932395 7.4477272 -0.5580489
2.9385545 8.4394646 -0.5577575
3.3893125 9.7340317 -0.55735916
3.9866934 11.449697 -0.55458176
4.8572426 13.949895 -0.55270362
6.2198629 17.863312 -0.5503751
8.6231165 24.765402 -0.54494691
14.05893 40.376942 -0.53303218
0.66503042 1.9883493 -0.5617857
0.68730551 2.0549488 -0.56134331
0.71456301 2.136445 -0.56366825
0.73466194 2.196538 -0.55911011
0.76938784 2.3003638 -0.564246
0.7984333 2.3872056 -0.56353647
0.82714993 2.4730644 -0.56108731
0.8582086 2.5659256 -0.55866915
0.8962481 2.6796584 -0.55898845
0.94307786 2.8196728 -0.56255996
0.98672462 2.9501705 -0.56185758
1.0363132 3.0984337 -0.56209624
1.0934321 3.2692111 -0.56362081
1.1497996 3.4377422 -0.5617848
1.2145798 3.6314261 -0.56088841
1.2867082 3.8470805 -0.55980045
1.3761691 4.1145558 -0.56201774
1.4704062 4.3963122 -0.56137061
1.5785599 4.7196765 -0.56073469
1.7047473 5.0969596 -0.56036526
1.8518311 5.5367198 -0.55970508
2.0259111 6.0571952 -0.55879039
2.241055 6.7004457 -0.55900371
2.5023289 7.4816189 -0.55824059
2.8328674 8.469883 -0.55742353
3.2644467 9.7602453 -0.55651963
3.8479519 11.504846 -0.55491924
4.6890559 14.01963 -0.55314028
6.0052619 17.954906 -0.55088037
8.3255672 24.892298 -0.5454452
13.587561 40.624935 -0.53406
0.64216346 2.0014598 -0.56321633
0.66117758 2.0607221 -0.56065708
0.68223709 2.126359 -0.55875164
0.71242505 2.2204473 -0.56292361
0.73813516 2.3005791 -0.56203002
0.76908398 2.3970387 -0.56358266
0.7978434 2.4866743 -0.56190681
0.83750683 2.6102953 -0.56604463
0.86932957 2.7094789 -0.5629366
0.90597266 2.8236859 -0.5610956
0.9526425 2.9691439 -0.56319749
0.99608052 3.1045289 -0.56093758
1.0486221 3.2682877 -0.56119615
1.1041418 3.4413288 -0.56010985
1.1704581 3.6480196 -0.5611859
1.2379453 3.8583601 -0.55918443
1.3245229 4.1282001 -0.56161427
1.4136113 4.4058661 -0.56032866
1.5210096 4.7405992 -0.56095594
1.6447908 5.1263933 -0.56133527
1.7812916 5.5518322 -0.55897629
1.9524775 6.0853744 -0.55913287
2.1607375 6.7344675 -0.55958319
2.4090972 7.5085421 -0.55799699
2.7314963 8.5133781 -0.55803335
3.1469076 9.8081093 -0.55700028
3.7116938 11.568403 -0.55574137
4.5258756 14.106 -0.55431026
5.7863498 18.034578 -0.55110013
8.0311661 25.031097 -0.5462814
13.113705 40.872074 -0.53514862
0.61317497 1.9951127 -0.55926615
0.63996518 2.0822809 -0.56433892
0.6636557 2.1593637 -0.56523728
0.68113869 2.216249 -0.55969357
0.7099703 2.3100595 -0.56217086
0.73684669 2.3975081 -0.56152034
0.77184552 2.5113854 -0.56530327
0.7973268 2.594295 -0.56040651
0.83630162 2.7211089 -0.56317383
0.87126356 2.834866 -0.5611459
0.91434264 2.9750342 -0.56213963
0.9600873 3.1238754 -0.56225759
1.0051786 3.2705908 -0.5594269
1.064278 3.4628851 -0.56144589
1.129421 3.6748435 -0.5631333
1.191902 3.8781404 -0.55988473
1.2755873 4.1504307 -0.56246227
1.3587538 4.4210329 -0.56009036
1.4622333 4.7577286 -0.56081289
1.5776916 5.1334 -0.55993581
1.7148956 5.5798264 -0.55962944
1.8778892 6.1101651 -0.55924672
2.0756559 6.7536469 -0.55901372
2.3171992 7.539566 -0.55814284
2.6283395 8.5519361 -0.55840009
3.0270767 9.8493242 -0.55718488
3.567852 11.608867 -0.55553561
4.3512797 14.157937 -0.55420679
5.5706315 18.125393 -0.55174035
7.736445 25.17239 -0.54724741
12.634775 41.110287 -0.53619289
0.59386414 2.0204186 -0.56427026
0.61473072 2.0914099 -0.56472176
0.63274211 2.1526873 -0.56141061
0.65672278 2.2342734 -0.56216365
0.68117493 2.3174634 -0.56189179
0.70857948 2.4106982 -0.56252635
0.73381048 2.4965379 -0.55988777
0.76697749 2.6093774 -0.56158477
0.79628962 2.7091017 -0.55861998
0.84047401 2.8594239 -0.56391865
0.8747251 2.9759514 -0.56023824
0.92123866 3.134198 -0.56203413
0.96987683 3.2996726 -0.56231886
1.0244844 3.4854562 -0.56302035
1.0831231 3.6849542 -0.56259918
1.147362 3.9035046 -0.56146729
1.2215526 4.1559129 -0.56112713
1.3048382 4.4392633 -0.56032485
1.401792 4.7691154 -0.56008095
1.514293 5.1518612 -0.55987614
1.6477668 5.6059599 -0.56017601
1.8064681 6.1458869 -0.56044072
1.9908893 6.7733164 -0.55857331
2.2254636 7.5713754 -0.5584296
2.5243714 8.5883055 -0.55870575
2.9042363 9.8806648 -0.55689555
3.4301643 11.669955 -0.55639845
4.1788034 14.216942 -0.55446315
5.3514557 18.20649 -0.55216414
7.4312749 25.282358 -0.54761016
12.153742 41.34893 -0.53731561
0.56332678 2.0074325 -0.55866659
0.58799648 2.0953438 -0.56378901
0.60930675 2.1712837 -0.56426382
0.63066149 2.2473819 -0.56346804
0.65146941 2.3215315 -0.56089348
0.67664176 2.4112341 -0.56066751
0.70764357 2.5217102 -0.56353891
0.73623085 2.6235816 -0.56265092
0.77077091 2.7466662 -0.56436884
0.801301 2.8554611 -0.5611515
0.84201896 3.000561 -0.56287938
0.88265163 3.1453567 -0.56204635
0.92680562 3.3027008 -0.56085038
0.98126996 3.4967864 -0.56285894
1.0344379 3.6862519 -0.56081295
1.0985829 3.9148345 -0.56111145
1.1728526 4.1794972 -0.56232172
1.2509854 4.4579253 -0.56069636
1.3480153 4.8036947 -0.5621528
1.4570056 5.1920853 -0.56225795
1.5778798 5.6228242 -0.55988008
1.7322288 6.1728511 -0.56091481
1.9092644 6.8037233 -0.55910248
2.1350231 7.6082215 -0.55916864
2.4166307 8.6117392 -0.5582549
2.789834 9.9416609 -0.55835766
3.2879848 11.716837 -0.55666393
4.0052581 14.272862 -0.55468136
5.1314225 18.285986 -0.55261964
7.1296358 25.406679 -0.54836261
11.67035 41.587658 -0.53851229
0.54405695 2.0346084 -0.56432509
0.56387657 2.1087275 -0.56548172
0.57913542 2.1657908 -0.56094331
0.59815997 2.236937 -0.55896288
0.62331975 2.331027 -0.5612933
0.65150231 2.4364214 -0.56461865
0.675165 2.5249126 -0.56235677
0.70155877 2.6236172 -0.5607661
0.73647726 2.7542019 -0.56401384
0.76971006 2.8784823 -0.56377304
0.8092683 3.0264184 -0.56582046
0.84355831 3.1546526 -0.56181145
0.88763523 3.3194869 -0.56180495
0.93799758 3.5078268 -0.56273693
0.98840004 3.6963167 -0.56045276
1.05436 3.942987 -0.56324571
1.1176881 4.1798148 -0.56047297
1.2020342 4.4952435 -0.56348842
1.2880591 4.8169508 -0.56180805
1.3912494 5.2028513 -0.56152874
1.5109265 5.6504068 -0.56073421
1.6489705 6.1666503 -0.55846661
1.8257252 6.8276587 -0.55918229
2.0467043 7.6540537 -0.56064498
2.3117914 8.6454 -0.55855191
2.6650946 9.9666462 -0.5578782
3.1429489 11.753676 -0.55653602
3.8363667 14.346848 -0.55568135
4.9096966 18.360779 -0.55301368
6.8272305 25.531775 -0.54920912
11.180242 41.810715 -0.53957969
0.51702094 2.0333636 -0.56217408
0.53574938 2.1070197 -0.5632146
0.55555052 2.1848943 -0.56407917
0.57804328 2.2733552 -0.56624407
0.59803486 2.3519788 -0.56452501
0.62037623 2.4398441 -0.56360137
0.64367706 2.5314827 -0.56201476
0.67031544 2.6362472 -0.56166136
0.70206904 2.7611291 -0.56362194
0.73189127 2.8784153 -0.56195474
0.76861811 3.0228562 -0.5633449
0.80394113 3.1617765 -0.56127721
0.84731823 3.332372 -0.5621798
0.89477873 3.5190268 -0.56272602
0.94448191 3.7145016 -0.56140667
1.0033901 3.9461784 -0.56189662
1.0679857 4.200223 -0.56140614
1.1431793 4.4959478 -0.56177211
1.2266223 4.8241162 -0.56084228
1.3211896 5.1960349 -0.55899745
1.441506 5.6692204 -0.56079978
1.5792056 6.210772 -0.56066144
1.743903 6.8585019 -0.55990976
1.9458343 7.6526661 -0.55874854
2.2077618 8.682786 -0.55917114
2.5458622 10.012483 -0.55864936
3.0012569 11.80348 -0.55710465
3.6618943 14.401666 -0.55601841
4.6884394 18.43891 -0.55358863
6.5180535 25.634499 -0.54965317
10.689059 42.038422 -0.54078114
0.49184588 2.0390086 -0.56202012
0.51164126 2.1210728 -0.56524658
0.52798915 2.1888452 -0.56338042
0.54786575 2.271246 -0.56399804
0.56677842 2.3496509 -0.56225091
0.59070778 2.448853 -0.56396192
0.61312145 2.5417717 -0.56258273
0.63917398 2.6497757 -0.56282663
0.66540259 2.7585096 -0.5613746
0.69889486 2.897356 -0.56393206
0.73065907 3.0290387 -0.56278014
0.76496613 3.1712627 -0.56124896
0.80773968 3.3485861 -0.56319702
0.84859526 3.5179577 -0.56084412
0.89739877 3.7202787 -0.56056964
0.95598805 3.9631681 -0.56259942
1.0195818 4.2268038 -0.56324065
1.0878123 4.5096622 -0.56177193
1.1678165 4.8413291 -0.56113148
1.2591319 5.2198887 -0.5598557
1.3717796 5.6868839 -0.56083608
1.5050989 6.2395759 -0.56154847
1.659122 6.878098 -0.5598017
1.8530695 7.6821318 -0.55919391
2.1012573 8.7110252 -0.55928349
2.4239335 10.048719 -0.55896592
2.8588095 11.851552 -0.55767226
3.486222 14.452569 -0.55628663
4.467597 18.520981 -0.55436146
6.2116694 25.751253 -0.55047721
10.193408 42.258049 -0.54195309
0.46878576 2.053874 -0.56448597
0.48406196 2.1208029 -0.56354582
0.50093895 2.1947455 -0.56327105
0.51998407 2.278187 -0.56409132
0.53653055 2.3506815 -0.56087643
0.55785406 2.4441054 -0.5612464
0.58243072 2.5517824 -0.56317067
0.60879523 2.6672921 -0.56491441
0.63166726 2.7675006 -0.56158119
0.66110688 2.8964834 -0.56213748
0.69269717 3.0348887 -0.56224197
0.72980273 3.1974578 -0.56425405
0.76379919 3.3464053 -0.56120819
0.80771887 3.5388291 -0.56254554
0.8540678 3.7418959 -0.56220192
0.90956855 3.9850593 -0.56407666
0.96646303 4.2343292 -0.5626173
1.0290546 4.5085597 -0.56001598
1.1095732 4.8613324 -0.56182611
1.1997318 5.256341 -0.56214064
1.302575 5.706924 -0.56119037
1.4266144 6.2503734 -0.56089908
1.5774798 6.9113541 -0.56088728
1.7618262 7.7190247 -0.56026012
1.9941562 8.7369232 -0.55932963
2.3012872 10.082545 -0.55923116
2.7124822 11.884098 -0.55759209
3.3081832 14.494021 -0.55627429
4.2393031 18.573503 -0.55433136
5.9025569 25.860657 -0.55122268
9.6937332 42.470795 -0.54311174
0.4444336 2.0638328 -0.5656783
0.45640856 2.1194413 -0.56165028
0.47249761 2.1941545 -0.56158584
0.49133429 2.2816272 -0.56340456
0.51001316 2.368367 -0.56355721
0.52876562 2.4554484 -0.56231552
0.55236655 2.5650449 -0.564556
0.575001 2.6701534 -0.56398028
0.59458077 2.7610767 -0.55875176
0.62382609 2.896884 -0.56068414
0.65696323 3.0507643 -0.56364393
0.69246215 3.2156119 -0.56591237
0.72405076 3.3623011 -0.56233835
0.76231998 3.5400136 -0.56120127
0.80981547 3.7605698 -0.56346887
0.85579634 3.974093 -0.56099248
0.91769582 4.261538 -0.56469047
0.9754504 4.5297351 -0.56111389
1.048021 4.8667336 -0.56091851
1.1333582 5.2630172 -0.56132174
1.2305533 5.7143655 -0.56039184
1.3495288 6.2668562 -0.56084663
1.4901335 6.9197879 -0.56004232
1.6671176 7.7416549 -0.56037241
1.8907541 8.7801638 -0.56056702
2.1777406 10.112854 -0.55938464
2.5695674 11.932395 -0.5583334
3.1335108 14.551199 -0.55694783
4.0143557 18.641611 -0.55484885
5.5902562 25.959679 -0.55182648
9.1912451 42.681725 -0.54432261
0.4160794 2.0546005 -0.56170303
0.43278787 2.1371069 -0.5648787
0.4464758 2.2046978 -0.56283665
0.46421951 2.2923164 -0.56459183
0.48061973 2.3733008 -0.56328237
0.49659663 2.4521947 -0.56012964
0.51523989 2.544255 -0.55854356
0.53822529 2.657757 -0.5599218
0.56313777 2.7807748 -0.56129426
0.58833462 2.9051969 -0.5608505
0.61651385 3.0443459 -0.56101501
0.6506722 3.2130198 -0.56400543
0.68287563 3.3720405 -0.56252033
0.7213347 3.5619514 -0.5632304
0.76182026 3.7618692 -0.56221747
0.80837065 3.9917352 -0.56203723
0.8640362 4.2666116 -0.56391233
0.92167842 4.551249 -0.56233251
0.98868102 4.8821077 -0.56124693
1.0692379 5.2798977 -0.5616774
1.1625733 5.7407885 -0.5615387
1.2734017 6.2880588 -0.5613004
1.4061049 6.9433475 -0.56050736
1.5713896 7.7595234 -0.56022477
1.7837367 8.808094 -0.56090742
2.0524106 10.134806 -0.55916065
2.4257994 11.978599 -0.55905735
2.9560513 14.596984 -0.55726689
3.7942445 18.735983 -0.55622703
5.2777004 26.061289 -0.5525651
8.682601 42.874691 -0.54538071
0.39263812 2.0693247 -0.56436586
0.40447775 2.1317232 -0.56209856
0.41959006 2.2113698 -0.56318021
0.43532974 2.294323 -0.56372499
0.45379499 2.3916404 -0.56626797
0.46528214 2.4521813 -0.55877751
0.48734024 2.5684345 -0.56249362
0.50900257 2.6826015 -0.56379461
0.53024256 2.7945428 -0.5627147
0.55457002 2.9227562 -0.56288129
0.57976675 3.0555508 -0.56172365
0.60980809 3.2138779 -0.56279725
0.64192647 3.3831518 -0.56301457
0.67892826 3.5781629 -0.56443107
0.71711153 3.7794006 -0.5634771
0.76186067 4.0152426 -0.56398535
0.80831015 4.2600455 -0.5616883
0.86506003 4.559135 -0.56195009
0.93046153 4.903821 -0.56238526
1.0054168 5.2988586 -0.56233674
1.0914888 5.7524853 -0.56132752
1.1979468 6.3135514 -0.56221855
1.3198252 6.9558883 -0.56016725
1.4762062 7.7800651 -0.56035495
1.6733223 8.8189278 -0.56024474
1.9273925 10.157957 -0.55908811
2.2812304 12.022793 -0.55976844
2.7805545 14.654386 -0.55811077
3.5645223 18.786139 -0.55637276
4.9629545 26.156313 -0.55324405
8.1727791 43.073082 -0.54658467
0.36660871 2.0708539 -0.56351089
0.37887657 2.140151 -0.56304979
0.39087579 2.2079308 -0.56103784
0.4072355 2.3003416 -0.56393075
0.42130089 2.3797925 -0.56219363
0.43885738 2.4789634 -0.56360805
0.45649198 2.5785756 -0.56344265
0.47344148 2.6743176 -0.56078774
0.49656495 2.8049347 -0.56353515
0.52025139 2.9387319 -0.56468326
0.54185003 3.0607357 -0.56140953
0.57007849 3.2201891 -0.56263232
0.60034084 3.3911312 -0.56307137
0.63436222 3.583307 -0.56396943
0.67158753 3.7935805 -0.56431735
0.70940715 4.0072117 -0.5615896
0.75743157 4.2784858 -0.56284916
0.80815864 4.5650268 -0.56140894
0.86976802 4.9130383 -0.56217325
0.94084281 5.3145165 -0.56272811
1.0213114 5.7690573 -0.56167674
1.1183763 6.3173456 -0.56128937
1.2357794 6.9805179 -0.56088454
1.3840557 7.8180833 -0.56182492
1.5638459 8.8336592 -0.55991668
1.8056138 10.199327 -0.56010073
2.1319282 12.042572 -0.55942655
2.6015995 14.695594 -0.55841964
3.3347528 18.836939 -0.55662072
4.6495223 26.263647 -0.55426317
7.6577215 43.255989 -0.54766941
0.34054938 2.0717413 -0.56257033
0.35358533 2.151046 -0.56472957
0.36464748 2.2183428 -0.56250167
0.37999502 2.3117101 -0.56552953
0.39337051 2.3930802 -0.56414735
0.40719351 2.4771729 -0.56202006
0.42436078 2.5816102 -0.56292301
0.44337276 2.6972702 -0.56441486
0.46215713 2.8115456 -0.56367898
0.48272809 2.9366896 -0.56310767
0.50296003 3.0597711 -0.56005585
0.52940029 3.2206211 -0.56152797
0.55743599 3.3911772 -0.56189841
0.58922005 3.5845363 -0.56298
0.62141079 3.7803695 -0.56117302
0.66189039 4.0266285 -0.56312758
0.70304286 4.2769804 -0.5614714
0.7529456 4.580565 -0.56213874
0.80933559 4.9236155 -0.56220227
0.87552005 5.3262501 -0.56278807
0.95046389 5.7821727 -0.5617733
1.0415496 6.3362956 -0.56179267
1.1523769 7.0105162 -0.56211388
1.285522 7.820508 -0.56082082
1.4584712 8.8726492 -0.56120884
1.6796309 10.21808 -0.55995399
1.9847802 12.074465 -0.55973202
2.4229636 14.740165 -0.55893892
3.1059875 18.895361 -0.55717635
4.3280106 26.329569 -0.55448931
7.1444812 43.463646 -0.54914474
0.31541058 2.0781448 -0.56321341
0.32528079 2.1431766 -0.561571
0.33948195 2.2367437 -0.56606627
0.34881163 2.2982142 -0.56113619
0.36511478 2.4056308 -0.56600487
0.37656814 2.4810934 -0.56181657
0.39206952 2.5832274 -0.56218183
0.40822464 2.6896684 -0.56173128
0.42959601 2.830478 -0.56637275
0.44796455 2.9515028 -0.5648492
0.46604955 3.0706594 -0.56095749
0.49148893 3.238272 -0.56350917
0.51745766 3.4093719 -0.56381625
0.5456199 3.5949242 -0.56351519
0.57631218 3.7971466 -0.56256896
0.61210668 4.0329857 -0.56292146
0.65169597 4.2938275 -0.56258845
0.6948573 4.5782046 -0.56075811
0.74903923 4.9351931 -0.56243002
0.80682617 5.3159332 -0.56060725
0.8796519 5.7957602 -0.56199998
0.96532279 6.3602195 -0.56281883
1.065472 7.0200729 -0.56178719
1.1919259 7.8532391 -0.56207448
1.3486221 8.885663 -0.56094062
1.55778 10.263741 -0.56136411
1.8386528 12.114327 -0.56048948
2.2451024 14.7923 -0.55982673
2.876956 18.955393 -0.55786121
4.0109186 26.426729 -0.55545485
6.6212788 43.625599 -0.55012071
0.2915948 2.0945077 -0.56663346
0.29950684 2.1513393 -0.5627023
0.30974993 2.2249148 -0.56206626
0.32013232 2.2994909 -0.56044441
0.33407843 2.3996651 -0.56359208
0.34670469 2.4903588 -0.56290668
0.36094904 2.592675 -0.56322944
0.3751972 2.6950185 -0.56184262
0.39238119 2.8184502 -0.562958
0.41131058 2.9544189 -0.56439662
0.42901176 3.0815654 -0.56194365
0.45028105 3.2343414 -0.5618192
0.4737522 3.4029334 -0.56174564
0.50081879 3.5973511 -0.56288773
0.52911377 3.8005919 -0.56207299
0.56211585 4.0376439 -0.56256431
0.59968662 4.3075128 -0.56337279
0.64035791 4.5996518 -0.56237811
0.68998092 4.9560909 -0.56380212
0.74361056 5.3413095 -0.5622766
0.8084482 5.807034 -0.56208676
0.88665777 6.3688087 -0.56257159
0.979886 7.0384617 -0.56225199
1.0942589 7.8599949 -0.56155252
1.2401969 8.9082594 -0.56136197
1.4276017 10.254376 -0.55984944
1.6893523 12.134515 -0.56041998
2.0624804 14.814672 -0.55967122
2.6469932 19.013191 -0.5585621
3.6888461 26.496758 -0.55593127
6.098237 43.803265 -0.55137378
0.26366499 2.0809295 -0.56204045
0.27123168 2.1406481 -0.55899131
0.28260154 2.2303829 -0.56252718
0.29308271 2.3131037 -0.5628413
0.30335325 2.3941619 -0.56138104
0.31702122 2.5020342 -0.56462187
0.3302125 2.606144 -0.56523061
0.3427096 2.7047751 -0.5629555
0.35922348 2.8351078 -0.56536019
0.37409723 2.9524963 -0.56310803
0.3909964 3.08587 -0.56180942
0.40855673 3.2244618 -0.55918819
0.43132576 3.4041624 -0.56103057
0.45569173 3.5964665 -0.56183004
0.48265484 3.8092682 -0.56243587
0.51255065 4.0452156 -0.56269866
0.54493076 4.3007698 -0.56157207
0.58553064 4.6211972 -0.56408942
0.62912112 4.9652271 -0.56391877
0.67748398 5.3469229 -0.56194806
0.73830009 5.8269029 -0.56308866
0.80761659 6.3739715 -0.56210792
0.89305985 7.0483174 -0.5621196
0.99807227 7.8771095 -0.56185597
1.1311457 8.9273682 -0.56164718
1.3032949 10.286025 -0.56066
1.5396872 12.15171 -0.56029737
1.8814294 14.84885 -0.56004608
2.4143782 19.055054 -0.55887747
3.3703432 26.599838 -0.55718243
5.5726418 43.981094 -0.55270791
0.23825827 2.0857594 -0.56251115
0.24760836 2.1676118 -0.56519461
0.25439128 2.2269909 -0.56084037
0.26545155 2.3238146 -0.56461066
0.27590612 2.4153359 -0.56550765
0.28737676 2.5157521 -0.56687725
0.29732221 2.6028166 -0.56367338
0.30981627 2.7121921 -0.56366366
0.32226488 2.8211694 -0.56174803
0.33871138 2.9651453 -0.56468344
0.35555539 3.112601 -0.56583726
0.37260467 3.2618537 -0.56483543
0.39056754 3.4191043 -0.56265908
0.41279247 3.6136656 -0.5636813
0.43750039 3.8299634 -0.56465453
0.46403816 4.0622802 -0.56423604
0.49202064 4.3072443 -0.56158501
0.52674943 4.6112671 -0.56204414
0.56525981 4.9483943 -0.56117517
0.61134404 5.3518248 -0.56163073
0.6652481 5.8237114 -0.56194723
0.72837585 6.3763442 -0.56148487
0.80650806 7.060329 -0.56224412
0.90167636 7.8934503 -0.56218815
1.0219817 8.9466267 -0.56202567
1.1803858 10.333327 -0.56240463
1.3917254 12.183435 -0.5609287
1.6998451 14.880775 -0.5604195
2.1820304 19.101919 -0.55942279
3.046514 26.669777 -0.5578205
5.0419021 44.137791 -0.55385613
0.21323779 2.0948486 -0.56421268
0.21942514 2.1556332 -0.56132531
0.22823778 2.2422085 -0.56392336
0.23747632 2.332968 -0.5660823
0.24524586 2.409296 -0.5633449
0.2545782 2.500977 -0.56280005
0.26497898 2.6031542 -0.56299829
0.27650389 2.7163751 -0.56378376
0.28866491 2.835845 -0.56392074
0.30133703 2.9603357 -0.56301928
0.31633571 3.1076829 -0.56419343
0.33149537 3.2566113 -0.56317919
0.34863028 3.4249449 -0.56287223
0.36708051 3.6062 -0.5617702
0.38981241 3.8295183 -0.56383961
0.41221815 4.0496325 -0.56173277
0.44030085 4.3255167 -0.56321895
0.4697341 4.6146693 -0.56171232
0.50618821 4.9727945 -0.56319386
0.54781914 5.3817768 -0.56402439
0.59412771 5.8367124 -0.56245428
0.65149176 6.4002571 -0.56284261
0.71980947 7.0714102 -0.56237918
0.80318397 7.8904819 -0.5612309
0.91267699 8.9661417 -0.56250405
1.0518928 10.333797 -0.56168377
1.2443531 12.224527 -0.56207365
1.5175686 14.908599 -0.56072217
1.9481809 19.138935 -0.55976295
2.7214975 26.735998 -0.55846345
4.508347 44.290012 -0.55502862
0.18679349 2.0898063 -0.56219351
0.19364509 2.1664608 -0.56348211
0.20039377 2.2419636 -0.5631994
0.2080283 2.3273771 -0.56406236
0.21562243 2.4123385 -0.56339377
0.22363627 2.5019958 -0.56236798
0.23308386 2.6076934 -0.5633176
0.24391179 2.7288339 -0.56570441
0.2544724 2.8469841 -0.56547081
0.2667152 2.9839537 -0.56684452
0.2788443 3.1196518 -0.56570107
0.29147536 3.2609651 -0.56326973
0.30619678 3.4256654 -0.56232935
0.32393089 3.6240711 -0.56389099
0.34181112 3.8241115 -0.56238216
0.36295104 4.0606203 -0.56259531
0.38705766 4.3303199 -0.56318206
0.41505423 4.6435399 -0.56456262
0.44534114 4.9823833 -0.56361699
0.48068017 5.377749 -0.5629403
0.52292663 5.8503938 -0.56311047
0.57269627 6.4072065 -0.56279188
0.63341397 7.086503 -0.56291747
0.70781296 7.9188638 -0.56258804
0.80248791 8.9780674 -0.5625906
0.9254474 10.353712 -0.56210518
1.0933393 12.232052 -0.561759
1.3348401 14.933912 -0.56101447
1.7151858 19.18914 -0.56057209
2.3963449 26.809805 -0.55934733
3.9715927 44.433346 -0.55617082
0.16136909 2.0956466 -0.56318825
0.16752747 2.1756234 -0.56528676
0.17317563 2.2489743 -0.56438297
0.18011509 2.3390949 -0.56632268
0.1870722 2.4294446 -0.5668087
0.19361642 2.514432 -0.56458545
0.20059144 2.6050143 -0.56216353
0.20820554 2.703896 -0.55996156
0.21949261 2.8504777 -0.56558591
0.22951128 2.9805865 -0.56562603
0.24028337 3.1204803 -0.56527281
0.25137576 3.2645333 -0.56330955
0.26476169 3.4383719 -0.56383812
0.27891651 3.622196 -0.56302303
0.29461959 3.8261266 -0.56210327
0.31406081 4.0786033 -0.56450909
0.33294109 4.3237953 -0.56175858
0.35745397 4.6421361 -0.56381494
0.3834818 4.9801507 -0.56278849
0.41438487 5.3814788 -0.56275475
0.45059308 5.8517027 -0.56266063
0.49358603 6.4100375 -0.56246489
0.5450204 7.0779991 -0.56166714
0.61027861 7.9254851 -0.56248283
0.69266593 8.9954224 -0.56310183
0.79867369 10.372109 -0.56252831
0.94322014 12.249287 -0.56197536
1.1526479 14.969055 -0.56175977
1.4796418 19.215616 -0.56077164
2.0684271 26.861975 -0.55986279
3.4323645 44.574978 -0.55737317
0.13513684 2.0904658 -0.56130689
0.14039172 2.1717548 -0.56379044
0.1455929 2.2522132 -0.56470382
0.15042812 2.3270104 -0.56290656
0.15576585 2.4095809 -0.56168509
0.16301478 2.5217166 -0.56572825
0.1687866 2.6110024 -0.56296527
0.17551565 2.7150958 -0.56179148
0.18387939 2.8444765 -0.56390387
0.19253883 2.9784315 -0.5647251
0.20104937 3.1100833 -0.56289899
0.21166158 3.2742462 -0.56449378
0.22240466 3.4404335 -0.56368506
0.2344556 3.6268528 -0.56325614
0.24852416 3.8444829 -0.56430835
0.26450074 4.0916286 -0.56581897
0.28103465 4.3473954 -0.56433314
0.30092463 4.6550789 -0.5648948
0.32344225 5.0034099 -0.56492472
0.34802034 5.3836141 -0.56248802
0.37925956 5.8668613 -0.56362712
0.41459072 6.4134083 -0.56227082
0.45911181 7.1021161 -0.56309038
0.51397729 7.9508438 -0.56379133
0.58188188 9.001277 -0.56297791
0.67203242 10.395839 -0.56332445
0.79278445 12.263783 -0.56215066
0.9698447 15.002772 -0.56253499
1.2461597 19.277159 -0.56207794
1.7403408 26.92177 -0.56062067
2.8910451 44.722301 -0.55872858
0.10974696 2.0981588 -0.5629676
0.11364038 2.1725938 -0.56360281
0.11745488 2.2455199 -0.56262088
0.12216303 2.335531 -0.56456161
0.12594627 2.4078596 -0.56088036
0.13148591 2.5137672 -0.56353951
0.13746129 2.6280053 -0.56622404
0.14238006 2.722043 -0.56282419
0.14976804 2.8632877 -0.5672251
0.15639405 2.9899647 -0.56650436
0.16249423 3.1065888 -0.56186241
0.17058904 3.2613466 -0.56186569
0.17961587 3.4339228 -0.56221402
0.18975239 3.6277142 -0.56298506
0.20004627 3.8245144 -0.56097388
0.21275641 4.0675087 -0.56207925
0.22721849 4.343997 -0.5634867
0.24339734 4.6533065 -0.56427389
0.26109102 4.9915771 -0.56318367
0.282112 5.3934593 -0.56311166
0.30716187 5.8723664 -0.56375057
0.33677992 6.4386086 -0.56407446
0.37270126 7.1253581 -0.56452709
0.41613412 7.9557142 -0.56373125
0.47038856 8.992959 -0.56205338
0.54351676 10.391034 -0.5626595
0.64153725 12.265005 -0.56180263
0.78513461 15.010321 -0.56241351
1.0081902 19.274731 -0.56160319
1.4114704 26.984701 -0.56152731
2.3462734 44.856407 -0.56000119
0.084024578 2.1014481 -0.56353039
0.08698459 2.175478 -0.56403089
0.089989766 2.2506371 -0.5635832
0.093661994 2.3424792 -0.56592
0.096791156 2.4207392 -0.56356066
0.10052189 2.5140448 -0.56328201
0.10509972 2.6285357 -0.56601715
0.10867923 2.7180593 -0.56168169
0.11327318 2.8329535 -0.56089753
0.11894006 2.9746816 -0.56328899
0.12488411 3.1233418 -0.56457198
0.13082318 3.2718773 -0.56336021
0.13803223 3.4521754 -0.56488174
0.14471015 3.6191897 -0.56134355
0.15421225 3.8568363 -0.56539392
0.16345675 4.0880408 -0.56459606
0.17365292 4.3430457 -0.56304377
0.18574628 4.6455002 -0.56300771
0.19961806 4.9924321 -0.56296062
0.21577466 5.3965073 -0.56311029
0.23476356 5.8714185 -0.56333983
0.25738257 6.4371185 -0.56362402
0.28426662 7.1094856 -0.56295007
0.31828058 7.9601722 -0.5637272
0.36047167 9.0153685 -0.56313437
0.41640887 10.414353 -0.56360227
0.49180141 12.299915 -0.56308216
0.60093832 15.029421 -0.56280977
0.77239174 19.317457 -0.56252891
1.0808516 27.032013 -0.56219274
1.7982911 44.975121 -0.5611648
0.057974048 2.0948882 -0.56153762
0.060088821 2.1713054 -0.56271499
0.062018577 2.2410369 -0.56094581
0.065066636 2.3511784 -0.56778538
0.06741102 2.4358923 -0.56685257
0.069570482 2.5139244 -0.56302088
0.072155923 2.6073492 -0.56122142
0.075621225 2.7325675 -0.56444496
0.07911209 2.8587098 -0.56576169
0.082393579 2.9772863 -0.56354779
0.086199798 3.1148238 -0.56279808
0.090615638 3.2743897 -0.56355834
0.095401309 3.4473197 -0.56385267
0.10031939 3.6250341 -0.56201619
0.10654095 3.8498497 -0.56413502
0.11337133 4.0966649 -0.56555188
0.12065523 4.3598685 -0.56498963
0.128803 4.6542878 -0.56383812
0.1381516 4.9920983 -0.56268889
0.1495457 5.4038234 -0.56363922
0.16238223 5.8676705 -0.56274611
0.17830467 6.443027 -0.56390679
0.19714415 7.1237903 -0.56384814
0.22026956 7.9594254 -0.56343991
0.24970797 9.02318 -0.56338793
0.28824458 10.415697 -0.56344062
0.34122497 12.330141 -0.5642311
0.41689023 15.0643 -0.56388128
0.53577691 19.36026 -0.56354088
0.74961531 27.087297 -0.56310821
1.2480882 45.099579 -0.56248367
0.032282587 2.1000421 -0.56277019
0.033523679 2.1807775 -0.56502026
0.034643944 2.2536528 -0.56395441
0.036008552 2.3424232 -0.56552142
0.037264809 2.424145 -0.56396955
0.038853541 2.5274951 -0.56591034
0.040247057 2.6181457 -0.56339622
0.041891687 2.7251318 -0.56276011
0.043916196 2.8568299 -0.56524003
0.045715209 2.9738593 -0.56275016
0.047894239 3.1156092 -0.56279105
0.050400149 3.2786233 -0.56413764
0.053170633 3.4588485 -0.56558859
0.055951629 3.6397574 -0.5641495
0.059205178 3.8514068 -0.56421381
0.062664829 4.0764632 -0.56261408
0.066892438 4.3514771 -0.56375301
0.071506023 4.6515994 -0.56336337
0.076934353 5.0047226 -0.56396258
0.082912177 5.3935909 -0.56242305
0.090296663 5.8739657 -0.56320077
0.099088512 6.4458914 -0.56400824
0.1095143 7.1241088 -0.56372416
0.12242781 7.9641557 -0.56362563
0.1388586 9.0330095 -0.56385243
0.16021869 10.422523 -0.56366068
0.18955992 12.331225 -0.56413144
0.23186065 15.082966 -0.56443059
0.29786989 19.376989 -0.5638786
0.41697249 27.124834 -0.56373936
0.69500136 45.211128 -0.56372571
0.0065139998 2.1181679 -0.56756318
0.006704981 2.1802692 -0.56482452
0.0069552301 2.2616434 -0.56588978
0.0071362644 2.3205106 -0.56016761
0.0074369693 2.4182913 -0.56254393
0.0077638938 2.5245976 -0.56519753
0.0080591608 2.6206102 -0.56386262
0.008380862 2.7252183 -0.56271416
0.0087585775 2.8480408 -0.5634371
0.0091729164 2.9827721 -0.56437272
0.0095845358 3.1166189 -0.5629096
0.010066374 3.273299 -0.56315768
0.010636264 3.4586108 -0.5654856
0.01120274 3.6428127 -0.56455904
0.011822024 3.8441865 -0.56309223
0.012594515 4.0953789 -0.56516057
0.013404994 4.3589234 -0.56465364
0.014331399 4.6601639 -0.5643366
0.015419595 5.0140142 -0.56494558
0.016655641 5.4159412 -0.56468964
0.018083408 5.8802104 -0.5637356
0.019855747 6.4565248 -0.56487459
0.021924369 7.1291823 -0.56406164
0.024533506 7.9775996 -0.56451303
0.027834078 9.0508518 -0.56490207
0.032097839 10.437306 -0.56439614
0.037935302 12.335483 -0.56426221
0.046375223 15.079906 -0.56425208
0.059658915 19.399384 -0.56446624
0.083555058 27.169733 -0.56460845
0.13936095 45.316223 -0.56497204
-0.019432191 2.1074247 -0.56470591
-0.020126389 2.1827106 -0.56547832
-0.020857122 2.2619588 -0.56599009
-0.021488506 2.3304324 -0.56258404
-0.022412369 2.4306257 -0.56543458
-0.023233691 2.5196981 -0.56412196
-0.024167689 2.6209905 -0.56396568
-0.025214169 2.7344813 -0.56464815
-0.026289864 2.8511407 -0.56407171
-0.02756484 2.9894123 -0.56565052
-0.028762041 3.1192486 -0.56340587
-0.030327654 3.2890399 -0.56588721
-0.031747825 3.4430578 -0.56296396
-0.033471502 3.6299908 -0.56259316
-0.035557006 3.856164 -0.56486803
-0.037698146 4.0883713 -0.56421489
-0.040059339 4.3444428 -0.56279916
-0.042947445 4.6576586 -0.56405449
-0.046042163 4.9932809 -0.56263071
-0.049924307 5.4143004 -0.56453985
-0.054340612 5.89325 -0.56500703
-0.059447382 6.4470797 -0.56406951
-0.065753601 7.130991 -0.56422609
-0.073440507 7.9646373 -0.56361705
-0.083273821 9.0310621 -0.56368822
-0.096157596 10.428309 -0.56393093
-0.11386132 12.348282 -0.56486899
-0.13918343 15.094469 -0.56481832
-0.17904504 19.417469 -0.56501383
-0.25082681 27.202215 -0.56530482
-0.41889435 45.429173 -0.5664016
-0.045659848 2.1217663 -0.56865633
-0.046789832 2.1742756 -0.56339949
-0.048209261 2.2402351 -0.5606603
-0.050596911 2.3511868 -0.56770152
-0.051973056 2.4151347 -0.56193703
-0.054495636 2.5323563 -0.56706309
-0.056322806 2.6172631 -0.56327015
-0.058706153 2.7280147 -0.56341928
-0.061268482 2.8470836 -0.56337547
-0.064125434 2.9798434 -0.56394649
-0.067135513 3.1197186 -0.5635972
-0.070255779 3.264714 -0.56180805
-0.07427524 3.4514942 -0.56445009
-0.078072228 3.6279366 -0.56238109
-0.083187141 3.8656213 -0.56636041
-0.088137433 4.0956564 -0.56532705
-0.093925007 4.3645988 -0.56551707
-0.10024785 4.6584153 -0.56425279
-0.10794855 5.0162582 -0.56532657
-0.11662212 5.4193106 -0.56516904
-0.12659675 5.8828216 -0.5641138
-0.13875909 6.4479933 -0.56425607
-0.15339248 7.1279917 -0.56409538
-0.17146119 7.9676261 -0.56393516
-0.19450778 9.0385771 -0.56426394
-0.22458759 10.436355 -0.56447268
-0.26610836 12.365783 -0.56577653
-0.32490325 15.097921 -0.5650543
-0.41799068 19.423599 -0.56529903
-0.58618635 27.239481 -0.56618625
-0.97961444 45.521679 -0.56766224
-0.071114868 2.1024256 -0.56366456
-0.073635049 2.1769316 -0.56427968
-0.076088056 2.2494519 -0.56315851
-0.079180211 2.3408675 -0.56540227
-0.082120381 2.4277902 -0.56507391
-0.085157797 2.5175877 -0.56394786
-0.088914067 2.6286373 -0.56591052
-0.092488267 2.7343042 -0.56491041
-0.096306629 2.8471897 -0.5635882
-0.1006934 2.9768794 -0.56357723
-0.10563479 3.1229656 -0.56437582
-0.11119843 3.2874475 -0.56591266
-0.11656602 3.4461341 -0.56376523
-0.12311747 3.6398199 -0.56441516
-0.13065013 3.8625138 -0.56609768
-0.13828723 4.0882955 -0.56450313
-0.14747074 4.3597951 -0.5650869
-0.1574273 4.6541486 -0.56392783
-0.16899362 4.9960928 -0.56324559
-0.18289962 5.407207 -0.56409872
-0.19921902 5.8896704 -0.56496274
-0.2181053 6.4480205 -0.5644505
-0.24068984 7.1157055 -0.56331468
-0.26954433 7.9687538 -0.5642069
-0.30591455 9.0439959 -0.5647943
-0.35319766 10.441864 -0.5649628
-0.41721046 12.334325 -0.56452924
-0.51103967 15.108272 -0.56563413
-0.65752518 19.43894 -0.56593806
-0.9222042 27.263857 -0.56688577
-1.5428857 45.61356 -0.56900156
-0.097135141 2.1051891 -0.56468296
-0.10044724 2.1769714 -0.56456745
-0.10395171 2.252923 -0.56430489
-0.1072948 2.325377 -0.56193697
-0.11187945 2.4247394 -0.5646413
-0.11639627 2.5226314 -0.56535548
-0.12047154 2.6109538 -0.5623799
-0.12633851 2.7381072 -0.56597435
-0.13159439 2.8520167 -0.5648213
-0.13767296 2.9837565 -0.565157
-0.14400634 3.1210184 -0.56430131
-0.15112206 3.2752361 -0.56408775
-0.15907472 3.4475923 -0.56428111
-0.16773114 3.635201 -0.56397611
-0.17695422 3.8350909 -0.56235492
-0.18924601 4.1014881 -0.56660318
-0.20124809 4.3616066 -0.56559968
-0.21491742 4.6578588 -0.56465495
-0.23113316 5.0092993 -0.5650121
-0.24987268 5.4154367 -0.56523508
-0.27192229 5.8933134 -0.5655902
-0.29752102 6.4481091 -0.56473577
-0.32887903 7.1277242 -0.5645436
-0.36824036 7.980794 -0.56533718
-0.41748187 9.0479946 -0.56532192
-0.48103136 10.425289 -0.56434345
-0.56951916 12.343066 -0.56520712
-0.69657719 15.096767 -0.56548136
-0.89743382 19.449888 -0.56653523
-1.2593306 27.293201 -0.56777495
-2.1081927 45.690403 -0.57024044
-0.12392692 2.1194789 -0.56888175
-0.12728953 2.1769888 -0.56493521
-0.13227804 2.2623053 -0.56701946
-0.13738029 2.3495672 -0.5681479
-0.14077559 2.4076359 -0.56101918
-0.14718394 2.5172358 -0.56450921
-0.15262897 2.6103604 -0.56261379
-0.15979578 2.7329316 -0.56526792
-0.16678405 2.8524497 -0.56527048
-0.17389674 2.9740956 -0.56368947
-0.18215226 3.1152868 -0.5636273
-0.19088463 3.2646334 -0.56262344
-0.20112935 3.4398453 -0.56337535
-0.21263422 3.6366091 -0.56455755
-0.2243101 3.8362978 -0.56289375
-0.23851693 4.0792718 -0.56389666
-0.25411618 4.3460608 -0.56394631
-0.27253109 4.6610045 -0.56539977
-0.29271245 5.0061593 -0.56502122
-0.31598055 5.4041052 -0.56441522
-0.34376347 5.8792672 -0.56460518
-0.37678462 6.4440165 -0.56474048
-0.41637939 7.1211915 -0.56438905
-0.46667176 7.9813251 -0.56573856
-0.52890861 9.0457401 -0.56554466
-0.61070228 10.444628 -0.565754
-0.72232938 12.353748 -0.56606019
-0.88412523 15.120886 -0.5667491
-1.1377939 19.459293 -0.56717384
-1.5963531 27.30187 -0.56832069
-2.6755323 45.758698 -0.57146019
-0.1488242 2.1015069 -0.56450647
-0.15416068 2.1768618 -0.56535143
-0.15940332 2.2508917 -0.56460744
-0.16490951 2.3286433 -0.56353605
-0.17214261 2.4307799 -0.56686252
-0.17745447 2.5057874 -0.56238866
-0.18543175 2.6184323 -0.56480229
-0.19335076 2.7302547 -0.56516325
-0.20139985 2.8439136 -0.56402701
-0.21012308 2.967092 -0.56280923
-0.22064371 3.1156511 -0.56414145
-0.23245236 3.2823977 -0.56613475
-0.24363294 3.4402759 -0.56389391
-0.25838917 3.6486449 -0.56687641
-0.27236518 3.8459959 -0.56476551
-0.2887567 4.0774565 -0.56409389
-0.30812129 4.3508987 -0.56502301
-0.3300159 4.6600666 -0.56573546
-0.35447493 5.005446 -0.56538993
-0.38250861 5.4013023 -0.56457102
-0.41673049 5.8845406 -0.56556094
-0.45607203 6.4400716 -0.56484354
-0.50486898 7.1291203 -0.5654667
-0.56390715 7.9627824 -0.56487298
-0.64046609 9.0438519 -0.56587619
-0.73914182 10.437224 -0.56580251
-0.87375253 12.338027 -0.56578934
-1.0691432 15.097086 -0.56630701
-1.3769176 19.443087 -0.56715208
-1.9342973 27.313698 -0.56901896
-3.2466052 45.844444 -0.5729863
-0.17492907 2.1028473 -0.56540161
-0.18058738 2.1708667 -0.56432849
-0.18859319 2.2671058 -0.56921315
-0.19368982 2.3283732 -0.56400436
-0.20068674 2.4124839 -0.56312877
-0.2090376 2.512871 -0.56451267
-0.21588275 2.5951576 -0.56031209
-0.22595191 2.7162004 -0.56278664
-0.23703308 2.8494086 -0.56565213
-0.24784864 2.979424 -0.56568378
-0.25948116 3.1192603 -0.56532997
-0.27247041 3.2754059 -0.5654639
-0.28538278 3.4306273 -0.56284505
-0.30287504 3.6409044 -0.56620961
-0.31944633 3.8401101 -0.5644353
-0.3391324 4.0767593 -0.56453168
-0.3617661 4.3488421 -0.56529093
-0.38648516 4.6459932 -0.56456125
-0.41582352 4.9986744 -0.56515986
-0.44961146 5.4048438 -0.56547636
-0.48944232 5.8836565 -0.56601161
-0.53479195 6.4288111 -0.56438994
-0.59258014 7.1234908 -0.56555539
-0.6618166 7.9557924 -0.56491172
-0.75158411 9.0349007 -0.56585163
-0.86743611 10.427574 -0.56581485
-1.0269496 12.345109 -0.56665039
-1.257587 15.117634 -0.56761491
-1.6185323 19.45661 -0.56808412
-2.2737446 27.33301 -0.56996065
-3.8173389 45.888779 -0.57408363
-0.2004039 2.0966918 -0.5643664
-0.20684908 2.1641233 -0.56319416
-0.21380599 2.2369089 -0.56224906
-0.22214814 2.324187 -0.56360948
-0.2305021 2.4115889 -0.56353885
-0.24049637 2.5161524 -0.56587142
-0.24977393 2.6132174 -0.56483179
-0.25969777 2.7170439 -0.56358045
-0.27156398 2.841192 -0.56464124
-0.28281027 2.9588544 -0.56239611
-0.29779491 3.1156287 -0.56529272
-0.31202054 3.264462 -0.56419426
-0.32816911 3.4334137 -0.56392163
-0.34597787 3.6197348 -0.56353647
-0.36583608 3.827498 -0.56320018
-0.38994789 4.0797639 -0.56556892
-0.41596052 4.3519163 -0.56631255
-0.44279441 4.6326613 -0.56356019
-0.47659603 4.9863048 -0.5643813
-0.5165925 5.4047613 -0.56608951
-0.56356573 5.8962107 -0.56784308
-0.61496985 6.4340177 -0.56546819
-0.67980623 7.1123571 -0.56529242
-0.76129413 7.96491 -0.56618106
-0.86339849 9.0331602 -0.56636471
-0.99676865 10.428522 -0.56648856
-1.1785516 12.330395 -0.56659734
-1.4426236 15.093205 -0.56732088
-1.8597717 19.457544 -0.56873614
-2.611259 27.319853 -0.57031274
-4.3907146 45.937107 -0.57532018
-0.22519307 2.0850358 -0.56193185
-0.23261489 2.1537535 -0.56119746
-0.23995893 2.2217512 -0.55913854
-0.25083345 2.322437 -0.5638904
-0.26117414 2.4181805 -0.56578684
-0.27006838 2.500531 -0.56306249
-0.28047022 2.5968404 -0.56199497
-0.29317471 2.7144699 -0.56375164
-0.3058438 2.8317714 -0.56347382
-0.31950599 2.9582679 -0.56298882
-0.33635131 3.1142368 -0.5657478
-0.35226491 3.2615788 -0.56440192
-0.37109122 3.4358895 -0.56503499
-0.39053857 3.6159501 -0.56365228
-0.4138425 3.8317184 -0.56452733
-0.4396967 4.0710998 -0.56507462
-0.46818417 4.3348613 -0.56479967
-0.50178421 4.6459603 -0.56588584
-0.53816253 4.9827828 -0.56468898
-0.58199817 5.3886518 -0.56510907
-0.63380498 5.8683248 -0.56586528
-0.69363642 6.422297 -0.56514496
-0.76744145 7.105649 -0.56546652
-0.85948843 7.957901 -0.56639123
-0.97333503 9.0119934 -0.56574517
-1.1246933 10.413402 -0.56637555
-1.3317084 12.33013 -0.56729472
-1.6292263 15.084813 -0.56771553
-2.1008754 19.451756 -0.56927896
-2.9531403 27.342773 -0.57150608
-4.968863 46.006111 -0.57690603
-0.25134104 2.0864956 -0.56311566
-0.25920373 2.1517673 -0.56146795
-0.2706905 2.247124 -0.56631887
-0.28016666 2.3257899 -0.56549817
-0.29097039 2.4154766 -0.56594855
-0.30213937 2.5081952 -0.56558216
-0.3136158 2.6034663 -0.56422085
-0.32642588 2.7098083 -0.56357455
-0.34209034 2.8398461 -0.56587481
-0.35750806 2.9678357 -0.56560355
-0.37521473 3.1148269 -0.56665033
-0.39239624 3.2574582 -0.5644812
-0.41431594 3.4394236 -0.5664112
-0.43483168 3.6097341 -0.56347418
-0.46126157 3.8291404 -0.56494045
-0.48837402 4.054213 -0.56352174
-0.5203985 4.3200626 -0.56366265
-0.55848461 4.6362329 -0.56549472
-0.6001066 4.9817557 -0.56536603
-0.64910692 5.3885293 -0.56589049
-0.70552939 5.8569179 -0.56555915
-0.77317291 6.418457 -0.56560093
-0.85315371 7.0824142 -0.56440967
-0.9548769 7.9268641 -0.56497526
-1.0851519 9.0083361 -0.56631047
-1.2545487 10.414575 -0.56723553
-1.4832093 12.31279 -0.56729317
-1.8174727 15.087662 -0.56862086
-2.3423717 19.445086 -0.56988364
-3.2938893 27.344061 -0.57233632
-5.5446334 46.028503 -0.57799804
-0.27774116 2.0889976 -0.56466997
-0.28548458 2.147239 -0.56115991
-0.29766494 2.238852 -0.5651139
-0.30673999 2.3071089 -0.5618307
-0.31987318 2.4058886 -0.56458098
-0.33232662 2.4995556 -0.56451279
-0.3460921 2.6030912 -0.56501913
-0.36069423 2.7129195 -0.56510133
-0.37665623 2.8329759 -0.56538594
-0.39176211 2.9465928 -0.56243062
-0.41124511 3.0931318 -0.56358093
-0.4348731 3.2708473 -0.56768507
-0.45404235 3.4150264 -0.56327027
-0.48001403 3.6103692 -0.56445205
-0.50786883 3.819876 -0.56445229
-0.53734189 4.0415545 -0.56263804
-0.57550812 4.3286171 -0.56565934
-0.61589003 4.6323447 -0.5659014
-0.65860152 4.9535942 -0.56304663
-0.71546066 5.3812537 -0.56600755
-0.77689916 5.8433561 -0.56512928
-0.8516717 6.4057488 -0.5653612
-0.9438709 7.0992146 -0.5666306
-1.0535007 7.9237819 -0.5656361
-1.1968386 9.0018816 -0.566787
-1.3821423 10.395621 -0.56708604
-1.6367116 12.310335 -0.56806439
-2.004992 15.080312 -0.56922996
-2.5823643 19.422951 -0.57012242
-3.6347852 27.33861 -0.5731144
-6.1248927 46.067661 -0.57939178
-0.30423036 2.0910943 -0.56620508
-0.31406993 2.1587253 -0.56512833
-0.32535833 2.236315 -0.56544065
-0.33833906 2.3255367 -0.56728846
-0.35047993 2.4089856 -0.56627625
-0.363543 2.4987731 -0.56530291
-0.3777301 2.5962868 -0.5645076
-0.39138672 2.6901538 -0.56131929
-0.41150147 2.8284104 -0.56544191
-0.42911059 2.9494448 -0.56393957
-0.4485082 3.0827723 -0.56265569
-0.47260052 3.248368 -0.56474954
-0.49692431 3.415555 -0.56432265
-0.52577472 3.6138554 -0.56596506
-0.55614448 3.8225985 -0.5658223
-0.58916873 4.0495868 -0.56472218
-0.62831163 4.3186312 -0.56532133
-0.67275929 4.6241379 -0.56586665
-0.72224444 4.9642682 -0.56522655
-0.78144586 5.3711829 -0.56591618
-0.84888625 5.8347268 -0.56526154
-0.93324065 6.4145279 -0.56710595
-1.0297428 7.0778251 -0.56589127
-1.1520671 7.9186068 -0.56623513
-1.3074616 8.9866953 -0.5668003
-1.5105911 10.382883 -0.56736153
-1.7892631 12.298305 -0.56848156
-2.1887949 15.044442 -0.56884897
-2.8243091 19.41258 -0.57079428
-3.9750044 27.32176 -0.57374245
-6.7051497 46.087112 -0.58062947
-0.32749364 2.0718548 -0.56204349
-0.33863828 2.1423602 -0.56189173
-0.35216364 2.227927 -0.564372
-0.36705106 2.3221109 -0.5675109
-0.37947226 2.4006922 -0.56538087
-0.39323422 2.4877558 -0.56386173
-0.40995336 2.5935276 -0.56496108
-0.4263736 2.6974087 -0.56388438
-0.44673279 2.8262091 -0.56605721
-0.46537367 2.9441388 -0.56397653
-0.4877069 3.0854275 -0.56419224
-0.51399469 3.2517345 -0.56639081
-0.53968471 3.4142597 -0.56516236
-0.57054549 3.6094975 -0.56633848
-0.60230005 3.8103893 -0.56506866
-0.64136088 4.0575037 -0.56688309
-0.67901093 4.2956929 -0.56336898
-0.72941566 4.614573 -0.56575102
-0.78575021 4.9709678 -0.56704664
-0.84748834 5.3615475 -0.56595623
-0.92204815 5.8332429 -0.56617337
-1.0111638 6.3970237 -0.56661487
-1.117981 7.0727911 -0.56654513
-1.2491641 7.9027081 -0.56615382
-1.4207112 8.9879827 -0.56794041
-1.6417761 10.386528 -0.56862086
-1.9398813 12.27246 -0.56834656
-2.3785691 15.047773 -0.57003772
-3.0659621 19.396494 -0.57138664
-4.3166075 27.308573 -0.57453674
-7.2926259 46.136047 -0.58233166
-0.35543901 2.0822914 -0.56601757
-0.36624178 2.1455779 -0.56387419
-0.38151872 2.2350757 -0.56732839
-0.39217412 2.2974989 -0.56263191
-0.41000772 2.4019747 -0.56682742
-0.42455843 2.4872181 -0.56488043
-0.44146496 2.5862627 -0.56451833
-0.46091071 2.7001829 -0.56560636
-0.4803907 2.8143039 -0.56481314
-0.50473666 2.9569314 -0.56757307
-0.52719885 3.0885231 -0.56590092
-0.55359006 3.2431326 -0.56603539
-0.58124012 3.4051166 -0.56478924
-0.61214805 3.5861864 -0.56381935
-0.64943618 3.8046341 -0.56535673
-0.68826759 4.0321226 -0.56447679
-0.73648149 4.3145771 -0.56699044
-0.78610349 4.6052809 -0.56575412
-0.84519237 4.9514451 -0.56596237
-0.91462904 5.3582301 -0.56675041
-0.99419522 5.824358 -0.56645477
-1.0893101 6.3815751 -0.5663901
-1.2078706 7.0761466 -0.56796068
-1.3494934 7.9058247 -0.567523
-1.5303843 8.9655495 -0.56766903
-1.7655617 10.343304 -0.56740016
-2.0926924 12.259754 -0.56890684
-2.5626137 15.012726 -0.56986064
-3.3042119 19.357279 -0.57138509
-4.660212 27.301222 -0.57554418
-7.8747888 46.133385 -0.58347619
-0.38060179 2.07551 -0.56540364
-0.39078316 2.1310315 -0.56127173
-0.40736383 2.2214496 -0.56509846
-0.42157292 2.2989352 -0.56421041
-0.43972957 2.3979475 -0.56711018
-0.45554116 2.4841719 -0.565418
-0.47340661 2.5815964 -0.56472772
-0.4957248 2.7033026 -0.5674938
-0.51693004 2.8189397 -0.56697637
-0.53770208 2.9322145 -0.5640552
-0.56301391 3.0702457 -0.56377786
-0.59206367 3.2286608 -0.56473756
-0.6234321 3.3997202 -0.56512302
-0.65565705 3.5754504 -0.5633564
-0.69867259 3.810024 -0.56739134
-0.73999834 4.0353832 -0.56616431
-0.78961545 4.3059568 -0.56709069
-0.84367645 4.6007638 -0.56643087
-0.90861392 4.9548831 -0.56758952
-0.97824878 5.3346181 -0.56548244
-1.0637021 5.8006148 -0.56537491
-1.1673415 6.3657846 -0.56621981
-1.2931705 7.0519595 -0.5672527
-1.4458541 7.8845787 -0.56723124
-1.6408815 8.9481087 -0.56779933
-1.896383 10.341417 -0.56853288
-2.2459047 12.24744 -0.56957388
-2.7502129 14.99755 -0.57052517
-3.5503769 19.361031 -0.57274127
-5.0010858 27.272081 -0.57618272
-8.4586754 46.127121 -0.58466828
-0.40406787 2.0603497 -0.5625847
-0.42101339 2.1467552 -0.56673372
-0.43323416 2.209069 -0.56326163
-0.45302865 2.3100016 -0.5682506
-0.46741542 2.3833601 -0.56497687
-0.48471263 2.4715588 -0.56386113
-0.50477946 2.57388 -0.5643549
-0.52498937 2.6769304 -0.56327015
-0.54955578 2.8021953 -0.56492501
-0.57505572 2.9322197 -0.56537378
-0.60098743 3.0644462 -0.56402725
-0.63177323 3.2214234 -0.56478781
-0.66504747 3.3910894 -0.565005
-0.70245546 3.5818334 -0.56568033
-0.74571317 3.8024054 -0.56757945
-0.78702772 4.0130692 -0.56434876
-0.84277898 4.2973456 -0.56727856
-0.90127414 4.595614 -0.56711835
-0.96529639 4.9220643 -0.5651471
-1.0419228 5.3127837 -0.56448334
-1.1378742 5.802042 -0.56683493
-1.2440099 6.3432293 -0.56553143
-1.3777435 7.0251393 -0.56641531
-1.541899 7.8621716 -0.56694037
-1.7517986 8.9324541 -0.56812996
-2.021832 10.30936 -0.56809431
-2.3999147 12.23721 -0.57042742
-2.937948 14.980651 -0.57121342
-3.7886682 19.318489 -0.57281762
-5.3426704 27.242376 -0.57689947
-9.0491638 46.141857 -0.5862211
-0.43076175 2.0618854 -0.56440771
-0.44320023 2.1214235 -0.56144255
-0.46028772 2.2032144 -0.56316942
-0.47817743 2.2888453 -0.56445003
-0.49349713 2.3621747 -0.56135088
-0.51748651 2.4770024 -0.56651193
-0.53946239 2.5821919 -0.56758898
-0.5601064 2.6810067 -0.56553429
-0.58156049 2.7836988 -0.56259525
-0.61081386 2.9237232 -0.56514096
-0.64064282 3.0665026 -0.56581289
-0.67248076 3.2188981 -0.56575203
-0.70560628 3.3774569 -0.56413656
-0.74761242 3.5785236 -0.56656665
-0.78697133 3.7669191 -0.56368428
-0.83890808 4.0155196 -0.56610125
-0.89600378 4.2888141 -0.56756383
-0.95773643 4.5843034 -0.56713307
-1.0282073 4.9216199 -0.5665049
-1.1103901 5.3149958 -0.56612635
-1.2100527 5.7920413 -0.56726867
-1.3265229 6.3495383 -0.5675053
-1.4658493 7.016438 -0.56712413
-1.643091 7.8648233 -0.56854558
-1.864693 8.9255447 -0.5691058
-2.1541727 10.311169 -0.5696106
-2.5487425 12.199818 -0.57010216
-3.1225381 14.946349 -0.57132632
-4.0342908 19.310547 -0.57400966
-5.6828475 27.201532 -0.57747066
-9.6373949 46.130383 -0.58753651
-0.45825377 2.0662289 -0.56709629
-0.4729099 2.1323123 -0.56582052
-0.48943728 2.2068329 -0.56558996
-0.50460374 2.2752171 -0.56257683
-0.52672493 2.3749599 -0.5658856
-0.54564679 2.4602771 -0.56417859
-0.56885248 2.5649097 -0.56528497
-0.59385234 2.6776319 -0.56632
-0.61988491 2.7950106 -0.56637913
-0.6480943 2.9222045 -0.56634498
-0.67682505 3.0517492 -0.56458366
-0.70991564 3.2009518 -0.56408942
-0.75029033 3.3829982 -0.56656033
-0.79233986 3.5725961 -0.56712782
-0.8380236 3.7785802 -0.56692845
-0.89098281 4.0173688 -0.56786358
-0.94436127 4.2580481 -0.56498635
-1.0129073 4.5671167 -0.5665049
-1.0874761 4.9033413 -0.56589735
-1.174395 5.2952518 -0.56551874
-1.2785548 5.7648997 -0.56610745
-1.4036171 6.3287954 -0.56715107
-1.5532694 7.0035653 -0.56758451
-1.7407683 7.8489828 -0.56890482
-1.9709294 8.8867607 -0.5681352
-2.2792487 10.276947 -0.56922537
-2.6992002 12.170474 -0.57023883
-3.3087339 14.918813 -0.57178575
-4.2719316 19.261793 -0.5740785
-6.029407 27.186106 -0.57867342
-10.225711 46.106899 -0.58879435
-0.48056436 2.0474007 -0.56350791
-0.49312744 2.1009245 -0.55905843
-0.51781064 2.2060852 -0.56698728
-0.53242302 2.2683396 -0.56245255
-0.55461311 2.3628786 -0.56458926
-0.57670522 2.4570003 -0.56501061
-0.60000491 2.5562663 -0.5649634
-0.6252014 2.6636136 -0.56493837
-0.65497476 2.7904603 -0.56704623
-0.68182331 2.9048462 -0.56456304
-0.7134077 3.0394087 -0.56388092
-0.75125402 3.2006493 -0.56562132
-0.79166603 3.3728211 -0.56644344
-0.83489877 3.5570104 -0.56624061
-0.88678509 3.7780671 -0.56844455
-0.93854296 3.9985769 -0.56679577
-0.99683142 4.2469096 -0.56509215
-1.0698249 4.5578918 -0.56694955
-1.147453 4.8886189 -0.56578386
-1.2392765 5.2798252 -0.56545591
-1.3551666 5.7735639 -0.5685516
-1.4842182 6.3233767 -0.56825805
-1.6383814 6.980175 -0.56727874
-1.8373165 7.8277197 -0.56895816
-2.0837576 8.8776598 -0.56914848
-2.4094515 10.265248 -0.57017529
-2.8512673 12.147565 -0.57076508
-3.4978504 14.902273 -0.57275701
-4.5161848 19.240795 -0.57506424
-6.3691664 27.135254 -0.57921427
-10.817383 46.086475 -0.59018761
-0.50439572 2.0360644 -0.56205243
-0.52381665 2.1144598 -0.56433147
-0.54062557 2.1823113 -0.56254321
-0.55932236 2.2577837 -0.56149805
-0.58393282 2.3571272 -0.56488794
-0.60924643 2.4593091 -0.56722146
-0.63404739 2.5594218 -0.56734097
-0.65965343 2.6627841 -0.56643999
-0.68618119 2.7698672 -0.56453341
-0.71373951 2.8811102 -0.5616132
-0.75300688 3.0396183 -0.56559491
-0.79012138 3.1894364 -0.56531399
