# .PCD v0.7 - Point Cloud Data file format
VERSION 0.7
FIELDS x y z
SIZE 4 4 4
TYPE F F F
COUNT 1 1 1
WIDTH 1485
HEIGHT 1
VIEWPOINT 0 0 0 1 0 0 0
POINTS 1485
DATA ascii
-1.7087228 1.6317033 -0.57034111
-1.7680568 1.6883627 -0.56868613
-1.8366519 1.753866 -0.56854326
-1.9029639 1.817189 -0.56614804
-1.9938438 1.9039725 -0.56925416
-2.0726171 1.9791952 -0.56695282
-2.1618397 2.0643961 -0.5655852
-2.2786171 2.1759098 -0.56905586
-2.3823819 2.2749975 -0.56674057
-2.5297315 2.4157057 -0.57190371
-2.6519299 2.5323958 -0.56828105
-2.8047366 2.6783147 -0.56806201
-2.9881024 2.8534155 -0.57016671
-3.1877718 3.044085 -0.57097715
-3.4028032 3.249424 -0.56977379
-3.6584499 3.4935477 -0.5699631
-3.9620621 3.7834747 -0.57119679
-4.3241611 4.129252 -0.57320905
-4.7448459 4.5309749 -0.57398939
-5.2600579 5.0229645 -0.57544786
-5.8963757 5.6306005 -0.57691985
-6.6960363 6.3942165 -0.57786995
-7.7534432 7.4039617 -0.57972074
-9.211915 8.7966938 -0.58264405
-11.363788 10.851572 -0.58793086
-14.783271 14.116924 -0.59477019
-21.172422 20.218088 -0.60836065
-37.235439 35.557076 -0.64188659
-14.839397 14.170522 2.6579559
-14.243653 13.60163 2.7178645
-1.5486127 1.4428256 -0.5671373
-1.5905143 1.4818648 -0.56316096
-1.661873 1.5483489 -0.56832546
-1.7189676 1.6015433 -0.56714445
-1.7845391 1.6626356 -0.56736881
-1.8576111 1.7307159 -0.56840044
-1.9193023 1.7881931 -0.56442446
-2.0056925 1.8686818 -0.5660339
-2.0905385 1.9477319 -0.56526095
-2.2036326 2.0531006 -0.56987119
-2.3075047 2.1498768 -0.56962508
-2.4166095 2.2515287 -0.56825387
-2.5601888 2.3852999 -0.57211512
-2.6846025 2.501215 -0.56864876
-2.8421545 2.6480043 -0.56900269
-3.0123761 2.8065979 -0.56817031
-3.2271299 3.0066817 -0.57136142
-3.4472976 3.2118094 -0.57056791
-3.7110362 3.4575319 -0.57148892
-4.0254765 3.7504923 -0.57364696
-4.3761091 4.0771732 -0.5734061
-4.8096671 4.4811144 -0.5751217
-5.3097796 4.9470634 -0.57418907
-5.9528289 5.546186 -0.57572711
-6.7747202 6.311933 -0.57791859
-7.8543577 7.3178191 -0.58049417
-9.3265543 8.6894484 -0.58309269
-11.496352 10.711026 -0.58793074
-14.972382 13.949605 -0.59543246
-21.44533 19.980379 -0.60909677
-37.738396 35.16045 -0.64305514
-15.273004 14.229691 2.5278602
-15.089958 14.059149 2.6716681
-14.176663 13.208242 2.6738892
-13.931094 12.979448 2.7890215
-1.5625303 1.420307 -0.56579548
-1.6103729 1.4637949 -0.56377655
-1.6740197 1.5216486 -0.56603783
-1.7448028 1.585989 -0.56919098
-1.8056701 1.6413161 -0.56762749
-1.8787979 1.7077876 -0.56841475
-1.9434577 1.766562 -0.56509715
-2.0307825 1.8459383 -0.56666589
-2.1311603 1.9371796 -0.56976074
-2.2153749 2.0137291 -0.5664615
-2.3302886 2.1181831 -0.56877679
-2.4423528 2.2200472 -0.56784517
-2.5828111 2.3477209 -0.57067615
-2.7200029 2.4724252 -0.56966442
-2.8727195 2.6112413 -0.5686506
-3.0644412 2.7855124 -0.57148689
-3.2510202 2.9551089 -0.56911469
-3.495137 3.1770058 -0.57197678
-3.7467754 3.4057398 -0.57050031
-4.0495448 3.6809506 -0.57058352
-4.4262791 4.0233941 -0.57345396
-4.8628721 4.420248 -0.57494092
-5.383307 4.8933125 -0.57558995
-6.0354576 5.4861035 -0.57715052
-6.857893 6.2336798 -0.57843107
-7.9475894 7.2241907 -0.58077538
-9.4429016 8.5833979 -0.58372384
-11.633424 10.574536 -0.58824641
-15.140355 13.762263 -0.59533757
-21.709024 19.733046 -0.60964847
-38.223087 34.74398 -0.64398563
-15.884825 14.438971 2.4186924
-15.567079 14.150146 2.5475419
-15.024278 13.656752 2.6301086
-14.115227 12.830443 2.6323452
-13.723372 12.474256 2.7165213
-1.595052 1.4144455 -0.57123053
-1.6370579 1.4516951 -0.56682652
-1.6986246 1.5062907 -0.5680517
-1.7634286 1.5637569 -0.56895131
-1.8277203 1.6207689 -0.56825113
-1.8845407 1.6711556 -0.56389254
-1.9708549 1.7476965 -0.56677181
-2.0513122 1.8190436 -0.56611025
-2.1519511 1.9082874 -0.56900275
-2.2551665 1.9998158 -0.57030517
-2.3564985 2.089674 -0.56885928
-2.4661045 2.1868694 -0.56707245
-2.6038365 2.3090062 -0.56900531
-2.7468584 2.4358337 -0.56897283
-2.9039271 2.5751176 -0.56851709
-3.0806069 2.7317922 -0.56819421
-3.3012903 2.9274876 -0.57156992
-3.5260611 3.1268079 -0.57070225
-3.7977138 3.3677015 -0.57190776
-4.1147103 3.6488049 -0.57340026
-4.4711661 3.9648998 -0.57290965
-4.9046597 4.349309 -0.573515
-5.437253 4.8215971 -0.57497519
-6.0978327 5.4073801 -0.57671326
-6.9284983 6.1439896 -0.57797039
-8.0326433 7.1231136 -0.58054626
-9.5522261 8.4706345 -0.58399898
-11.767253 10.434856 -0.58848089
-15.325988 13.590638 -0.59602058
-21.961145 19.474503 -0.6099577
-38.702438 34.32019 -0.64490288
-8.5861225 7.6139231 0.42939243
-8.5957851 7.6224914 0.52552468
-8.6114435 7.6363769 0.62237811
-8.6264467 7.6496806 0.719612
-8.6213474 7.6451588 0.81537914
-8.6158304 7.6402669 0.91110146
-8.6015892 7.6276383 1.0058069
-8.5906601 7.6179466 1.1007581
-8.56147 7.5920615 1.1930728
-8.5394192 7.5725074 1.2859737
-16.042128 14.22569 2.5964606
-14.947882 13.255344 2.588006
-14.05885 12.466978 2.5930467
-13.565701 12.029668 2.6558287
-1.5980915 1.3824159 -0.56618851
-1.6597716 1.4357718 -0.56853515
-1.7152865 1.4837945 -0.56747925
-1.7809204 1.5405705 -0.5684399
-1.8375846 1.5895875 -0.56519824
-1.919333 1.6603031 -0.5681513
-1.9844264 1.7166116 -0.56456172
-2.0867629 1.8051369 -0.56972486
-2.1709354 1.8779498 -0.56787366
-2.2721827 1.965533 -0.56845331
-2.3760731 2.0554025 -0.56744057
-2.5069039 2.1685765 -0.57027924
-2.6401548 2.2838442 -0.57076174
-2.7748432 2.4003553 -0.56861269
-2.9415374 2.5445528 -0.56971157
-3.1238744 2.702282 -0.57000273
-3.3332663 2.8834145 -0.57092428
-3.5671122 3.0857012 -0.5711621
-3.8382978 3.3202879 -0.57182783
-4.1572952 3.5962338 -0.57312888
-4.5227661 3.9123814 -0.57331365
-4.9613438 4.2917695 -0.57392889
-5.4968309 4.7549882 -0.57504892
-6.1670823 5.334784 -0.57701492
-7.0073867 6.0616822 -0.57828963
-8.1155443 7.0202847 -0.58025491
-9.6577959 8.3543968 -0.58412856
-11.892805 10.287773 -0.58838886
-15.494858 13.403699 -0.59613305
-22.226505 19.226856 -0.61071527
-39.172535 33.88588 -0.6457442
-8.6627073 7.4936037 0.1428014
-8.6290131 7.4644566 0.23709844
-8.6745167 7.503819 0.33373433
-8.719985 7.5431514 0.43141565
-8.7596626 7.5774746 0.52980709
-8.8181486 7.628067 0.6304906
-8.8479872 7.6538787 0.73018652
-8.8496408 7.6553087 0.82800496
-8.8570805 7.6617446 0.92658019
-8.8232775 7.6325035 1.0206779
-8.7790718 7.594264 1.1128504
-8.7171392 7.540689 1.2017535
-8.6536903 7.4858036 1.2892228
-8.5840778 7.4255857 1.3744731
-8.5617304 7.4062543 1.4664594
-13.985432 12.097982 2.5518742
-13.438006 11.624436 2.6026483
-1.6193202 1.366334 -0.56771421
-1.6689361 1.4081985 -0.56570023
-1.732661 1.4619676 -0.56723702
-1.7917969 1.5118648 -0.5659349
-1.864297 1.5730382 -0.56742203
-1.9345744 1.632336 -0.56667852
-2.0223889 1.7064315 -0.56934929
-2.0992696 1.771301 -0.56715006
-2.1984847 1.8550156 -0.56907028
-2.2915869 1.9335726 -0.56731665
-2.4159851 2.0385361 -0.57094258
-2.5340614 2.1381655 -0.57043308
-2.6543031 2.2396219 -0.56782389
-2.8088877 2.3700557 -0.569574
-2.9695272 2.5055983 -0.56912231
-3.1546175 2.661772 -0.56959707
-3.3684947 2.8422353 -0.57092887
-3.5993996 3.037066 -0.5703091
-3.8712721 3.2664638 -0.57071322
-4.1984429 3.5425208 -0.57275295
-4.571938 3.8576648 -0.57349038
-5.0147657 4.2313094 -0.57404649
-5.5694313 4.6993198 -0.57655531
-6.2317524 5.2581668 -0.57697254
-7.0748224 5.9695239 -0.57775342
-8.2050762 6.9231987 -0.58052576
-9.7688265 8.2426443 -0.58466953
-12.035368 10.155085 -0.58921957
-15.663921 13.216749 -0.59633976
-22.456638 18.94824 -0.6105904
-39.661854 33.465488 -0.64697796
-8.6806698 7.3244896 0.047198527
-8.6904078 7.3327065 0.14176096
-8.7469501 7.3804159 0.23782741
-8.8620024 7.4774928 0.33738449
-8.9819279 7.5786829 0.43973127
-9.0689211 7.6520848 0.5427798
-9.1335936 7.7066536 0.64622021
-9.1881933 7.7527237 0.75033832
-9.1924791 7.7563391 0.85109413
-9.1904945 7.7546644 0.95141274
-9.1556377 7.7252541 1.0480573
-9.0802221 7.6616201 1.1389962
-8.9891586 7.5847836 1.2263039
-8.8910646 7.5020151 1.3107445
-8.7382059 7.3730378 1.3845307
-8.6575499 7.3049817 1.467375
-8.5781031 7.237947 1.5488604
-13.331462 11.24869 2.5550306
-1.641134 1.3505473 -0.56949669
-1.6999078 1.3989142 -0.57032454
-1.7340431 1.4270055 -0.56190246
-1.8173277 1.4955434 -0.56814742
-1.9004469 1.5639451 -0.57252818
-1.9500232 1.6047431 -0.56538093
-2.0440831 1.6821485 -0.56959051
-2.1228659 1.7469815 -0.56767839
-2.2085092 1.8174603 -0.56583756
-2.3182266 1.9077507 -0.56806123
-2.4127109 1.9855051 -0.56435651
-2.560863 2.1074247 -0.57058978
-2.6871214 2.2113273 -0.56898457
-2.8358991 2.3337617 -0.56918913
-3.0051477 2.4730425 -0.5700779
-3.1845841 2.620707 -0.56914622
-3.4009278 2.7987437 -0.57054985
-3.6481674 3.0022058 -0.57214367
-3.9274032 3.2319992 -0.57308602
-4.2479644 3.4958005 -0.57360119
-4.6061077 3.790529 -0.57188666
-5.0684552 4.171011 -0.57427794
-5.6212463 4.6259227 -0.57598716
-6.2967687 5.1818337 -0.57704908
-7.1609468 5.8929963 -0.57882529
-8.2920771 6.823844 -0.58070058
-9.858304 8.1127472 -0.58401006
-12.161887 10.008448 -0.58934397
-15.833182 13.029686 -0.59663892
-22.71195 18.690468 -0.61123717
-40.131935 33.02599 -0.64797258
-8.7336969 7.1872683 -0.047002766
-8.7091866 7.167098 0.046870857
-8.8089466 7.2491937 0.14222977
-8.9880362 7.3965731 0.24189122
-9.2066259 7.576458 0.34693158
-9.3378611 7.6844563 0.45249656
-9.8204403 8.0815878 0.58176696
-9.8336649 8.0924711 0.68865919
-9.8333311 8.0921965 0.79483634
-9.8349934 8.093564 0.90129936
-9.8216028 8.0825453 1.0063813
-9.7815237 8.0495625 1.108289
-9.7330341 8.0096579 1.2084373
-9.3481426 7.6929173 1.2622764
-9.2274189 7.5935698 1.3464636
-9.0479393 7.4458694 1.4189923
-8.8530998 7.2855291 1.4852227
-8.6634655 7.1294727 1.5483273
-8.6070499 7.083046 1.6327614
-1.6548305 1.3280313 -0.56853974
-1.7128294 1.3745766 -0.56894594
-1.7688886 1.4195651 -0.56749457
-1.8260992 1.4654776 -0.56521326
-1.9008769 1.525488 -0.56696379
-1.9803828 1.589293 -0.56847417
-2.0648067 1.6570446 -0.56964433
-2.1581278 1.7319366 -0.57136965
-2.2262845 1.7866336 -0.56472033
-2.3411696 1.8788309 -0.5679791
-2.4559474 1.9709421 -0.56875801
-2.5716791 2.0638189 -0.56730241
-2.7118642 2.1763201 -0.56851423
-2.8601248 2.2953019 -0.5683437
-3.0419309 2.4412045 -0.57131803
-3.23259 2.5942121 -0.57198143
-3.4407294 2.7612476 -0.57148778
-3.6666148 2.9425247 -0.56931919
-3.95399 3.1731484 -0.5712288
-4.2805867 3.4352481 -0.57225901
-4.6663809 3.7448549 -0.57360941
-5.1272836 4.114738 -0.57516712
-5.6750383 4.5543208 -0.57571715
-6.3613706 5.1051149 -0.57717288
-7.2421956 5.8119931 -0.57957214
-8.3776941 6.7232509 -0.58086282
-9.9710197 8.0019236 -0.58481419
-12.289895 9.8628635 -0.58962548
-16.005417 12.844636 -0.59713227
-22.963308 18.428471 -0.61185706
-8.91854 7.1572895 -0.1425675
-8.7331705 7.0085273 -0.046532612
-8.7769699 7.0436773 0.046765991
-9.0245466 7.242362 0.14426206
-9.3540049 7.5067582 0.24923734
-10.090226 8.0975895 0.37644756
-10.127192 8.1272554 0.4858667
-10.148569 8.1444101 0.59522772
-10.147685 8.1437006 0.70358425
-10.158853 8.1526623 0.81298375
-10.143996 8.1407404 0.92037398
-10.123159 8.1240187 1.0269669
-10.085708 8.0939627 1.1313919
-10.013331 8.0358801 1.2308772
-9.9531784 7.9876056 1.3306111
-9.8413515 7.8978629 1.4217699
-9.392664 7.5377822 1.458409
-9.157733 7.349246 1.5210531
-8.8042221 7.0655475 1.557838
-8.6417933 6.9351954 1.6230521
-13.288962 10.664633 2.6406882
-1.6687039 1.3057605 -0.56774694
-1.7315961 1.3549736 -0.56960219
-1.781956 1.3943802 -0.56614327
-1.847839 1.4459337 -0.56639612
-1.9179071 1.500762 -0.56649631
-1.9866118 1.5545233 -0.56473249
-2.0683877 1.6185129 -0.56509888
-2.1578948 1.6885524 -0.56576812
-2.2610114 1.769241 -0.56796777
-2.3717611 1.8559026 -0.56982112
-2.4829574 1.9429135 -0.56943727
-2.6025119 2.0364649 -0.568537
-2.7418866 2.1455257 -0.56923425
-2.9073722 2.2750182 -0.57213014
-3.0713902 2.403362 -0.57125723
-3.2654626 2.5552237 -0.57219517
-3.46473 2.7111504 -0.56989384
-3.7169285 2.9084957 -0.57153511
-4.0000467 3.1300359 -0.57227898
-4.3239031 3.3834531 -0.57244462
-4.7090654 3.6848428 -0.57324332
-5.1731429 4.0479836 -0.57468432
-5.7358351 4.4882898 -0.57624239
-6.4207487 5.0242343 -0.57691133
-7.3080921 5.7185807 -0.57917446
-8.4691753 6.6271281 -0.58151162
-10.074074 7.8829608 -0.58512896
-12.413825 9.7138157 -0.58979607
-16.180904 12.661554 -0.59782559
-23.212397 18.163694 -0.61249655
-8.8892097 6.9558043 -0.14072073
-8.756484 6.8519468 -0.046204407
-8.8396549 6.917028 0.046643265
-10.316998 8.0730486 0.16332333
-10.377917 8.120718 0.2738381
-10.435466 8.1657495 0.38555253
-10.471896 8.1942568 0.49753264
-10.485975 8.2052736 0.60905331
-10.495186 8.2124805 0.72062182
-10.500983 8.2170172 0.83221465
-10.504362 8.2196617 0.94382846
-10.446067 8.1740456 1.049449
-10.39326 8.1327238 1.154587
-10.323968 8.0785027 1.2567558
-10.244486 8.0163078 1.3562748
-10.133682 7.9296041 1.4498063
-10.011251 7.8338022 1.5393844
-9.4731255 7.4127188 1.5581809
-9.0912485 7.1139002 1.5930265
-8.6763334 6.7892294 1.6137379
-8.7336187 6.8340549 1.7186539
-1.6897792 1.2890701 -0.56948131
-1.7394958 1.326997 -0.56679034
-1.8087517 1.3798299 -0.56922293
-1.8776902 1.4324205 -0.570104
-1.9515115 1.488736 -0.57097179
-2.0135698 1.536078 -0.56698358
-2.0905154 1.594777 -0.56574398
-2.1882117 1.6693059 -0.56829202
-2.2804081 1.7396392 -0.56742382
-2.3987758 1.8299376 -0.57086229
-2.5130081 1.9170811 -0.57087964
-2.6232514 2.0011816 -0.56764907
-2.7811949 2.121671 -0.57193547
-2.9325581 2.2371402 -0.57162976
-3.0906179 2.3577182 -0.56939822
-3.2972956 2.5153849 -0.57231003
-3.5010824 2.6708465 -0.57042813
-3.7430637 2.8554451 -0.57011169
-4.0374007 3.0799839 -0.57216144
-4.3613138 3.327085 -0.57193792
-4.7677813 3.6371641 -0.57490301
-5.2167401 3.9796586 -0.57404786
-5.7876086 4.4151525 -0.57594591
-6.4865365 4.948339 -0.57731164
-7.3736925 5.6251178 -0.57884789
-8.5621815 6.5317721 -0.58233887
-10.162539 7.7526264 -0.5846861
-12.533579 9.5614042 -0.58985513
-16.346615 12.470228 -0.5982374
-23.450432 17.889467 -0.61292666
-8.9239006 6.807714 -0.13993412
-8.7807207 6.6984878 -0.045894206
-8.833415 6.7386861 0.046169624
-10.659966 8.1320944 0.16715708
-10.739158 8.1925068 0.28069061
-10.790807 8.2319078 0.39491138
-10.80934 8.2460461 0.50870901
-10.834071 8.2649126 0.62332165
-10.845935 8.273963 0.73766357
-10.841942 8.2709169 0.85111159
-10.831678 8.2630873 0.96403581
-10.776012 8.2206221 1.0723602
-10.714894 8.1739969 1.1790624
-10.647626 8.1226807 1.2838995
-10.549431 8.0477705 1.3834407
-10.429752 7.9564729 1.4780555
-10.277143 7.8400536 1.5653273
-10.112196 7.714221 1.6475708
-9.427515 7.1919026 1.6363293
-8.6895752 6.6289558 1.6009189
-8.7700205 6.6903248 1.709499
-1.7004093 1.2644095 -0.56778109
-1.7576046 1.3069395 -0.56741154
-1.8247235 1.3568485 -0.5689556
-1.8799061 1.3978819 -0.56551516
-1.953091 1.4523015 -0.56616616
-2.0349369 1.5131613 -0.56771791
-2.1212049 1.5773096 -0.56875747
-2.2031233 1.6382234 -0.56689018
-2.3156228 1.7218771 -0.57087457
-2.4066236 1.7895443 -0.56745017
-2.5257626 1.8781352 -0.56848776
-2.6554601 1.9745771 -0.56932169
-2.7943416 2.0778482 -0.56934172
-2.958777 2.2001209 -0.57142389
-3.1241713 2.3231065 -0.57027394
-3.3214002 2.4697642 -0.57117951
-3.5337436 2.6276612 -0.57044208
-3.7863989 2.8155334 -0.57139575
-4.0713077 3.027389 -0.57164782
-4.4176998 3.2849631 -0.57399178
-4.804029 3.5722342 -0.57393378
-5.2780085 3.9246812 -0.57543582
-5.8590331 4.3567262 -0.5776788
-6.5460286 4.8675704 -0.57723576
-7.448833 5.5388875 -0.57935607
-8.6368265 6.4222693 -0.58200055
-10.270473 7.6370339 -0.58544868
-12.650031 9.4064531 -0.58984751
-16.49412 12.264885 -0.5980711
-9.4163342 7.001904 -0.24384703
-9.0006142 6.6927786 -0.139836
-8.8449345 6.5770168 -0.045803666
-8.8125668 6.5529485 0.04563605
-11.012243 8.1886091 0.17108923
-11.064354 8.2273569 0.28652444
-11.143193 8.2859812 0.40404832
-11.158801 8.2975874 0.52031422
-11.183365 8.3158531 0.6374864
-11.198925 8.3274231 0.75465
-11.181455 8.3144331 0.86967236
-11.139942 8.2835636 0.98233187
-11.106139 8.2584286 1.0950239
-11.032153 8.203413 1.2027825
-10.955215 8.146203 1.3088114
-10.850639 8.0684414 1.4098237
-10.708298 7.9625974 1.5035404
-10.550098 7.8449621 1.5920883
-10.358968 7.7028384 1.6722184
-8.7737331 6.5240717 1.5088145
-8.7286615 6.4905567 1.5932955
-8.8905058 6.6109028 1.7170092
-1.7046785 1.2353274 -0.56409186
-1.7667772 1.2803283 -0.56524754
-1.8339901 1.3290354 -0.56670648
-1.8916152 1.3707944 -0.56392419
-1.9820657 1.4363412 -0.56940252
-2.053926 1.4884161 -0.56786668
-2.1204033 1.5365901 -0.56343371
-2.2209718 1.6094689 -0.5663476
-2.323493 1.6837629 -0.5676676
-2.4340656 1.7638913 -0.56876349
-2.5498152 1.8477715 -0.56874442
-2.6844635 1.945347 -0.57036823
-2.8232892 2.0459497 -0.57007074
-2.9828353 2.1615677 -0.57089376
-3.1522992 2.2843728 -0.57023782
-3.3489542 2.4268827 -0.57074291
-3.5617874 2.5811162 -0.56980258
-3.8296478 2.7752264 -0.57272923
-4.1095538 2.9780655 -0.57183301
-4.4422336 3.2191482 -0.57199305
-4.8438559 3.5101912 -0.57349193
-5.3285823 3.8614573 -0.57572931
-5.8862371 4.2655725 -0.57514602
-6.6044636 4.7860484 -0.57715535
-7.5211706 5.4503579 -0.57972586
-8.71556 6.3158946 -0.58202869
-10.353682 7.5029902 -0.58488852
-12.787793 9.2669144 -0.59091312
-16.667679 12.078547 -0.59893358
-9.4662666 6.8599081 -0.24293731
-9.0904369 6.5875559 -0.13996243
-8.9422617 6.4801779 -0.045891564
-8.8498907 6.4132395 0.045417517
-8.8352308 6.4026165 0.13603312
-11.418324 8.2745037 0.2930339
-11.47369 8.3146248 0.41229364
-11.514265 8.3440285 0.5320645
-11.537938 8.3611841 0.65178823
-11.541929 8.3640766 0.77077484
-11.523057 8.3504 0.88818806
-11.47412 8.3149366 1.0027083
-11.4302 8.2831097 1.1168482
-11.343569 8.2203302 1.2256216
-11.245202 8.1490469 1.3313841
-11.135922 8.0698557 1.4338892
-10.987082 7.9619961 1.5288221
-10.814371 7.8368373 1.6173044
-10.622216 7.6975889 1.6993059
-8.7545223 6.3441296 1.4919826
-8.8460798 6.4104786 1.6002191
-9.1042309 6.5975523 1.742486
-9.570776 6.9356427 1.9325045
-1.7251148 1.21807 -0.56585526
-1.7884001 1.2627544 -0.56715477
-1.8491478 1.3056473 -0.56638646
-1.9217647 1.3569207 -0.56789523
-1.9955306 1.4090053 -0.56825042
-2.0674424 1.4597809 -0.566598
-2.15962 1.5248656 -0.568829
-2.2619541 1.5971217 -0.57174689
-2.356307 1.6637425 -0.57064325
-2.4577281 1.7353539 -0.56926346
-2.5726514 1.8164991 -0.56881285
-2.7038538 1.9091386 -0.56945717
-2.8501468 2.0124333 -0.570454
-3.013634 2.1278684 -0.57173735
-3.1773558 2.2434692 -0.56973708
-3.3736253 2.3820512 -0.56991249
-3.6140571 2.5518155 -0.57310134
-3.8560057 2.7226505 -0.57162106
-4.143589 2.9257076 -0.57151973
-4.4938774 3.1730394 -0.5735755
-4.9023571 3.4614589 -0.57533532
-5.3662004 3.7889695 -0.57471639
-5.9566388 4.2058668 -0.57692808
-6.6664219 4.7070308 -0.57746816
-7.5875435 5.3574166 -0.5797202
-8.8031006 6.2156982 -0.58272654
-10.458483 7.384531 -0.58563495
-12.89697 9.1062994 -0.59073913
-16.809675 11.868984 -0.59874636
-9.6399384 6.8065729 -0.24522784
-9.251791 6.5325098 -0.14119932
-9.0738506 6.4068689 -0.046159077
-8.9484663 6.3183379 0.045521244
-8.8856249 6.2739668 0.13561094
-8.8530684 6.2509794 0.22521086
-8.8907318 6.2775726 0.31668031
-11.848894 8.3662739 0.5427326
-11.869911 8.381114 0.66466957
-11.863977 8.3769236 0.78534311
-11.843466 8.3624411 0.90489054
-11.801829 8.3330421 1.0223147
-11.726605 8.2799282 1.135776
-11.646388 8.2232885 1.2473203
-11.53445 8.1442499 1.3536705
-11.408458 8.0552893 1.4561172
-11.248438 7.9423032 1.5514821
-8.7917299 6.2076697 1.3033016
-8.7962971 6.2108946 1.3948784
-8.8874207 6.2752352 1.5013678
-9.0478582 6.3885169 1.6223868
-9.7086639 6.8550987 1.8418978
-9.7907591 6.9130645 1.9596106
-1.7459476 1.2008842 -0.56780213
-1.7936735 1.2337106 -0.56397355
-1.8784354 1.2920109 -0.5704478
-1.9425037 1.3360779 -0.56912583
-2.0131998 1.3847036 -0.56839037
-2.0855858 1.4344915 -0.56669331
-2.1782849 1.4982511 -0.56884962
-2.2702541 1.5615087 -0.56894851
-2.3780487 1.6356511 -0.57099456
-2.4774218 1.7040012 -0.56892878
-2.6015236 1.7893598 -0.5702886
-2.7337639 1.8803164 -0.57084382
-2.8778808 1.9794418 -0.5710901
-3.0305433 2.0844448 -0.57003957
-3.2177651 2.2132182 -0.57205969
-3.4147453 2.3487039 -0.57193685
-3.627156 2.4948025 -0.57027078
-3.8864856 2.6731725 -0.5712235
-4.1824641 2.8767502 -0.57195944
-4.5225139 3.1106405 -0.5723052
-4.9396439 3.3975477 -0.57476485
-5.403018 3.7162621 -0.57372206
-6.0142508 4.1366754 -0.57753772
-6.722033 4.6234965 -0.57731694
-7.6615925 5.2697372 -0.58038306
-8.8732853 6.1031547 -0.58236063
-10.546352 7.2539105 -0.58551639
-13.007536 8.946743 -0.59071982
-16.963301 11.667567 -0.59906286
-9.8733473 6.7910089 -0.24902236
-9.4270277 6.484025 -0.14264612
-9.2400036 6.3553877 -0.046603236
-9.1057196 6.2630258 0.045925956
-9.0350847 6.2144423 0.1367154
-8.9506769 6.1563859 0.22575109
-8.9047585 6.1248021 0.31447357
-8.8738127 6.1035175 0.40299231
-8.8646727 6.0972309 0.49215227
-8.8664856 6.0984778 0.58191437
-12.168701 8.3697824 0.92180681
-12.105937 8.3266115 1.0397097
-12.038445 8.2801905 1.1560303
-8.8904953 6.1149917 0.94404155
-8.8340101 6.0761404 1.0279037
-8.8213415 6.0674267 1.1163039
-8.8362703 6.0776954 1.2083757
-8.9018393 6.1227942 1.3083644
-8.9657373 6.1667442 1.4096162
-9.0936537 6.2547269 1.5230992
-9.3273306 6.4154525 1.6582286
-10.061249 6.9202504 1.8925022
-10.09693 6.9447923 2.0036469
-1.7583081 1.1778034 -0.56706899
-1.8135393 1.2148001 -0.56548029
-1.8890076 1.2653526 -0.56889033
-1.9514045 1.3071492 -0.56698149
-2.0345891 1.3628705 -0.5696547
-2.0983715 1.4055951 -0.56542838
-2.1844225 1.4632363 -0.56571096
-2.2958496 1.5378758 -0.57058066
-2.3872306 1.5990875 -0.56843495
-2.5035286 1.6769897 -0.57014543
-2.6209807 1.7556652 -0.56977832
-2.7458625 1.8393172 -0.56860441
-2.8920655 1.9372514 -0.56913477
-3.0499909 2.0430377 -0.56892914
-3.2409081 2.1709237 -0.57138515
-3.4255157 2.2945831 -0.56897199
-3.6657667 2.4555154 -0.57155079
-3.9247477 2.628994 -0.57205248
-4.2198796 2.8266883 -0.57227957
-4.5770922 3.0659671 -0.57439762
-4.9636912 3.3249307 -0.57276231
-5.4618497 3.6586225 -0.57514858
-6.0565777 4.0570011 -0.57676816
-6.7787337 4.5407376 -0.57734764
-7.716671 5.1690154 -0.57969671
-8.941968 5.9897809 -0.58199036
-10.645613 7.1309686 -0.5861147
-13.130239 8.7952957 -0.59133595
-17.112925 11.463099 -0.59932363
-10.177697 6.8175354 -0.25456497
-9.6560678 6.4681215 -0.14489743
-9.4555998 6.3338375 -0.047294233
-9.3074894 6.2346263 0.046553429
-9.2131395 6.1714258 0.13825092
-9.1314802 6.1167259 0.22839694
-9.0712452 6.0763774 0.31769037
-9.0170107 6.0400486 0.40609181
-8.982399 6.0168638 0.49454322
-8.9556036 5.9989152 0.58287793
-8.9382477 5.987289 0.67146474
-8.9382162 5.9872684 0.76127172
-8.9310913 5.9824953 0.85050821
-8.935564 5.9854913 0.94094074
-8.960597 6.0022597 1.0339669
-9.0009861 6.0293145 1.1295699
-9.0309267 6.0493703 1.2247304
-9.1197348 6.1088581 1.329249
-9.2211657 6.1768017 1.4377251
-9.3934584 6.292212 1.5602365
-9.9602709 6.6718917 1.7560357
-10.411578 6.9742002 1.9421208
-10.502672 7.0352197 2.0668397
-1.7818037 1.1620604 -0.56999505
-1.8479025 1.2051688 -0.57153106
-1.8963455 1.2367625 -0.56647742
-1.9799532 1.2912899 -0.5706197
-2.0499668 1.3369516 -0.56931424
-2.1272752 1.3873707 -0.56857681
-2.211129 1.4420587 -0.56799215
-2.3096242 1.5062954 -0.56935775
-2.4153378 1.5752401 -0.5704723
-2.5205462 1.6438551 -0.56937456
-2.6471889 1.7264491 -0.57081753
-2.7677925 1.8051047 -0.5685063
-2.9221444 1.9057702 -0.57039928
-3.0818217 2.0099089 -0.57021344
-3.2659357 2.1299846 -0.57113677
-3.4705207 2.2634113 -0.57178116
-3.6954923 2.4101338 -0.57152152
-3.9495754 2.5758421 -0.57101148
-4.2526827 2.7735236 -0.57205981
-4.6014819 3.001004 -0.57278413
-5.0131311 3.2694743 -0.57378483
-5.49652 3.5847318 -0.57411432
-6.1089168 3.9841259 -0.57704335
-6.8503118 4.4676504 -0.57872128
-7.787056 5.078578 -0.58024901
-9.0258884 5.8865228 -0.58269727
-10.728853 6.9971662 -0.58591622
-13.243511 8.6371803 -0.59160948
-17.275385 11.266696 -0.60011595
-10.481773 6.8360248 -0.26004839
-9.9715767 6.503284 -0.14842071
-9.7206697 6.3396463 -0.048226479
-9.5545883 6.2313313 0.047402516
-9.453886 6.1656551 0.1407152
-9.3638802 6.1069546 0.23231392
-9.2938862 6.061306 0.32285297
-9.2376852 6.0246525 0.4126626
-9.2072706 6.004817 0.50282067
-9.1858358 5.9908371 0.59302318
-9.1631422 5.976037 0.68278754
-9.1660585 5.9779391 0.77435791
-9.1561441 5.9714732 0.86488205
-9.1652746 5.977428 0.95731771
-9.1967268 5.9979401 1.052624
-9.2406607 6.0265937 1.1502608
-9.2955341 6.0623808 1.250411
-9.4008894 6.1310921 1.3591375
-9.5508986 6.2289248 1.4770818
-9.8795338 6.4432549 1.6276898
-10.810916 7.0506859 1.8905797
-10.818307 7.0555058 2.0016551
-11.007422 7.1788435 2.1486363
-1.7956566 1.1398735 -0.56989968
-1.8568207 1.1787002 -0.56976354
-1.9039682 1.2086293 -0.56427228
-1.978826 1.2561486 -0.56580055
-2.0545123 1.3041939 -0.56608009
-2.1508629 1.3653568 -0.57035089
-2.2424774 1.4235131 -0.57150525
-2.3283548 1.4780277 -0.56945181
-2.4403994 1.5491529 -0.57184911
-2.5449352 1.6155118 -0.57035333
-2.6638806 1.6910176 -0.56988996
-2.8025603 1.7790508 -0.57111108
-2.9535532 1.8749003 -0.57198673
-3.1056914 1.9714769 -0.57010144
-3.2902844 2.0886555 -0.57086021
-3.4966884 2.2196796 -0.57155234
-3.7148628 2.3581758 -0.56998968
-3.9982264 2.5380535 -0.57348979
-4.274941 2.7137105 -0.57052207
-4.6372919 2.9437289 -0.57269263
-5.0589113 3.2113709 -0.57446152
-5.5579004 3.5281265 -0.57595062
-6.1531329 3.905977 -0.57663953
-6.9141445 4.3890634 -0.57951069
-7.8412113 4.9775605 -0.57967979
-9.0992832 5.7761779 -0.58280605
-10.818365 6.8674421 -0.58614856
-13.360709 8.4813089 -0.59214133
-17.413034 11.053704 -0.60013062
-10.926823 6.9362907 -0.2689535
-10.322932 6.5529442 -0.15243953
-10.037299 6.3716259 -0.049404915
-9.8572083 6.2573047 0.048518483
-9.7367554 6.1808419 0.14378341
-9.6362257 6.1170263 0.23718664
-9.5821333 6.0826888 0.33024293
-9.515995 6.0407047 0.42174512
-9.485651 6.0214424 0.51394099
-9.4608564 6.005703 0.60596472
-9.4465399 5.9966149 0.69835746
-9.4403887 5.9927101 0.79124844
-9.4342823 5.9888339 0.88413185
-9.4516392 5.9998517 0.9794485
-9.492219 6.0256114 1.077883
-9.5427561 6.0576925 1.1785038
-9.6304178 6.1133394 1.2852495
-9.7961178 6.2185249 1.4051164
-10.058062 6.3848057 1.5432578
-11.213422 7.1182222 1.8328936
-11.214855 7.119132 1.9457635
-11.245044 7.1382957 2.0642152
-12.218455 7.7562122 2.3662329
-1.8015468 1.1127739 -0.56738347
-1.859273 1.14843 -0.56614
-1.9300053 1.1921197 -0.56760144
-2.0047562 1.2382916 -0.56881797
-2.075824 1.2821887 -0.56756508
-2.1539938 1.3304724 -0.5668
-2.2466531 1.3877059 -0.5681777
-2.3509066 1.4521008 -0.57055718
-2.443444 1.509259 -0.56817085
-2.5647285 1.5841737 -0.57038045
-2.6740756 1.6517149 -0.56768304
-2.8176982 1.7404273 -0.56979167
-2.9715655 1.8354675 -0.57106096
-3.1352072 1.9365453 -0.57110518
-3.3152394 2.0477471 -0.57077807
-3.518126 2.1730654 -0.57064563
-3.7616596 2.3234906 -0.57274288
-4.0100279 2.4769015 -0.57077074
-4.3266068 2.6724453 -0.57298827
-4.6726251 2.8861728 -0.57262999
-5.1043019 3.1528096 -0.57516998
-5.5951986 3.4560251 -0.57536834
-6.1948071 3.8263896 -0.57609212
-6.9562135 4.2966928 -0.5785647
-7.907836 4.8844881 -0.5801211
-9.166419 5.6618853 -0.5826028
-10.908769 6.7380948 -0.58651322
-13.467369 8.3184834 -0.59229028
-17.552097 10.841526 -0.60028344
-25.226702 15.581952 -0.61616886
-10.678565 6.5959039 -0.15648167
-10.421237 6.4369578 -0.050901264
-10.215869 6.3101068 0.049898166
-10.087012 6.230515 0.14781316
-9.9936228 6.1728301 0.24409688
-9.9148941 6.1242018 0.33909035
-9.8704433 6.0967455 0.43409872
-9.8248453 6.0685806 0.52823579
-9.7960253 6.0507793 0.62261963
-9.7914591 6.0479584 0.71830422
-9.7888041 6.0463185 0.8141579
-9.789402 6.0466881 0.910375
-9.8192472 6.0651226 1.009738
-9.868926 6.0958085 1.112064
-9.9568939 6.1501436 1.2202169
-10.090828 6.2328715 1.3363651
-10.321314 6.3752379 1.4690931
-10.87463 6.7170081 1.6557497
-11.644891 7.1927805 1.8888197
-11.63273 7.1852694 2.0027838
-11.624072 7.1799212 2.1174254
-12.096056 7.4714551 2.3245611
-1.8146759 1.0902884 -0.56725317
-1.8790337 1.1289556 -0.56788707
-1.9456937 1.1690061 -0.56794488
-2.0247281 1.2164913 -0.57019734
-2.1005952 1.2620735 -0.57005167
-2.1786401 1.3089643 -0.56900698
-2.2603407 1.3580514 -0.56737316
-2.3734698 1.4260213 -0.57173431
-2.4656684 1.4814157 -0.56905985
-2.5718627 1.5452192 -0.56769854
-2.6961956 1.6199205 -0.56810731
-2.8441348 1.7088048 -0.57084543
-3.00021 1.8025776 -0.57226288
-3.1587164 1.8978109 -0.5710935
-3.3276072 1.9992833 -0.56863177
-3.5562584 2.1366611 -0.57252586
-3.7804368 2.2713511 -0.57130611
-4.0612082 2.4400434 -0.57374156
-4.3521104 2.6148224 -0.57206446
-4.716228 2.8335907 -0.57366014
-5.13135 3.083003 -0.57390267
-5.6458411 3.392118 -0.57624322
-6.2458444 3.7526102 -0.57650363
-7.0191216 4.2172084 -0.57944006
-7.9618273 4.7836022 -0.57972294
-9.2495632 5.5572963 -0.58349997
-10.995465 6.6062636 -0.58676261
-13.568163 8.1519852 -0.59226984
-17.694063 10.630896 -0.60062253
-25.44276 15.286446 -0.61680835
-11.174326 6.7137265 -0.16252442
-10.807296 6.4932084 -0.052392974
-10.602615 6.3702331 0.051400699
-10.465312 6.2877383 0.15221219
-10.354936 6.2214227 0.2510345
-10.299791 6.1882911 0.34962499
-10.259918 6.1643348 0.44786021
-10.213266 6.1363058 0.5450213
-10.20005 6.128365 0.64346057
-10.185217 6.1194525 0.74161416
-10.176725 6.1143508 0.84010541
-10.190775 6.1227922 0.94062841
-10.239998 6.1523662 1.0451462
-10.306699 6.192441 1.1527263
-10.423069 6.2623587 1.2678138
-10.628695 6.3859024 1.3970921
-10.998184 6.6078978 1.5537533
-12.126857 7.2860231 1.8326316
-12.05221 7.2411742 1.9402983
-11.920485 7.1620317 2.0370095
-11.83197 7.10885 2.1392109
-12.000553 7.2101378 2.2889967
-1.82345 1.0652679 -0.56585842
-1.9017639 1.1110191 -0.57058465
-1.9618808 1.1461397 -0.56851304
-2.0517125 1.19862 -0.57360256
-2.1206579 1.238898 -0.57131886
-2.189296 1.2789967 -0.56763953
-2.2817132 1.3329874 -0.56858057
-2.3809583 1.3909668 -0.56937504
-2.4811406 1.4494938 -0.56847417
-2.6043828 1.5214924 -0.57070398
-2.7200336 1.5890561 -0.56896996
-2.857491 1.6693593 -0.56936306
-3.0074978 1.756994 -0.56948894
-3.1748729 1.8547753 -0.56984794
-3.3588071 1.9622304 -0.5697971
-3.575954 2.0890887 -0.57151788
-3.8097606 2.2256796 -0.57155848
-4.0706229 2.3780766 -0.57089734
-4.3850255 2.5617518 -0.57220709
-4.7443595 2.7716765 -0.57289302
-5.1852117 3.0292244 -0.57571715
-5.6852221 3.3213329 -0.5760507
-6.2951493 3.677655 -0.57683682
-7.0590315 4.1239185 -0.57850474
-8.0316648 4.6921353 -0.58056307
-9.3204756 5.4450645 -0.58370548
-11.0643 6.4638147 -0.58615011
-13.669908 7.9860229 -0.59237981
-17.823257 10.412429 -0.60061646
-25.652105 14.986077 -0.61736941
-45.646965 26.667168 -0.65909082
-11.314666 6.6100798 -0.054454505
-11.039113 6.4491 0.053128339
-10.88466 6.3588681 0.15716223
-10.781935 6.2988558 0.25948891
-10.709512 6.256546 0.36089414
-10.657616 6.2262282 0.46184337
-10.628297 6.2090998 0.56305212
-10.603626 6.1946874 0.66406429
-10.607808 6.1971302 0.76677769
-10.607247 6.1968026 0.86928964
-10.619555 6.2039928 0.97309065
-10.699479 6.2506847 1.0841165
-10.787704 6.3022265 1.1977654
-10.970649 6.4091034 1.3247328
-11.345119 6.6278706 1.4804379
-12.618052 7.3715243 1.7696586
-12.633004 7.380259 1.8952638
-12.532019 7.3212628 2.0028985
-12.238454 7.1497612 2.0761645
-12.024866 7.0249825 2.1583054
-11.910318 6.9580626 2.255295
-1.83789 1.0436074 -0.5663144
-1.9116426 1.0854862 -0.5695008
-1.983476 1.1262753 -0.57071453
-2.0362544 1.1562444 -0.56526327
-2.119415 1.2034653 -0.56695437
-2.222585 1.2620482 -0.57220376
-2.2924423 1.3017153 -0.5672226
-2.4006293 1.363147 -0.57002759
-2.5042901 1.4220086 -0.56972873
-2.6261287 1.4911921 -0.57140785
-2.7347403 1.5528649 -0.56800914
-2.8709395 1.6302028 -0.56800562
-3.0246222 1.7174683 -0.56868958
-3.1969674 1.815331 -0.56976402
-3.3840413 1.9215569 -0.57002646
-3.5985832 2.04338 -0.57107562
-3.8435881 2.1825008 -0.57256395
-4.108849 2.3331237 -0.5721916
-4.4353518 2.5185215 -0.57468963
-4.7876229 2.7185512 -0.57403719
-5.2192116 2.9636197 -0.5754025
-5.7238097 3.2501454 -0.57586759
-6.3387318 3.5993159 -0.57673126
-7.1090417 4.0367203 -0.57849157
-8.0906944 4.594131 -0.5807026
-9.3734541 5.3225193 -0.5828805
-11.156556 6.3350167 -0.58686638
-13.773 7.8207092 -0.5926351
-17.963968 10.200462 -0.60108596
-25.854481 14.680924 -0.61784858
-46.024937 26.134295 -0.65985829
-11.629459 6.6035447 0.055574529
-11.388091 6.4664888 0.16327077
-11.247008 6.3863778 0.26877153
-11.169667 6.3424616 0.37374428
-11.104734 6.3055906 0.47782293
-11.078522 6.2907062 0.58276153
-11.041846 6.2698808 0.68662804
-11.053463 6.2764773 0.79335278
-11.061666 6.2811351 0.90013272
-11.117579 6.3128843 1.011536
-11.233415 6.3786588 1.1301842
-11.407605 6.4775691 1.2576544
-13.162588 7.4740996 1.5781977
-13.159001 7.4720631 1.7050151
-13.159897 7.4725714 1.8326257
-13.160809 7.4730887 1.960513
-12.778229 7.2558494 2.0278354
-12.290357 6.9788213 2.070255
-11.938503 6.7790284 2.1276817
-11.837018 6.7214026 2.2255967
-1.8389727 1.0145255 -0.56276149
-1.9195139 1.0589585 -0.56792361
-2.0024347 1.1047044 -0.57221776
-2.0703945 1.1421964 -0.57079852
-2.1344512 1.1775352 -0.56706035
-2.2259457 1.228011 -0.56913847
-2.313422 1.2762699 -0.56848752
-2.4052806 1.3269466 -0.56721479
-2.5340579 1.3979905 -0.57254684
-2.629204 1.4504808 -0.56815326
-2.7738583 1.5302837 -0.57218242
-2.8977351 1.5986242 -0.56937486
-3.0582736 1.6871901 -0.57107276
-3.2264242 1.7799555 -0.5710699
-3.412627 1.8826799 -0.57089883
-3.6208932 1.9975765 -0.5706749
-3.8640058 2.1316969 -0.57165754
-4.1400776 2.2840004 -0.57258612
-4.452693 2.4564641 -0.57297945
-4.8233957 2.6609735 -0.57435977
-5.2526369 2.8977776 -0.57511568
-5.7582006 3.1766875 -0.57535416
-6.381978 3.5208132 -0.57668334
-7.1582603 3.9490731 -0.57850146
-8.1535444 4.4981518 -0.58119977
-9.4359293 5.2056189 -0.58274096
-11.244971 6.2036319 -0.5874601
-13.871768 7.6527848 -0.59279102
-18.097343 9.9839525 -0.60139543
-26.033392 14.362117 -0.61785704
-46.387066 25.590843 -0.66048872
-13.585486 7.4948487 0.064476646
-12.129045 6.6913586 0.17270111
-11.877352 6.5525041 0.28188819
-11.740004 6.4767318 0.39013377
-11.65054 6.4273763 0.49786991
-11.606824 6.4032593 0.60636407
-11.577119 6.3868718 0.71497583
-11.589997 6.3939762 0.8261565
-11.639759 6.4214292 0.940678
-11.77259 6.4947085 1.0637856
-12.03325 6.6385098 1.2023513
-13.947476 7.6945519 1.5271211
-13.85171 7.6417193 1.6494324
-13.789909 7.607625 1.7745069
-13.753644 7.5876179 1.9021732
-13.291404 7.3326092 1.966387
-12.694128 7.0031037 2.0006721
-12.235975 6.7503495 2.046958
-11.899158 6.5645347 2.1061246
-11.742145 6.4779129 2.192616
-1.8571604 0.99497318 -0.56454057
-1.9368906 1.0376886 -0.56924653
-1.9899315 1.0661052 -0.56485599
-2.0746396 1.1114876 -0.56815791
-2.1421874 1.1476762 -0.56532371
-2.2397227 1.1999308 -0.56884539
-2.3289533 1.247736 -0.56849092
-2.4169722 1.2948921 -0.56617415
-2.5330148 1.357062 -0.5684979
-2.6583235 1.4241961 -0.57061827
-2.7845297 1.491811 -0.57055658
-2.9276032 1.5684626 -0.57141078
-3.0680132 1.6436871 -0.56907433
-3.2377071 1.7346007 -0.56924868
-3.4297347 1.8374795 -0.56993788
-3.6314914 1.9455705 -0.56853175
-3.8891809 2.0836275 -0.57154834
-4.1760755 2.2373312 -0.5737164
-4.4869251 2.4038687 -0.57353741
-4.8574381 2.602371 -0.57455951
-5.288353 2.8332336 -0.57516831
-5.7951212 3.1047347 -0.57518512
-6.4262733 3.442874 -0.57681686
-7.2095389 3.8625085 -0.57876348
-8.2005758 4.393456 -0.58065742
-9.5167084 5.0985737 -0.58381367
-11.314774 6.0618868 -0.58716828
-13.971372 7.4851584 -0.59306937
-18.218657 9.7606401 -0.60139287
-26.232599 14.054108 -0.61843669
-46.757668 25.050407 -0.66132963
-13.622766 7.2983928 0.19267724
-12.98781 6.9582152 0.30618915
-12.590655 6.74544 0.4156141
-12.419797 6.6539025 0.52720672
-12.338443 6.6103172 0.6402905
-12.313253 6.5968218 0.75537103
-12.415954 6.651844 0.87913531
-12.677322 6.7918715 1.0177032
-14.806824 7.9327512 1.6104097
-14.702547 7.8768854 1.7390832
-14.592291 7.8178158 1.8652474
-14.501876 7.7693758 1.9922925
-13.164614 7.0529385 1.9346523
-12.595554 6.7480645 1.9719095
-12.147459 6.507998 2.01861
-11.830823 6.3383598 2.0800769
-11.678445 6.2567234 2.1661911
-1.8740444 0.97455442 -0.56598741
-1.9479283 1.0129761 -0.56878668
-2.0212257 1.0510927 -0.57002717
-2.0903542 1.0870414 -0.56875783
-2.1734629 1.1302602 -0.56986648
-2.2521448 1.171177 -0.56829977
-2.3511827 1.2226794 -0.57020402
-2.4451869 1.2715641 -0.56907779
-2.5432155 1.3225417 -0.56709456
-2.6667824 1.3867999 -0.56873059
-2.8005693 1.4563727 -0.57013059
-2.9434025 1.53065 -0.57077777
-3.0943079 1.6091249 -0.57023841
-3.2741091 1.7026263 -0.57192457
-3.4598331 1.799208 -0.57121986
-3.6712301 1.9091401 -0.57103461
-3.9202318 2.0386279 -0.5723843
-4.2010732 2.1846731 -0.57341671
-4.5109954 2.3458412 -0.57288367
-4.8831911 2.5393929 -0.57386881
-5.3159556 2.7644424 -0.57442981
-5.8431921 3.03862 -0.57620418
-6.467433 3.3632421 -0.57675564
-7.2729306 3.7821231 -0.58007509
-8.2630682 4.2970219 -0.5812971
-9.5776415 4.9806361 -0.58375049
-11.399176 5.9278836 -0.58772117
-14.061018 7.3121142 -0.59301323
-18.353756 9.5444565 -0.60193288
-26.421806 13.740063 -0.61886734
-47.106712 24.49678 -0.66195595
-13.818443 7.1859689 0.453192
-13.645332 7.0959468 0.57548201
-13.612397 7.0788193 0.70183086
-13.710208 7.1296835 0.83562744
-15.198382 7.9035754 1.9301518
-13.04135 6.7818594 1.9041386
-12.490254 6.4952745 1.9427735
-12.064719 6.2739844 1.9918901
-11.762565 6.1168556 2.0546963
-11.607333 6.0361314 2.1390719
-1.9003209 0.9587211 -0.57031971
-1.9545617 0.98608589 -0.56714016
-2.0286427 1.02346 -0.56852674
-2.0971007 1.0579975 -0.56701088
-2.1788073 1.0992188 -0.5676809
-2.2649255 1.1426659 -0.5679363
-2.360841 1.1910558 -0.56895143
-2.4609246 1.2415484 -0.56914437
-2.558145 1.2905966 -0.56684202
-2.6799321 1.3520387 -0.56794643
-2.8125229 1.4189315 -0.56896907
-2.9601107 1.4933902 -0.57041365
-3.131171 1.5796909 -0.57340872
-3.2795565 1.6545522 -0.56927919
-3.4859784 1.758693 -0.57192278
-3.6871316 1.8601758 -0.56990713
-3.9450121 1.9902778 -0.57238585
-4.2283416 2.133219 -0.57351494
-4.541894 2.2914076 -0.5731861
-4.9117031 2.4779782 -0.57359535
-5.3556433 2.7019479 -0.57508475
-5.8879018 2.9704752 -0.57696754
-6.5006819 3.2796257 -0.5760808
-7.3003345 3.6830542 -0.57860488
-8.3113108 4.1930966 -0.58101976
-9.6422014 4.8645377 -0.58399546
-11.457333 5.7802801 -0.58701062
-14.158631 7.1430984 -0.59338075
-18.47286 9.3196478 -0.60203511
-26.599264 13.419457 -0.61911201
-47.466148 23.946903 -0.66281891
-15.929914 8.0367193 2.0103519
-13.639226 6.8810558 1.8499688
-12.924553 6.5204997 1.8752366
-12.403198 6.2574739 1.9171193
-11.985796 6.0468922 1.966435
-11.67649 5.8908463 2.026854
-11.535994 5.8199649 2.1125767
-11.746316 5.9260736 2.2635164
-1.9093086 0.93398356 -0.56952727
-1.9582942 0.95794612 -0.56476259
-2.0371733 0.99653161 -0.56744039
-2.1167662 1.0354664 -0.56884235
-2.1902459 1.0714108 -0.5671857
-2.2759533 1.1133367 -0.56722587
-2.3755591 1.1620612 -0.56901181
-2.4798002 1.2130532 -0.57001698
-2.5776024 1.2608954 -0.56767499
-2.6987133 1.3201398 -0.56844348
-2.8334372 1.3860431 -0.56970906
-2.974972 1.4552782 -0.56978601
-3.1361871 1.5341403 -0.57082951
-3.2981892 1.6133875 -0.56902677
-3.4940276 1.7091866 -0.56975222
-3.7376168 1.828344 -0.57419205
-3.9634986 1.9388394 -0.57156575
-4.2384853 2.0733557 -0.57138956
-4.5678587 2.2344763 -0.57295203
-4.9371448 2.4151216 -0.57305503
-5.3931551 2.6381898 -0.57558578
-5.9138603 2.8929052 -0.57598191
-6.5675268 3.2126615 -0.57845992
-7.3506427 3.5957415 -0.5790441
-8.3564396 4.0877509 -0.58061683
-9.7017794 4.7458558 -0.5840252
-11.546508 5.6482487 -0.58797663
-14.240136 6.9659004 -0.59316194
-18.601488 9.0993595 -0.60253501
-26.782572 13.101331 -0.61958206
-47.811443 23.388102 -0.66357446
-14.16313 6.9282312 1.7764986
-13.568974 6.6375861 1.8292314
-12.805002 6.2638707 1.8465759
-12.307288 6.0204024 1.8907093
-11.912066 5.8270702 1.9424363
-11.617716 5.6830816 2.00437
-11.464521 5.6081429 2.0867019
-11.594155 5.6715565 2.2205882
-1.9177377 0.90905744 -0.56866431
-1.9830073 0.9399969 -0.56851327
-2.0475183 0.97057676 -0.56695473
-2.1238356 1.0067532 -0.56737244
-2.1923487 1.0392302 -0.56437838
-2.3099811 1.094991 -0.57230747
-2.3890104 1.132453 -0.56885529
-2.5034056 1.1866791 -0.57204556
-2.5965843 1.2308483 -0.56847924
-2.7250209 1.2917306 -0.57059598
-2.8471949 1.3496443 -0.56909537
-3.0000572 1.422105 -0.57119817
-3.1605179 1.4981675 -0.57186174
-3.3285937 1.5778397 -0.57088184
-3.527647 1.6721961 -0.57183814
-3.7290249 1.7676547 -0.56948984
-3.994231 1.8933692 -0.57259691
-4.2825913 2.0300593 -0.57392687
-4.6089301 2.1847525 -0.57469058
-4.9730887 2.3573732 -0.5738191
-5.4143963 2.5665643 -0.57444113
-5.940279 2.8158464 -0.57513916
-6.5899825 3.1238227 -0.57701093
-7.3888106 3.5024881 -0.57861429
-8.4139128 3.9884129 -0.58115858
-9.7551985 4.624217 -0.58377385
-11.63579 5.5156665 -0.58902478
-14.329318 6.7924685 -0.59335279
-18.735882 8.8812943 -0.60330522
-26.959463 12.779486 -0.61999208
-48.133129 22.816353 -0.66409504
-14.753004 6.9933066 1.702273
-14.473341 6.8607392 1.8046905
-13.358534 6.3322916 1.7902296
-12.66984 6.0058331 1.8162974
-12.20613 5.7860222 1.8640978
-11.850341 5.6173692 1.9209623
-11.553996 5.4768939 1.9816077
-11.400464 5.4041157 2.0627916
-11.489497 5.4463196 2.1875513
-1.9253607 0.88384402 -0.56765908
-2.0009389 0.91853851 -0.57037288
-2.069133 0.94984317 -0.56966269
-2.1392343 0.98202348 -0.56821734
-2.2187135 1.0185087 -0.56789851
-2.3149493 1.0626861 -0.57025778
-2.406949 1.104919 -0.56984854
-2.5054741 1.1501472 -0.56924349
-2.6125104 1.1992826 -0.56869435
-2.7203078 1.2487674 -0.566351
-2.8567672 1.3114096 -0.56774253
-3.0013013 1.3777585 -0.56816643
-3.1731372 1.4566404 -0.57086098
-3.3446043 1.5353531 -0.57034671
-3.5423052 1.6261084 -0.57092983
-3.7666719 1.7291048 -0.57194895
-4.0050702 1.8385423 -0.57086664
-4.2965245 1.9723356 -0.57250065
-4.6271138 2.124094 -0.57365775
-5.0067616 2.2983725 -0.57440001
-5.4571118 2.5051076 -0.57566136
-5.9749136 2.7428064 -0.57518357
-6.6330695 3.0449352 -0.57746154
-7.4312925 3.4113626 -0.57861239
-8.4613924 3.884234 -0.58109516
-9.8138676 4.5050921 -0.58392549
-11.681703 5.3625288 -0.5879665
-14.41547 6.617475 -0.59350586
-18.838778 8.6480112 -0.60314876
-27.109921 12.44491 -0.6198861
-48.461067 22.246233 -0.66479522
-15.466085 7.0997639 1.6314908
-15.187603 6.9719257 1.7423955
-15.106997 6.9349232 1.8729268
-13.159507 6.0409207 1.7534698
-12.557134 5.7643991 1.7898436
-12.126604 5.5667629 1.8413597
-11.756935 5.3970647 1.8949199
-11.502593 5.2803082 1.9615074
-11.364156 5.2167578 2.0444605
-11.383509 5.2256417 2.1549745
-1.9398878 0.86179429 -0.56877476
-2.0047338 0.89060217 -0.56829
-2.0745299 0.9216091 -0.56798559
-2.1484287 0.95443857 -0.56749928
-2.2290139 0.99023855 -0.56737542
-2.3305821 1.0353601 -0.57092935
-2.4124682 1.071738 -0.56799215
-2.5331686 1.1253591 -0.57234842
-2.6140072 1.1612717 -0.56586903
-2.7507491 1.2220191 -0.5695172
-2.8893933 1.2836118 -0.57104653
-3.0296028 1.3458998 -0.57034802
-3.1814308 1.4133493 -0.56918347
-3.3534095 1.4897507 -0.56868142
-3.5553865 1.579479 -0.56986475
-3.7877226 1.6826942 -0.57196027
-4.029098 1.7899251 -0.57111114
-4.3247972 1.9212892 -0.57307655
-4.6546059 2.0678067 -0.57387042
-5.0255833 2.2326133 -0.5733664
-5.4951496 2.4412179 -0.57646376
-6.0281343 2.6779962 -0.57709324
-6.6657376 2.9612513 -0.57709187
-7.4714904 3.3192065 -0.5785206
-8.4968348 3.7747152 -0.58029759
-9.867197 4.3834982 -0.58384734
-11.756132 5.2226567 -0.58843589
-14.509116 6.4456687 -0.59405333
-18.953545 8.420104 -0.60346264
-27.297745 12.127012 -0.6207242
-48.762947 21.66292 -0.66523194
-16.020763 7.1172171 1.6806438
-15.948342 7.0850444 1.8195387
-15.896482 7.0620055 1.9598911
-12.993568 5.7723875 1.721771
-12.434552 5.5240445 1.7625561
-12.031674 5.3450661 1.8168278
-11.69734 5.1965384 1.8748741
-11.429551 5.0775733 1.9382581
-11.27931 5.010829 2.0179589
-11.305306 5.0223775 2.1283181
-1.9321567 0.83006668 -0.56347281
-2.0227091 0.86896861 -0.57031345
-2.0911567 0.89837414 -0.56947029
-2.1590044 0.92752188 -0.56723726
-2.2454374 0.96465409 -0.5684936
-2.3472602 1.0083978 -0.57193422
-2.4284446 1.0432751 -0.5686903
-2.5359633 1.0894659 -0.56990999
-2.6510186 1.1388943 -0.57080638
-2.7619147 1.186536 -0.56876516
-2.8939764 1.2432705 -0.56888795
-3.039444 1.3057643 -0.56913495
-3.2146397 1.3810295 -0.57204336
-3.383981 1.4537796 -0.57079113
-3.5858619 1.5405089 -0.57167
-3.7998571 1.6324425 -0.57071835
-4.0633702 1.7456493 -0.57288313
-4.3540239 1.8705161 -0.5738582
-4.6724358 2.0073078 -0.57298219
-5.0559773 2.1720798 -0.57374346
-5.5081692 2.3663442 -0.57473367
-6.0554328 2.6014521 -0.57660067
-6.7120886 2.8835554 -0.57799131
-7.5411925 3.2397437 -0.58078915
-8.5666466 3.6802852 -0.58193076
-9.9248133 4.263762 -0.58411008
-11.819973 5.0779352 -0.58846152
-14.574982 6.2615037 -0.59355277
-19.067242 8.1914072 -0.60383004
-27.453787 11.79432 -0.62092769
-49.076641 21.083633 -0.66592425
-16.221344 6.9687915 1.9892282
-12.842099 5.5170465 1.6925824
-12.322881 5.2939873 1.7373683
-11.929606 5.1250339 1.7917634
-11.624484 4.9939518 1.8532139
-11.37394 4.8863158 1.9184929
-11.226008 4.8227639 1.9976621
-11.225959 4.8227429 2.1020572
-1.9600458 0.81364816 -0.5686453
-2.0326548 0.84378934 -0.57014906
-2.0937655 0.86915749 -0.56722736
-2.1719725 0.90162253 -0.56768864
-2.2450469 0.93195695 -0.56545061
-2.3506815 0.97580767 -0.56980109
-2.4304662 1.0089277 -0.56621563
-2.5388796 1.053932 -0.56761003
-2.6517692 1.1007942 -0.56801051
-2.7866869 1.1568009 -0.57089412
-2.9184875 1.2115135 -0.57073462
-3.0663874 1.2729093 -0.57120603
-3.2281733 1.3400693 -0.57147616
-3.3877921 1.4063299 -0.56847411
-3.5994632 1.4941981 -0.57086611
-3.8140047 1.5832578 -0.56987607
-4.0804214 1.6938518 -0.57230735
-4.3742752 1.8158356 -0.5735411
-4.7063661 1.9536922 -0.57415372
-5.0858345 2.1112158 -0.57414222
-5.5329185 2.296808 -0.57432574
-6.0806494 2.5241804 -0.57600278
-6.7523232 2.8030035 -0.57844418
-7.5705266 3.1426537 -0.58002836
-8.6081285 3.5733798 -0.58171988
-9.9889584 4.1465855 -0.58484024
-11.877226 4.9304371 -0.58824903
-14.668618 6.0891914 -0.5942719
-19.168631 7.9572229 -0.60389656
-27.60574 11.45961 -0.62113041
-49.388084 20.501829 -0.66667908
-13.625896 5.6563401 1.6622928
-12.671678 5.2602277 1.6614702
-12.207008 5.0673356 1.7121174
-11.845628 4.9173207 1.7699349
-11.547676 4.7936358 1.8314332
-11.305237 4.6929951 1.8970275
-11.160429 4.6328826 1.9757053
-11.155051 4.63065 2.0779605
-1.9579806 0.7847091 -0.56520402
-2.0394585 0.81736338 -0.56919533
-2.1153929 0.8477959 -0.5702191
-2.1775236 0.8726964 -0.56629193
-2.2762406 0.91225964 -0.5704388
-2.3620231 0.94663906 -0.56968564
-2.4626939 0.98698545 -0.57085305
-2.5448618 1.0199162 -0.56610078
-2.6731241 1.0713205 -0.56971991
-2.8063266 1.1247047 -0.57204109
-2.9302025 1.1743511 -0.57015854
-3.0800617 1.2344108 -0.57088256
-3.2365146 1.2971132 -0.57008618
-3.4265251 1.3732646 -0.57209677
-3.6183851 1.4501572 -0.57099575
-3.8430872 1.5402122 -0.57134849
-4.1030931 1.644416 -0.57260787
-4.3849692 1.7573848 -0.57206666
-4.7382965 1.8989893 -0.57515687
-5.1109447 2.0483375 -0.57409018
-5.5682535 2.2316151 -0.57510167
-6.111834 2.4494684 -0.57606006
-6.7828088 2.7183783 -0.5781486
-7.6005473 3.0461071 -0.57941484
-8.6546946 3.4685824 -0.58194041
-10.038397 4.0231352 -0.5847941
-11.942376 4.786202 -0.58851641
-14.741507 5.9080229 -0.59423667
-19.262056 7.7197447 -0.60380363
-27.757364 11.12445 -0.62141716
-49.664955 19.904457 -0.66706222
-13.240702 5.3065381 1.607219
-12.513814 5.0152202 1.6325624
-12.084126 4.8430119 1.6864023
-11.75189 4.7098603 1.7471434
-11.462982 4.5940733 1.8089049
-11.261583 4.5133576 1.8802475
-11.115289 4.4547262 1.9578691
-11.091692 4.4452696 2.0558205
-1.9693679 0.76130474 -0.56574607
-2.0468774 0.79126781 -0.56850737
-2.1250551 0.82148921 -0.57005763
-2.2033987 0.85177475 -0.57025409
-2.2778115 0.88054073 -0.56807607
-2.3794355 0.91982591 -0.57111412
-2.4695916 0.95467782 -0.56968772
-2.5758355 0.99574888 -0.57022405
-2.6934361 1.0412101 -0.57127708
-2.805877 1.0846767 -0.56918764
-2.9442713 1.1381762 -0.57012969
-3.1089771 1.2018471 -0.57345945
