# .PCD v0.7 - Point Cloud Data file format
VERSION 0.7
FIELDS x y z
SIZE 4 4 4
TYPE F F F
COUNT 1 1 1
WIDTH 1507
HEIGHT 1
VIEWPOINT 0 0 0 1 0 0 0
POINTS 1507
DATA ascii
8.3336277 2.5892963 -0.54466248
9.5684347 2.9729564 -0.5418089
11.238457 3.4918401 -0.53832078
13.59806 4.2249794 -0.53279626
17.212278 5.3479338 -0.52444273
23.437199 7.2820449 -0.51000839
36.756405 11.420383 -0.47986153
1.9890687 0.64493537 -0.56028444
2.0531707 0.66571975 -0.55915648
2.1233494 0.68847448 -0.55851406
2.2082403 0.71599948 -0.56038398
2.2813025 0.73968911 -0.55787337
2.358186 0.76461786 -0.55499756
2.4597914 0.79756236 -0.55638325
2.5650506 0.83169156 -0.55678481
2.687675 0.87145132 -0.55896026
2.8053689 0.90961236 -0.55800855
2.9374144 0.95242679 -0.55773139
3.0750153 0.99704248 -0.55615586
3.2324603 1.0480924 -0.55559456
3.398376 1.1018889 -0.55366731
3.616154 1.1725012 -0.55683547
3.8133242 1.2364316 -0.55320543
4.0910449 1.3264797 -0.55711144
4.3548818 1.4120263 -0.55439377
4.6704407 1.5143429 -0.55320209
5.0359955 1.6328703 -0.55198354
5.4751062 1.7752476 -0.55179793
5.9859638 1.9408879 -0.5505442
6.5926714 2.1376066 -0.54834414
7.3632731 2.3874667 -0.54774392
8.3005953 2.6913838 -0.5446254
9.5320044 3.0906556 -0.54185706
11.187747 3.6275134 -0.53798771
13.558428 4.3961825 -0.53332114
17.140699 5.5576978 -0.52430439
23.362686 7.5751138 -0.51037538
36.636017 11.878856 -0.48016047
1.9683001 0.66505605 -0.55669576
2.0495439 0.69250691 -0.56044543
2.1224768 0.71714979 -0.56056166
2.1969724 0.74232066 -0.5597986
2.2828059 0.77132237 -0.56051803
2.3530827 0.79506767 -0.55605531
2.4600284 0.83120292 -0.55870652
2.5447819 0.85983968 -0.55463827
2.6717145 0.90272814 -0.55790728
2.7793195 0.93908608 -0.55508208
2.9219058 0.98726356 -0.55704963
3.0635588 1.0351259 -0.55634385
3.2204514 1.0881373 -0.55578828
3.3858478 1.144022 -0.55387622
3.5888343 1.2126077 -0.55488276
3.8171589 1.2897549 -0.5560205
4.0567789 1.3707185 -0.55469847
4.3387208 1.465982 -0.55458927
4.652564 1.5720243 -0.55333245
5.007411 1.6919214 -0.55108911
5.443275 1.8391925 -0.55082744
5.9566932 2.0126681 -0.55008674
6.5787463 2.2228496 -0.54941779
7.3187418 2.4728818 -0.54665196
8.277627 2.7968733 -0.54533368
9.4996977 3.2097907 -0.54222327
11.152753 3.7683308 -0.5384925
13.492792 4.5589914 -0.53290421
17.096371 5.7765808 -0.52508152
23.272116 7.8632627 -0.51047045
36.520897 12.339807 -0.48060402
1.9760003 0.69484252 -0.56124771
2.0377252 0.71654749 -0.55958068
2.1167862 0.74434865 -0.56143367
2.1780846 0.76590365 -0.55734348
2.2553911 0.79308778 -0.55613911
2.355103 0.82815057 -0.5588969
2.4332678 0.85563654 -0.5549764
2.5519073 0.89735502 -0.55855399
2.6605065 0.93554288 -0.55792689
2.7821138 0.97830504 -0.5580005
2.9128757 1.0242863 -0.55768716
3.0527012 1.0734547 -0.55672711
3.2052157 1.127085 -0.55550867
3.3877583 1.1912744 -0.55654293
3.5817788 1.2595 -0.55614442
3.7959228 1.3348017 -0.55527598
4.0503993 1.4242861 -0.55617887
4.312314 1.516386 -0.55355549
4.62852 1.6275771 -0.55281132
5.0033531 1.7593837 -0.55298167
5.4335713 1.910666 -0.5521813
5.9353385 2.0871079 -0.55044305
6.5382175 2.2991047 -0.54835266
7.2850709 2.561729 -0.54644847
8.2372208 2.8965437 -0.54497701
9.4629631 3.3275652 -0.54242098
11.105434 3.9051251 -0.53848559
13.439578 4.7259054 -0.53305733
17.016739 5.9837813 -0.52485591
23.187899 8.1538134 -0.51078379
36.379688 12.792587 -0.4807795
1.9665915 0.71882433 -0.56104344
2.01881 0.73791116 -0.55683607
2.1010406 0.76796788 -0.5597198
2.162077 0.79027778 -0.55569196
2.2547061 0.82413536 -0.5584268
2.3456619 0.85738128 -0.55911607
2.4288304 0.8877809 -0.55641204
2.5475397 0.9311713 -0.56006187
2.6470346 0.96753848 -0.55755454
2.7680907 1.0117866 -0.55764109
2.894053 1.0578281 -0.55653173
3.0432687 1.1123691 -0.55745924
3.1976388 1.168794 -0.55664432
3.36115 1.2285603 -0.55461156
3.5661724 1.3034997 -0.5561679
3.7776251 1.3807895 -0.55504113
4.0095525 1.4655631 -0.55300277
4.2824545 1.5653137 -0.55215156
4.6071596 1.6839992 -0.55269152
4.9934282 1.8251873 -0.55432338
5.405344 1.9757499 -0.55173993
5.9120755 2.1609693 -0.55070835
6.5232344 2.3843586 -0.54951346
7.2727365 2.6583152 -0.54793376
8.201581 2.9978244 -0.54501671
9.4194613 3.4429812 -0.54231316
11.0684 4.0456982 -0.53906131
13.380946 4.890975 -0.53307694
16.966606 6.2015977 -0.52562201
23.105125 8.4453363 -0.51120937
36.265926 13.255844 -0.48139381
1.9581159 0.74314439 -0.56119001
2.015805 0.76503855 -0.55855972
2.0927207 0.79422963 -0.56006277
2.1567163 0.81851721 -0.5568589
2.2437515 0.85154885 -0.55826485
2.3248546 0.88232911 -0.55670047
2.4247012 0.92022288 -0.55801612
2.5294607 0.9599812 -0.55864012
2.6331849 0.99934667 -0.55718356
2.7527435 1.0447216 -0.55709517
2.885119 1.0949607 -0.55736077
3.0376422 1.1528463 -0.55898309
3.1778295 1.2060503 -0.55573553
3.3588736 1.2747601 -0.55678034
3.5568595 1.3498998 -0.55726212
3.762753 1.4280405 -0.55539405
4.0030842 1.519251 -0.5546453
4.2717662 1.6212212 -0.55330193
4.5825019 1.7391517 -0.55225724
4.9633546 1.883693 -0.55351436
5.3797774 2.0417337 -0.55165124
5.8869424 2.2342131 -0.55088466
6.4884658 2.4625034 -0.54909384
7.2304764 2.7441113 -0.54725069
8.1622458 3.0977364 -0.54489285
9.3810654 3.560303 -0.54258209
11.016484 4.1809773 -0.53899598
13.31521 5.05339 -0.5328933
16.894251 6.4117084 -0.52578318
22.998363 8.7283411 -0.51118326
36.106049 13.702971 -0.48147184
1.9505738 0.76785052 -0.561692
2.013344 0.79256028 -0.56053585
2.0801075 0.81884199 -0.55933952
2.1558671 0.848665 -0.55929178
2.2400734 0.88181317 -0.56000531
2.3264463 0.91581416 -0.55973589
2.4322774 0.95747495 -0.56242675
2.5249593 0.99395955 -0.56030297
2.6261711 1.0338019 -0.55834711
2.7495849 1.0823842 -0.55910724
2.875278 1.1318638 -0.55810618
3.0084987 1.1843065 -0.55625784
3.1802485 1.2519165 -0.55880845
3.3352468 1.3129321 -0.55549806
3.5271873 1.3884903 -0.55524623
3.7438121 1.4737654 -0.55523121
3.9876053 1.5697355 -0.55513304
4.2545276 1.6748104 -0.55369473
4.5738263 1.8005035 -0.55383795
4.9334445 1.9420686 -0.55280012
5.3710046 2.1143157 -0.55337578
5.8626785 2.3078651 -0.55122805
6.4546733 2.540906 -0.54883671
7.1849837 2.8283954 -0.54639852
8.128211 3.1997001 -0.54520613
9.331212 3.6732659 -0.54227012
10.955362 4.3126187 -0.53855938
13.268322 5.223124 -0.53354686
16.805117 6.615396 -0.52550107
22.912619 9.0196371 -0.51170391
35.956448 14.154387 -0.48176143
1.9328752 0.78846759 -0.55934507
2.0023901 0.81682444 -0.56024015
2.0746503 0.84630114 -0.560628
2.1513658 0.87759531 -0.5608812
2.2084765 0.9008922 -0.55483365
2.3069842 0.94107586 -0.55779535
2.4096699 0.98296398 -0.55995172
2.4974132 1.0187565 -0.55692804
2.6201286 1.0688152 -0.55981439
2.7332275 1.114951 -0.55852664
2.8641529 1.1683588 -0.55869311
2.9991069 1.2234098 -0.55726075
3.1454175 1.2830936 -0.55541855
3.3318992 1.3591641 -0.55768192
3.5231056 1.4371619 -0.55734348
3.7335682 1.5230148 -0.55644733
3.9679475 1.6186239 -0.5551253
4.2397957 1.7295175 -0.55450332
4.5417361 1.8526865 -0.55266905
4.9083319 2.0022299 -0.5527032
5.3304405 2.1744184 -0.55190951
5.8127127 2.3711493 -0.54922998
6.4253488 2.6210587 -0.54904222
7.1625857 2.9217958 -0.54738605
8.0815248 3.2966537 -0.54475248
9.2983446 3.7930248 -0.54302955
10.908065 4.4496694 -0.53888327
13.224097 5.3944364 -0.53439546
16.724287 6.8222499 -0.52555698
22.811493 9.3053722 -0.51196218
35.808788 14.60729 -0.48215318
1.912968 0.8079223 -0.55641711
1.9869049 0.83914876 -0.55875236
2.0627832 0.8711952 -0.56027371
2.1316533 0.90028173 -0.55858588
2.2126176 0.9344762 -0.55871862
2.3036664 0.97292972 -0.55984348
2.381422 1.005769 -0.5562194
2.4813147 1.0479577 -0.55616969
2.5991666 1.0977311 -0.55817747
2.7157333 1.1469619 -0.55779165
2.8361063 1.1978002 -0.55605328
2.9772213 1.2573987 -0.55602509
3.1441088 1.3278818 -0.55802846
3.2955697 1.3918498 -0.55442393
3.4994895 1.4779733 -0.55644047
3.6960707 1.5609972 -0.55367768
3.9386594 1.6634521 -0.55384761
4.2172451 1.7811099 -0.55437648
4.5206418 1.9092463 -0.55291712
4.8814549 2.0616319 -0.55248952
5.3061628 2.241003 -0.55220723
5.7926936 2.4464843 -0.55013931
6.3960915 2.701323 -0.549339
7.1271086 3.0100605 -0.54746205
8.0671587 3.4070809 -0.54656678
9.242156 3.9033289 -0.54251009
10.864969 4.5887074 -0.53950101
13.149505 5.5535574 -0.53410035
16.647615 7.0309486 -0.52582473
22.702446 9.5881433 -0.51212215
35.652035 15.057269 -0.48249909
1.906828 0.83310288 -0.55756873
1.9717414 0.8614639 -0.55742496
2.0561302 0.89833385 -0.56142455
2.1233714 0.92771184 -0.55936271
2.205092 0.96341592 -0.55976737
2.2861431 0.99882758 -0.55852747
2.380625 1.0401073 -0.55897826
2.4729753 1.0804555 -0.55723619
2.589824 1.1315073 -0.55911684
2.7073936 1.1828741 -0.55902398
2.8247974 1.2341684 -0.55676931
2.97736 1.3008238 -0.55899602
3.1282239 1.366737 -0.55814981
3.2988434 1.4412816 -0.55791402
3.4766889 1.5189831 -0.55574298
3.6937647 1.6138247 -0.55626285
3.9334211 1.7185318 -0.55604047
4.1836615 1.827863 -0.55287457
4.5031018 1.9674283 -0.55368894
4.8616118 2.124063 -0.55315799
5.263041 2.2994494 -0.5506205
5.7656589 2.5190458 -0.55047196
6.3594747 2.778487 -0.54908699
7.0867367 3.0962315 -0.54724407
7.9957156 3.4933689 -0.5445956
9.1967793 4.0181203 -0.54270577
10.809891 4.7228966 -0.53960901
13.078287 5.7139707 -0.5340212
16.571045 7.239974 -0.52617836
22.598597 9.8734426 -0.51247954
35.498131 15.509315 -0.4829607
1.9041033 0.85994613 -0.55982167
1.9705395 0.88995057 -0.5601365
2.0419734 0.92221212 -0.56061298
2.1188972 0.95695311 -0.56124145
2.1872184 0.98780888 -0.55827141
2.2651992 1.0230272 -0.5564419
2.3519721 1.0622162 -0.55527532
2.4600844 1.1110429 -0.55736786
2.5760543 1.1634181 -0.55919033
2.6898749 1.2148225 -0.55844885
2.8197665 1.2734852 -0.55882198
2.9548838 1.3345079 -0.5578149
3.1024399 1.4011484 -0.55658132
3.2679682 1.4759057 -0.55571961
3.4541752 1.5600019 -0.55516851
3.6692557 1.6571382 -0.55559862
3.913877 1.7676162 -0.55630821
4.1906824 1.892629 -0.55683577
4.4733434 2.0202866 -0.55304265
4.8364868 2.1842923 -0.55331349
5.2510943 2.3715405 -0.55237979
5.7451019 2.5946484 -0.55151373
6.3328385 2.8600867 -0.54978216
7.0528035 3.1852429 -0.54760683
7.9686298 3.5988557 -0.54572362
9.1455612 4.1303906 -0.54263943
10.735362 4.8483891 -0.5388239
13.01876 5.8796353 -0.53450227
16.480816 7.4431963 -0.52617973
22.487108 10.155806 -0.51274449
35.329964 15.955998 -0.4833056
1.8935741 0.88338095 -0.55987734
1.9638524 0.91616684 -0.56139559
2.0114338 0.93836433 -0.55535442
2.1055534 0.98227257 -0.56086391
2.1832683 1.0185277 -0.56041753
2.2632782 1.0558535 -0.55911708
2.3488829 1.0957894 -0.55768502
2.4548624 1.1452304 -0.55933297
2.5537326 1.191355 -0.55748272
2.6801465 1.2503289 -0.55957878
2.792063 1.3025397 -0.55646384
2.9391642 1.3711646 -0.55798805
3.0881417 1.4406648 -0.55715221
3.2493806 1.5158852 -0.55568653
3.4398389 1.6047369 -0.5559938
3.649971 1.7027668 -0.55580693
3.8820865 1.8110521 -0.55491292
4.1427393 1.9326507 -0.5535813
4.4568996 2.0792112 -0.55412871
4.7947264 2.2368124 -0.55164087
5.2174454 2.4340172 -0.55194682
5.7068663 2.6623394 -0.55094421
6.2996788 2.9388955 -0.54999912
7.0174809 3.273761 -0.54794848
7.9211054 3.6953156 -0.54553956
9.1064844 4.248313 -0.54337931
10.687015 4.9856544 -0.5394336
12.928227 6.0312138 -0.53378981
16.383854 7.6433158 -0.52604496
22.370829 10.43633 -0.51298046
35.163609 16.404356 -0.48375273
1.8813149 0.90599257 -0.55950427
1.9430858 0.93573987 -0.5587061
2.0148005 0.97027588 -0.5595358
2.0940173 1.0084245 -0.56105161
2.1574199 1.0389577 -0.55701977
2.2586675 1.0877159 -0.56123978
2.3522596 1.1327873 -0.56175143
2.4380524 1.174103 -0.55875015
2.5429325 1.2246106 -0.55837011
2.6520185 1.2771436 -0.55694282
2.7782888 1.3379521 -0.5569554
2.9174864 1.404986 -0.55711037
3.0722122 1.479498 -0.55751836
3.2343376 1.5575733 -0.55634725
3.4134514 1.6438299 -0.55495387
3.6347852 1.7504185 -0.55672997
3.8586478 1.8582251 -0.5547868
4.1210475 1.9845899 -0.55390173
4.4406505 2.1385026 -0.55533588
4.7730718 2.298588 -0.55235964
5.1973643 2.5029163 -0.55303651
5.6640501 2.7276599 -0.55000716
6.2510319 3.0103352 -0.54894221
6.9842715 3.3634446 -0.54854327
7.8879519 3.7986336 -0.5464319
9.0465107 4.3565655 -0.54295617
10.62114 5.1148667 -0.53924245
12.873424 6.1995077 -0.53463411
16.309395 7.8541832 -0.5267154
22.25042 10.715227 -0.51320195
34.993149 16.851797 -0.48422182
1.8655628 0.92683506 -0.5581668
1.9386127 0.9631272 -0.56078291
1.9972342 0.9922511 -0.55800366
2.0818601 1.0342944 -0.56115949
2.1427703 1.0645552 -0.55657506
2.2320929 1.1089318 -0.55798256
2.3292692 1.1572102 -0.55961686
2.4191589 1.2018685 -0.55776495
2.5105526 1.247274 -0.55458593
2.6354976 1.3093483 -0.55681241
2.7638381 1.3731095 -0.55740112
2.909224 1.4453392 -0.5588842
3.0570998 1.5188056 -0.55812287
3.2106397 1.5950862 -0.55560279
3.402895 1.690601 -0.5565753
3.5985982 1.7878289 -0.55451268
3.8410065 1.9082603 -0.55558211
4.0947442 2.0343206 -0.55368674
4.400856 2.1864007 -0.55367959
4.7592382 2.3644493 -0.55408144
5.1499624 2.5585661 -0.55129868
5.6454325 2.8047218 -0.55150658
6.2117476 3.0860744 -0.54878342
6.9296441 3.4427342 -0.54753631
7.8294411 3.8897648 -0.54565078
9.0041437 4.473372 -0.54367369
10.558498 5.245595 -0.53929609
12.79458 6.3565087 -0.53456551
16.21059 8.0536251 -0.52668285
22.133286 10.996095 -0.51358008
34.80822 17.293161 -0.48456872
1.8643802 0.95500708 -0.56128407
1.9197009 0.98334438 -0.5587678
1.9891001 1.0188934 -0.55918914
2.0776563 1.0642551 -0.56351119
2.1417823 1.097103 -0.55978024
2.2158196 1.1350278 -0.55736136
2.3002036 1.1782523 -0.55607259
2.4065928 1.2327491 -0.55832046
2.5103488 1.2858969 -0.55799168
2.6288218 1.3465834 -0.55885804
2.7535048 1.4104507 -0.55877274
2.8919814 1.4813837 -0.55902886
3.0307863 1.552485 -0.55676198
3.1885231 1.6332837 -0.55520898
3.3814092 1.7320874 -0.55650258
3.5766761 1.8321106 -0.55456418
3.8155656 1.954479 -0.55533653
4.0750456 2.0873947 -0.55445194
4.3783946 2.2427816 -0.55428141
4.7163973 2.4159195 -0.55251068
5.1359448 2.6308277 -0.55321926
5.6061463 2.8716831 -0.55107665
6.1844678 3.1679215 -0.54977322
6.885869 3.5272062 -0.54746312
7.7871194 3.9888611 -0.54607838
8.9424314 4.5806561 -0.54330742
10.51834 5.387897 -0.54058802
12.719003 6.515161 -0.53471458
16.12591 8.2603083 -0.52719182
21.993763 11.266048 -0.51351827
34.613766 17.730497 -0.48486012
1.8562937 0.97986251 -0.56243443
1.9105066 1.0084794 -0.55965877
1.9704852 1.0401396 -0.55750948
2.0508103 1.08254 -0.559798
2.1113563 1.1144998 -0.55536783
2.2177799 1.1706765 -0.56143296
2.2929034 1.2103312 -0.55786359
2.3930593 1.2631994 -0.55874205
2.4977562 1.3184648 -0.55875403
2.6095209 1.3774607 -0.55831349
2.7271957 1.4395766 -0.55698389
2.8619137 1.5106888 -0.55676538
3.0038092 1.5855896 -0.55534595
3.1734331 1.6751273 -0.55612606
3.3599279 1.7735703 -0.55651438
3.5625057 1.8805029 -0.55591035
3.7758844 1.993137 -0.5530864
4.0516348 2.1386945 -0.55480289
4.3473449 2.2947879 -0.55388105
4.6922636 2.4768567 -0.55320954
5.1040897 2.6942432 -0.55331481
5.5811381 2.9460576 -0.55213761
6.1492491 3.2459404 -0.55014896
6.8669562 3.624789 -0.5494616
7.7288876 4.0797682 -0.54547155
8.8900137 4.6926794 -0.54358745
10.42348 5.5021348 -0.53914917
12.646659 6.6756611 -0.53508371
16.02953 8.4613419 -0.52740252
21.87874 11.548904 -0.51410961
34.434658 18.176666 -0.48544541
1.8360234 0.9982186 -0.55996954
1.8953385 1.0304673 -0.5588851
1.9687724 1.0703921 -0.56070644
2.0323842 1.1049769 -0.5584349
2.1025221 1.1431099 -0.5566994
2.1917858 1.1916412 -0.55851972
2.2709618 1.234688 -0.55617696
2.3711114 1.2891378 -0.55727661
2.4791267 1.3478642 -0.55825198
2.5884612 1.4073077 -0.557468
2.729172 1.4838101 -0.56107146
2.8500249 1.5495161 -0.55811709
2.9844067 1.6225773 -0.55540556
3.1528795 1.7141736 -0.55617601
3.3278687 1.8093126 -0.55484742
3.5250781 1.9165324 -0.55370551
3.7731807 2.0514221 -0.55634326
4.0242319 2.1879148 -0.55469257
4.3207631 2.3491344 -0.55413276
4.6634164 2.5354297 -0.5534423
5.0629187 2.7526333 -0.55247909
5.5253811 3.0040674 -0.55023444
6.1059113 3.3196929 -0.54988223
6.810678 3.7028642 -0.54856032
7.6897449 4.1807995 -0.54629594
8.8222866 4.7965455 -0.54301155
10.381462 5.6442461 -0.54052484
12.565954 6.8319221 -0.53518307
15.932487 8.6622553 -0.52767432
21.750305 11.825316 -0.51446956
34.239594 18.615555 -0.48588574
1.8228004 1.0202643 -0.55972058
1.8779383 1.0511262 -0.55752331
1.9433837 1.0877576 -0.55724299
2.0131445 1.1268044 -0.5569135
2.0961587 1.1732694 -0.55879223
2.1889131 1.2251862 -0.56158429
2.2559383 1.2627016 -0.55625814
2.362592 1.3223983 -0.55905378
2.4659567 1.3802539 -0.55906594
2.5732954 1.440334 -0.55797398
2.6887145 1.5049368 -0.55651641
2.8299584 1.5839943 -0.55795956
2.962878 1.6583925 -0.55515212
3.1304352 1.7521783 -0.55597544
3.3190832 1.8577689 -0.55714923
3.5074403 1.9631969 -0.554685
3.7439773 2.0955923 -0.55579478
3.9975131 2.2375021 -0.55476016
4.2922912 2.4024963 -0.55422807
4.6426926 2.5986242 -0.55473316
5.0259104 2.8131201 -0.55217361
5.498848 3.0778346 -0.55131936
6.0651917 3.3948305 -0.5499329
6.753891 3.7803116 -0.54768908
7.6366882 4.2744341 -0.54621941
8.7659492 4.906508 -0.54321641
10.311176 5.7714081 -0.54051948
12.489339 6.9905767 -0.53554052
15.833065 8.8621387 -0.5279507
21.609943 12.095593 -0.51462865
34.049393 19.058247 -0.48647547
1.8130097 1.0442652 -0.56061476
1.8685271 1.0762422 -0.55861598
1.9370673 1.1157203 -0.55932343
2.0111806 1.1584084 -0.5602684
2.0797768 1.1979187 -0.55830967
2.1683512 1.2489362 -0.56020665
2.2479258 1.2947699 -0.55816603
2.3396811 1.3476195 -0.55751139
2.4269083 1.397861 -0.55406815
2.5552168 1.4717647 -0.55793589
2.6730394 1.5396286 -0.5571484
2.7992885 1.6123462 -0.55577958
2.9568248 1.7030846 -0.55789959
3.1090732 1.7907773 -0.5560503
3.2983212 1.8997811 -0.55754334
3.4947407 2.0129158 -0.55654895
3.7108681 2.1374016 -0.55473942
3.9722142 2.2879331 -0.55511159
4.2603307 2.4538834 -0.55395555
4.6028962 2.6511958 -0.55383146
5.0032129 2.881772 -0.55353123
5.4717097 3.1516187 -0.55244219
6.0345154 3.475786 -0.5509851
6.709826 3.8647542 -0.54792809
7.5952539 4.3747468 -0.5470621
8.715085 5.019752 -0.54384834
10.245255 5.9011059 -0.54082674
12.39866 7.1414332 -0.5353772
15.728621 9.0594387 -0.52814269
21.4725 12.367822 -0.51493829
33.858479 19.501951 -0.48713717
1.7913079 1.0613087 -0.55789745
1.8635097 1.1040866 -0.56113237
1.9200376 1.1375781 -0.55840296
2.0000548 1.1849865 -0.56118572
2.0655241 1.2237755 -0.55848098
2.1503403 1.2740272 -0.55955863
2.2420263 1.3283491 -0.5607146
2.3270812 1.3787422 -0.55850667
2.4228699 1.4354948 -0.55713397
2.5399218 1.5048453 -0.55859441
2.6549685 1.5730078 -0.55737132
2.7803867 1.6473151 -0.55600643
2.9446657 1.7446468 -0.5596109
3.0869858 1.8289682 -0.55608022
3.2645495 1.9341705 -0.5558129
3.4636173 2.0521138 -0.55556899
3.7027266 2.1937804 -0.55751276
3.9368558 2.3324966 -0.55413657
4.2364635 2.5100074 -0.55482346
4.5604405 2.7019563 -0.552679
4.9630108 2.9404697 -0.55304193
5.4211597 3.2119126 -0.55128437
5.9939466 3.5512755 -0.55122638
6.6708541 3.9523277 -0.54867285
7.5343075 4.4639039 -0.54658455
8.6544323 5.1275525 -0.54395688
10.173341 6.0274706 -0.54090214
12.331262 7.3059893 -0.53630561
15.632033 9.2616205 -0.52868354
21.326176 12.635268 -0.51511627
33.632351 19.926395 -0.48737219
1.7741503 1.0808333 -0.55665094
1.8462054 1.1247301 -0.56004393
1.8985342 1.1566094 -0.55624336
1.9765166 1.2041173 -0.55869353
2.0637393 1.2572545 -0.56213599
2.1358776 1.3012019 -0.55991638
2.2212548 1.3532146 -0.55963892
2.310832 1.4077861 -0.55871916
2.4074025 1.4666181 -0.55768204
2.5200164 1.5352238 -0.55832624
2.6314683 1.6031216 -0.55653411
2.7630255 1.6832678 -0.55663168
2.9163561 1.7766786 -0.55834049
3.0609148 1.8647455 -0.55547237
3.2514651 1.980831 -0.55769002
3.4319582 2.0907896 -0.5545727
3.6683948 2.2348294 -0.55643916
3.9094195 2.3816645 -0.55435503
4.2070742 2.5629992 -0.55505997
4.5386181 2.7649798 -0.55411279
4.9248352 3.0002677 -0.55285722
5.3857098 3.281038 -0.55174047
5.9412127 3.619457 -0.55042815
6.6248598 4.035943 -0.54893017
7.4723911 4.552269 -0.54611242
8.5760145 5.2246094 -0.54302496
10.098877 6.1523552 -0.54092443
12.234914 7.4536543 -0.53606093
15.51218 9.4502039 -0.52852023
21.196863 12.913381 -0.51578927
33.434258 20.368544 -0.48809415
1.7642269 1.1047575 -0.5577575
1.8186424 1.1388324 -0.55588871
1.8994169 1.1894134 -0.56074464
1.9618567 1.2285132 -0.55877745
2.0317838 1.2723014 -0.55765098
2.1138971 1.3237207 -0.55837893
2.198626 1.376778 -0.55816084
2.2848694 1.4307835 -0.55665362
2.3862488 1.4942672 -0.55699605
2.4963396 1.563206 -0.55729711
2.610352 1.6346004 -0.5562771
2.7530658 1.7239678 -0.55885363
2.8934193 1.811857 -0.55817246
3.0367589 1.9016161 -0.55529016
3.2168548 2.0143921 -0.55596018
3.4176154 2.1401083 -0.55646539
3.630821 2.2736173 -0.55493855
3.8791873 2.4291441 -0.55426174
4.1701341 2.6113348 -0.55438083
4.5049076 2.8209698 -0.55419028
4.8875666 3.0605905 -0.5528565
5.3468685 3.3482051 -0.5519374
5.9021006 3.6958909 -0.55097336
6.5812759 4.1211901 -0.54947627
7.4203658 4.6466274 -0.54644465
8.5287533 5.3406987 -0.54414958
10.037397 6.2854104 -0.54173023
12.147977 7.6070542 -0.53630972
15.404679 9.6463985 -0.52885896
21.04467 13.178157 -0.51598996
33.206253 20.793732 -0.48846141
1.7595259 1.1321675 -0.5606302
1.8126628 1.1663585 -0.5584026
1.8870876 1.2142471 -0.56147027
1.950241 1.2548832 -0.55982172
2.0183372 1.2986997 -0.55830121
2.1117597 1.3588125 -0.56218541
2.1809886 1.4033577 -0.5580219
2.2705922 1.4610133 -0.55751002
2.3737347 1.5273802 -0.55841672
2.4835031 1.5980109 -0.5587759
2.6001811 1.6730872 -0.55845159
2.718019 1.7489102 -0.55606276
2.8702261 1.8468479 -0.55803698
3.0251348 1.9465239 -0.55749923
3.1929364 2.054496 -0.5561505
3.3853703 2.1783175 -0.55553442
3.6024234 2.3179805 -0.55491269
3.8519008 2.4785068 -0.5546757
4.1452255 2.6672466 -0.55538762
4.4601736 2.8699 -0.55298662
4.8516335 3.1217852 -0.55309224
5.3000264 3.4103038 -0.55138916
5.8489833 3.7635303 -0.55029333
6.5249567 4.1984854 -0.549043
7.3779745 4.7473598 -0.54758036
8.4598351 5.4434838 -0.54398197
9.9471416 6.4004917 -0.54106581
12.044959 7.7503324 -0.53592849
15.302269 9.8462496 -0.52945966
20.901161 13.448859 -0.516487
32.975864 21.21833 -0.48887342
1.7346975 1.1465943 -0.55716944
1.799587 1.1894848 -0.55883801
1.8629583 1.2313718 -0.55875391
1.9368039 1.280182 -0.5604409
1.9888816 1.3146042 -0.55458289
2.0659153 1.3655217 -0.55440909
2.1622663 1.4292072 -0.55768597
2.2576518 1.492255 -0.55879587
2.3526309 1.5550338 -0.55790818
2.4571002 1.6240855 -0.5572865
2.5795107 1.704996 -0.55847275
2.70908 1.7906383 -0.55869639
2.8498831 1.8837059 -0.55854303
2.9994917 1.9825937 -0.55722409
3.1726396 2.0970404 -0.55706453
3.3630955 2.2229273 -0.55632263
3.5702343 2.3598411 -0.55438226
3.8283749 2.5304658 -0.55572659
4.1030259 2.7120039 -0.55415976
4.433579 2.9304914 -0.55411512
4.8133669 3.1815226 -0.55314791
5.2693706 3.4829304 -0.55261368
5.7994776 3.8333187 -0.5500288
6.4629664 4.2718692 -0.54820544
7.311347 4.8326292 -0.5470044
8.4058981 5.5561013 -0.54486567
9.865799 6.5210614 -0.54096204
11.967076 7.9099569 -0.53675032
15.185029 10.036948 -0.5296334
20.74036 13.708891 -0.51663995
32.756447 21.651243 -0.48953047
1.7306888 1.1747743 -0.56047934
1.7844906 1.2112944 -0.55873311
1.8412457 1.2498192 -0.55680895
1.9199146 1.3032188 -0.56014842
1.988265 1.3496145 -0.55899626
2.0795112 1.4115514 -0.56267303
2.1467602 1.4571993 -0.55826598
2.2461126 1.5246388 -0.56053764
2.3250184 1.5781993 -0.55592018
2.4490764 1.6624086 -0.56006062
2.5655067 1.7414403 -0.56003463
2.6843448 1.8221064 -0.55817372
2.8362968 1.9252499 -0.56047767
2.9663856 2.0135529 -0.55563158
3.1504729 2.1385095 -0.55774742
3.3424613 2.2688293 -0.55748212
3.5583928 2.4154015 -0.55711335
3.7843328 2.5687673 -0.5538767
4.0778289 2.7679896 -0.55531168
4.3966484 2.984401 -0.55404413
4.773901 3.2404761 -0.55314976
5.2100229 3.5365117 -0.55090868
5.7622299 3.9113441 -0.55101597
6.4185672 4.3568592 -0.54894215
7.2667704 4.932611 -0.5481658
8.3319597 5.6556506 -0.54453969
9.7953405 6.6489792 -0.54154068
11.876794 8.0618486 -0.53710663
15.069628 10.229113 -0.52995545
20.588642 13.975364 -0.5171023
32.522575 22.075998 -0.49005511
1.7091843 1.1911362 -0.55821621
1.7762032 1.237842 -0.56086171
1.8179483 1.2669343 -0.55443293
1.9015591 1.3252028 -0.55950511
1.9741697 1.3758055 -0.5597474
2.0555983 1.4325533 -0.56092662
2.1402678 1.4915599 -0.56130481
2.2241302 1.5500038 -0.55976593
2.3215263 1.6178794 -0.55979961
2.4186401 1.6855584 -0.55779803
2.539948 1.7700982 -0.5591644
2.6590006 1.8530663 -0.55759966
2.8001719 1.9514492 -0.55803871
2.9528644 2.0578611 -0.55779654
3.1164942 2.1718953 -0.55641794
3.3054821 2.3036015 -0.55599689
3.5215993 2.4542143 -0.55603558
3.7638586 2.6230457 -0.55555886
4.0287542 2.8076525 -0.5532884
4.3654485 3.0422957 -0.55478472
4.7399354 3.3032768 -0.55387878
5.1748033 3.6063375 -0.5518319
5.7082515 3.9780993 -0.55049032
6.3756185 4.4431896 -0.54990005
7.1916294 5.0118704 -0.54710513
8.2682934 5.7622013 -0.54496831
9.7258043 6.777945 -0.54226309
11.780072 8.2095718 -0.53725725
14.943879 10.414439 -0.52999669
20.439013 14.244016 -0.51770413
32.27766 22.49441 -0.4904955
1.704335 1.2191616 -0.56148618
1.7704433 1.2664509 -0.5639177
1.8144474 1.2979283 -0.55819041
1.8866421 1.3495712 -0.55995649
1.9529309 1.3969897 -0.55855376
2.0285749 1.4511 -0.55837941
2.1035235 1.5047131 -0.55647868
2.2070508 1.5787692 -0.56031102
2.2951624 1.641798 -0.55826825
2.4030788 1.7189939 -0.5590418
2.5124667 1.7972423 -0.5579375
2.6336977 1.8839624 -0.55710948
2.7784407 1.9875014 -0.55853617
2.9326472 2.09781 -0.55880809
3.078326 2.2020183 -0.55439585
3.2727795 2.3411167 -0.55529636
3.4802644 2.4895368 -0.55430067
3.7358427 2.6723595 -0.55623192
4.0063362 2.8658516 -0.55500734
4.3172832 3.0882812 -0.55344778
4.6884017 3.3537536 -0.55263412
5.1389627 3.676053 -0.55278838
5.6528163 4.0436282 -0.54989785
6.3122563 4.5153451 -0.54918242
7.1440763 5.1103706 -0.54822659
8.1957474 5.8626623 -0.54489708
9.6381893 6.894484 -0.54206395
11.677462 8.3532362 -0.53722137
14.824838 10.604648 -0.53035939
20.265223 14.496317 -0.51777804
32.045464 22.923077 -0.49121329
1.6866825 1.2381654 -0.56064409
1.7336974 1.2726783 -0.55715591
1.802201 1.3229656 -0.5593853
1.8744472 1.3760004 -0.56131643
1.9331316 1.4190795 -0.55783957
2.0150225 1.4791943 -0.55961335
2.0900626 1.5342801 -0.55786645
2.1795542 1.5999744 -0.55828285
2.2819679 1.6751546 -0.56002688
2.3710384 1.7405397 -0.55652493
2.4975569 1.8334148 -0.55959064
2.6104648 1.9162986 -0.55713731
2.7568295 2.0237424 -0.55915195
2.9033864 2.1313274 -0.55818409
3.0701873 2.2537732 -0.55787903
3.2523787 2.3875167 -0.55677408
3.4729183 2.5494113 -0.55808139
3.701628 2.7173033 -0.55607057
3.9629743 2.9091532 -0.55391407
4.2859612 3.1462524 -0.55435014
4.6476574 3.4117675 -0.55273473
5.086668 3.7340381 -0.55206048
5.626524 4.1303372 -0.55223906
6.2572141 4.5933166 -0.54926616
7.0852137 5.2011371 -0.54857594
8.1291094 5.9674435 -0.54530394
9.5438623 7.00599 -0.54156309
11.568608 8.492322 -0.53697705
14.691718 10.784945 -0.53030133
20.106333 14.759723 -0.51831639
31.797096 23.341717 -0.4917686
1.6823636 1.2671199 -0.56434494
1.7257571 1.299803 -0.55969828
1.7841054 1.3437496 -0.558855
1.8484362 1.3922023 -0.55861151
1.9260678 1.4506727 -0.56090635
2.0006714 1.5068625 -0.56073129
2.066545 1.5564771 -0.55665565
2.1633146 1.6293619 -0.55921286
2.2601402 1.7022889 -0.5597648
2.3553877 1.7740271 -0.55792946
2.4732168 1.8627735 -0.55922693
2.5956712 1.9550034 -0.55906838
2.7253344 2.0526631 -0.55784118
2.8788865 2.1683152 -0.55855769
3.0380797 2.2882161 -0.55711544
3.2127488 2.4197731 -0.55504155
3.4144459 2.571687 -0.55372488
3.6681387 2.7627628 -0.55610102
3.9228961 2.9546406 -0.55334854
4.2488203 3.2001197 -0.55459398
4.6107893 3.4727471 -0.55338681
5.0375204 3.7941515 -0.55174822
5.5523648 4.1819215 -0.54996592
6.2130985 4.6795716 -0.55040312
7.0132513 5.2822294 -0.54799181
8.0545225 6.0664926 -0.54526341
9.4709597 7.1333222 -0.54236257
11.489273 8.6534729 -0.53819299
14.566184 10.970936 -0.53059942
19.936399 15.015666 -0.51865631
31.543495 23.757879 -0.49232736
1.6581877 1.2811666 -0.56147736
1.7140919 1.3243598 -0.56115419
1.7752712 1.3716288 -0.56132853
1.8341997 1.4171587 -0.55953306
1.9054885 1.4722387 -0.56014293
1.9588575 1.5134732 -0.55418611
2.060813 1.592247 -0.56034321
2.1408365 1.6540756 -0.55861771
2.2222862 1.7170062 -0.55557656
2.3344383 1.8036584 -0.55817842
2.4463196 1.8901013 -0.55835813
2.5735533 1.9884058 -0.55952847
2.7090461 2.0930917 -0.55973303
2.8502083 2.202158 -0.55820513
2.9916151 2.3114133 -0.553765
3.1899171 2.4646275 -0.55629081
3.4012983 2.6279471 -0.55679113
3.6313906 2.8057234 -0.5557183
3.8965056 3.0105593 -0.55480582
4.2143703 3.2561514 -0.55528158
4.5552545 3.5195289 -0.55187398
4.9894872 3.8550301 -0.55163747
5.5081205 4.2557421 -0.55072522
6.146708 4.7491341 -0.54965347
6.9517531 5.3711371 -0.54830569
7.9955716 6.1776228 -0.54637372
9.3810387 7.2480769 -0.54227602
11.365335 8.7812052 -0.53740472
14.446913 11.162126 -0.5312143
19.758585 15.266087 -0.51887476
31.295605 24.179941 -0.49306172
1.64621 1.3045487 -0.56281072
1.7064118 1.3522561 -0.56404084
1.7514653 1.387959 -0.55915546
1.8092151 1.4337231 -0.55724728
1.8765541 1.4870863 -0.5569706
1.9586254 1.5521243 -0.55947775
2.0365498 1.6138759 -0.55909967
2.1262259 1.6849402 -0.56016922
2.2110031 1.7521223 -0.55809987
2.3135779 1.8334082 -0.55853885
2.4273412 1.9235609 -0.5593828
2.5352223 2.0090516 -0.55652374
2.6817565 2.1251736 -0.55945158
2.8293207 2.2421117 -0.55947155
2.9762645 2.3585582 -0.55624986
3.1614249 2.5052898 -0.55665231
3.3714275 2.6717076 -0.55723715
3.5941594 2.8482125 -0.55533832
3.8685982 3.0656931 -0.55615771
4.1588964 3.2957416 -0.55327016
4.5214615 3.5830586 -0.55307591
4.9417963 3.9161553 -0.55164713
5.4504042 4.3192048 -0.55022317
6.0856671 4.8226228 -0.54945642
6.8868222 5.4575024 -0.54843593
7.9148307 6.2721539 -0.54608542
9.2973509 7.3677402 -0.54263443
11.27587 8.9356298 -0.53832918
14.316944 11.345547 -0.53152502
19.599989 15.532126 -0.51968616
31.031111 24.590786 -0.49362129
1.6254752 1.3209771 -0.56123281
1.6707617 1.3577802 -0.55773354
1.731684 1.40729 -0.55832261
1.8040916 1.4661335 -0.56117964
1.866497 1.5168487 -0.5594793
1.9301844 1.5686054 -0.55682111
2.0129166 1.6358395 -0.55809152
2.0950332 1.7025733 -0.55742478
2.1947992 1.7836504 -0.55950361
2.2955062 1.8654921 -0.55967164
2.4032931 1.9530874 -0.55933315
2.5182917 2.0465436 -0.55828917
2.6399636 2.1454227 -0.55619448
2.7870181 2.2649295 -0.55657172
2.9560113 2.4022655 -0.55794322
3.1271775 2.5413675 -0.55608243
3.3427563 2.7165623 -0.5579772
3.5758195 2.905966 -0.55798364
3.8244624 3.108031 -0.55526495
4.124507 3.3518686 -0.55413651
4.4833283 3.6434722 -0.55384976
4.8998318 3.9819527 -0.5523867
5.4139032 4.399724 -0.5519582
6.0183191 4.8909154 -0.54876423
6.8086028 5.5331559 -0.54758376
7.8356428 6.3678021 -0.54598296
9.2050571 7.4806857 -0.54257542
11.183167 9.0882387 -0.53919792
14.180693 11.524242 -0.53168738
19.407434 15.771866 -0.51968354
30.758739 24.996746 -0.49414068
1.6085914 1.3404311 -0.56105185
1.6695313 1.3912119 -0.56299084
1.7189538 1.4323955 -0.55985475
1.7849047 1.487352 -0.56085801
1.8466297 1.5387871 -0.5591535
1.9108067 1.5922655 -0.5568372
1.9963586 1.6635555 -0.55913007
2.0731561 1.7275505 -0.5572139
2.1630328 1.8024442 -0.55701357
2.2715263 1.8928512 -0.55945754
2.3726065 1.9770808 -0.55780715
2.4989872 2.0823934 -0.55964386
2.613308 2.1776562 -0.55617809
2.7691288 2.3075008 -0.55862337
2.9070108 2.4223974 -0.5542748
3.1079597 2.5898471 -0.55828583
3.2945836 2.7453597 -0.55552912
3.523046 2.9357364 -0.55533975
3.7780166 3.1482019 -0.55410016
4.0820074 3.4015162 -0.55400419
4.4280167 3.6898439 -0.55258012
4.8539391 4.0447626 -0.55277818
5.346971 4.4556036 -0.55067849
5.9638715 4.9696636 -0.54933006
6.761065 5.6339612 -0.54929072
7.7668386 6.4720669 -0.54669273
9.1285229 7.6067514 -0.54353648
11.077393 9.2307348 -0.53952992
14.044799 11.703459 -0.53194773
19.232687 16.026499 -0.52024192
30.486095 25.403908 -0.49474162
1.5915906 1.3597683 -0.5609116
1.6416459 1.4025328 -0.55936092
1.6997664 1.4521878 -0.55937904
1.7620536 1.5054026 -0.559452
1.8283659 1.5620562 -0.5593971
1.9099953 1.6317959 -0.56240559
1.9627876 1.6768988 -0.55546075
2.0567002 1.7571325 -0.55855602
2.1441216 1.8318206 -0.55790198
2.2374692 1.9115716 -0.5568167
2.3549516 2.0119424 -0.55943054
2.4687798 2.1091909 -0.55864501
2.5955644 2.2175086 -0.55816281
2.7401431 2.3410289 -0.55854094
2.8922567 2.4709866 -0.55721289
3.0606368 2.6148412 -0.55551887
3.2710767 2.7946296 -0.55731773
3.4930873 2.9843035 -0.55635977
3.7510145 3.2046623 -0.55587739
4.0415616 3.4528902 -0.55423546
4.4004116 3.7594719 -0.55486214
4.8068037 4.1066713 -0.5531193
5.3085694 4.5353522 -0.55242532
5.9084687 5.047874 -0.54990274
6.6894345 5.7150884 -0.54913908
7.6816387 6.5627737 -0.54633462
9.0284357 7.7134032 -0.54318345
10.953589 9.3581505 -0.53906393
13.907468 11.881783 -0.53223979
19.045395 16.271347 -0.52054852
30.217085 25.81583 -0.49549016
1.5752342 1.379658 -0.56108361
1.6259023 1.4240353 -0.55992067
1.6828204 1.4738866 -0.55972427
1.7385591 1.522705 -0.55789512
1.8078488 1.5833919 -0.55903447
1.8886774 1.6541851 -0.56207532
1.9545872 1.7119117 -0.55905503
2.0338781 1.781358 -0.55826455
2.1145873 1.8520466 -0.55610079
2.2299278 1.9530668 -0.5608741
2.3270915 2.038167 -0.55872363
2.4462488 2.14253 -0.55946583
2.5667672 2.2480853 -0.55787253
2.7021089 2.3666234 -0.556678
2.8651829 2.5094507 -0.55789965
3.0381484 2.6609414 -0.55733389
3.2308207 2.8296919 -0.55634528
3.4540701 3.0252235 -0.55602819
3.7140219 3.2529004 -0.55628091
4.004838 3.5076096 -0.55507219
4.3421659 3.8030558 -0.55337256
4.7483692 4.1588264 -0.55223799
5.2585859 4.6056962 -0.55307555
5.8515782 5.1250644 -0.55043161
6.6074204 5.7870631 -0.54820663
7.609858 6.6650414 -0.54701698
8.9435234 7.8331232 -0.54382867
10.832927 9.4879436 -0.53882658
13.763979 12.055086 -0.53238118
18.873325 16.530071 -0.52136165
29.931261 26.215088 -0.49605167
1.5532805 1.3945488 -0.55932957
1.6077478 1.4434501 -0.55973881
1.6571925 1.4878418 -0.55724317
1.7185761 1.5429527 -0.55752879
1.7920614 1.6089284 -0.56022805
1.8766191 1.6848451 -0.56460965
1.9357876 1.737967 -0.55974811
2.0173218 1.8111691 -0.55979085
2.0999706 1.8853719 -0.55831146
2.198133 1.973503 -0.5589385
2.3086479 2.0727241 -0.56037241
2.4093196 2.1631083 -0.55706114
2.5431514 2.2832637 -0.55879974
2.687233 2.4126213 -0.55968279
2.8316453 2.5422759 -0.55741417
3.0071335 2.6998308 -0.55769223
3.188036 2.8622465 -0.55499643
3.4089067 3.0605464 -0.55477422
3.6648009 3.2902904 -0.55492657
3.9682734 3.5627506 -0.55603427
4.3027582 3.8630543 -0.55436224
4.7041821 4.2234559 -0.55309713
5.190886 4.6604228 -0.55194074
5.7916207 5.1997681 -0.5507645
6.5601406 5.8897514 -0.55025119
7.5174389 6.7492223 -0.54629797
8.8461275 7.942131 -0.54380363
10.719212 9.6238022 -0.53901583
13.639124 12.245325 -0.53333563
18.682854 16.77363 -0.52175826
29.651632 26.621496 -0.49680501
1.5394562 1.4167074 -0.56058222
1.5960315 1.4687717 -0.56190515
1.6463892 1.5151142 -0.55983287
1.7102758 1.5739067 -0.56107223
1.7679758 1.6270061 -0.55891055
1.8269728 1.6812989 -0.55585092
1.9098859 1.7576009 -0.5584656
2.0045798 1.8447442 -0.56250709
2.0861118 1.9197754 -0.56086069
2.1622579 1.98985 -0.55599594
2.2811265 2.0992405 -0.55991548
2.3864231 2.1961412 -0.5579688
2.5135388 2.3131213 -0.55850059
2.6489227 2.4377103 -0.5579046
2.8004265 2.5771341 -0.55746472
2.9637721 2.7274551 -0.55582839
3.1634936 2.911252 -0.55691385
3.3804731 3.1109304 -0.55633026
3.6234772 3.3345587 -0.55483609
3.9158902 3.6036561 -0.55486143
4.2510538 3.9120955 -0.55385661
4.6482353 4.2776074 -0.55266178
5.138341 4.7286344 -0.55249447
5.7324018 5.2753277 -0.55125999
6.4729028 5.9567847 -0.54903615
7.4395766 6.8463807 -0.54671627
8.7458725 8.0485182 -0.54368341
10.611279 9.7651873 -0.53958571
13.49369 12.417768 -0.53357923
18.489464 17.015203 -0.52216107
29.362598 27.021368 -0.49749175
1.5234989 1.4370174 -0.56116354
1.5705789 1.4814249 -0.5593152
1.6230849 1.5309504 -0.55826759
1.6864552 1.5907235 -0.5596323
1.7543889 1.654801 -0.56100559
1.803372 1.7010036 -0.5549922
1.8974702 1.7897604 -0.56122798
1.9772161 1.8649794 -0.5612213
2.0595384 1.9426285 -0.5600962
2.1530514 2.0308335 -0.56000751
2.2474606 2.1198835 -0.55800813
2.367497 2.2331059 -0.55992162
2.4848359 2.3437841 -0.55848444
2.6174557 2.4688756 -0.55762899
2.7712412 2.6139317 -0.55801117
2.9295864 2.7632883 -0.55574757
3.1292062 2.9515767 -0.55722499
3.3268116 3.137965 -0.55380732
3.5930321 3.3890736 -0.55651337
3.869931 3.6502542 -0.55466729
4.2071433 3.9683249 -0.55445129
4.5981669 4.337152 -0.55300796
5.0804157 4.7920256 -0.55256021
5.6693997 5.3475761 -0.55148321
6.3978515 6.034677 -0.5489229
7.3737206 6.9551511 -0.54812014
8.6505013 8.1594553 -0.54395074
10.49014 9.8946667 -0.53957188
13.335287 12.578309 -0.5333913
18.291716 17.253386 -0.52252841
29.070684 27.420486 -0.49822095
1.5020185 1.4520676 -0.55978596
1.5567855 1.5050132 -0.56095117
1.6064032 1.552981 -0.55905586
1.6655279 1.6101394 -0.55921561
1.7294443 1.6719302 -0.55956084
1.7942846 1.7346143 -0.55871755
1.8621702 1.8002423 -0.5572924
1.9484473 1.8836502 -0.5595876
2.0385983 1.9708031 -0.56094956
2.1123281 2.0420809 -0.55590457
2.229856 2.1557002 -0.56017619
2.3334665 2.2558653 -0.55839151
2.453697 2.3720973 -0.55799937
2.5928915 2.5066628 -0.5589202
2.7405977 2.649457 -0.55835867
2.902348 2.8058281 -0.55708337
3.0890381 2.9863095 -0.55656904
3.2979143 3.1882393 -0.55548114
3.5563924 3.4381218 -0.55734438
3.8294804 3.7021279 -0.55535239
4.1525054 4.0144105 -0.55371422
4.5507526 4.3994136 -0.55376989
5.0171041 4.850256 -0.5521192
5.5979724 5.4118071 -0.55096674
6.3278446 6.1174068 -0.54932886
7.2754416 7.0334911 -0.54720223
8.5589867 8.2743502 -0.54455286
10.389818 10.044296 -0.54072368
13.192768 12.754032 -0.53392333
18.088461 17.486914 -0.52282518
28.764812 27.808216 -0.49880144
1.4830624 1.4694465 -0.55941308
1.5442897 1.5301117 -0.56318557
1.5859032 1.5713432 -0.55860364
1.6470338 1.6319125 -0.55970132
1.7033074 1.6876694 -0.55777651
1.7834755 1.7671015 -0.56207538
1.8555992 1.8385631 -0.56204927
1.9300194 1.9123 -0.56100607
2.0167086 1.9981934 -0.56164485
2.1038446 2.0845292 -0.56037527
2.2001758 2.179976 -0.55941188
2.305644 2.284476 -0.55841351
2.4266732 2.4043939 -0.55853516
2.5582848 2.5347974 -0.55813694
2.7008202 2.6760242 -0.55691653
2.8705492 2.8441947 -0.55765057
3.0529177 3.0248892 -0.55672067
3.254442 3.2245631 -0.5547955
3.5138476 3.4815872 -0.55734396
3.7790604 3.744365 -0.55467558
4.108933 4.071209 -0.55453759
4.4983921 4.4570928 -0.55402565
4.9535575 4.9080791 -0.55172592
5.5311956 5.4804139 -0.5509854
6.2489438 6.1915727 -0.54904723
7.1965446 7.1304736 -0.5478214
8.4548149 8.3771915 -0.54443777
10.261634 10.167423 -0.54051834
13.041904 12.922167 -0.534208
17.889685 17.725441 -0.52334011
28.463762 28.202438 -0.49955684
1.4661901 1.4888982 -0.55991238
1.5232961 1.5468887 -0.56242377
1.5698662 1.5941799 -0.55981725
1.6369621 1.662315 -0.56318235
1.6885076 1.7146589 -0.55979216
1.7563069 1.7835083 -0.56038231
1.8217654 1.8499806 -0.5586493
1.8958904 1.9252535 -0.55792481
1.9866443 2.0174131 -0.56013834
2.0728984 2.1050031 -0.55898476
2.165179 2.1987128 -0.55734575
2.2815795 2.3169162 -0.55944306
2.4043255 2.4415631 -0.56025928
2.5226407 2.5617108 -0.55719072
2.6755354 2.7169735 -0.55854958
2.831526 2.8753803 -0.55689627
3.0231268 3.0699484 -0.55812985
3.2254329 3.2753878 -0.55667406
3.4673905 3.5210927 -0.55680066
3.7488263 3.8068874 -0.55706662
4.0584717 4.1213284 -0.5545249
4.4364533 4.5051641 -0.55317819
4.9045844 4.9805455 -0.55305076
5.4648418 5.5494804 -0.55113155
6.1826887 6.2784448 -0.54996753
7.1094565 7.2195663 -0.54790843
8.3555393 8.4849491 -0.54472244
10.143147 10.300242 -0.54090774
12.890895 13.090547 -0.53457552
17.681242 17.955086 -0.52366155
28.157238 28.59333 -0.50031006
1.4571371 1.5165597 -0.56353402
1.502938 1.5642285 -0.56196648
1.546771 1.609849 -0.55859834
1.6058342 1.6713208 -0.55950129
1.6614971 1.7292536 -0.55784476
1.7285833 1.7990756 -0.55855292
1.8011191 1.8745694 -0.55934429
1.8786114 1.955222 -0.55987287
1.9578811 2.0377243 -0.55905104
2.0468278 2.1302984 -0.55897605
2.1500485 2.2377284 -0.56049162
2.2458041 2.3373888 -0.5576762
2.3684962 2.4650846 -0.55893141
2.4953446 2.5971057 -0.55817324
2.6433883 2.7511868 -0.55885863
2.8075697 2.9220636 -0.55920911
2.9854822 3.1072314 -0.55819166
3.1826885 3.3124797 -0.55628467
3.4222653 3.5618267 -0.55654544
3.6873815 3.8377545 -0.55490655
4.001565 4.1647506 -0.55370492
4.3814254 4.5601015 -0.5532667
4.8383055 5.0356135 -0.55251753
5.3966002 5.6166759 -0.55117291
6.1045227 6.3534675 -0.54992235
7.021852 7.3082061 -0.54804122
8.2589483 8.5957518 -0.54527485
10.019201 10.427789 -0.54109508
12.741323 13.260919 -0.53509444
17.480587 18.193451 -0.52430487
27.852987 28.988844 -0.50119984
1.4338528 1.5295321 -0.56176037
1.4771997 1.5757715 -0.55954534
1.5374427 1.6400344 -0.56246996
1.5827241 1.6883373 -0.55864042
1.6405249 1.7499951 -0.55798608
1.7074261 1.8213605 -0.55891103
1.777962 1.8966032 -0.55935305
1.8666235 1.9911811 -0.56355453
1.9378272 2.067136 -0.5605405
2.0224414 2.1573963 -0.55951864
2.1046617 2.2451034 -0.55581462
2.2263942 2.3749588 -0.56006581
2.3253148 2.4804802 -0.55589694
2.4749267 2.6400757 -0.56082529
2.6069219 2.7808788 -0.55833626
2.7625318 2.9468722 -0.55741388
2.940923 3.1371672 -0.55703086
3.1556952 3.366271 -0.55875933
3.3771489 3.6025021 -0.55637032
3.6485186 3.8919799 -0.55621809
3.9621043 4.226491 -0.55539399
4.3279943 4.616796 -0.5536465
4.7809401 5.0999665 -0.55308622
5.337615 5.6937876 -0.55225754
6.0293751 6.4317079 -0.55023563
6.9316168 7.394155 -0.54805332
8.1499977 8.6938381 -0.54509854
9.8982611 10.558761 -0.54153454
12.581518 13.421068 -0.53527355
17.274103 18.426783 -0.52486813
27.523294 29.359892 -0.50172573
1.4111378 1.5428915 -0.56025159
1.4667978 1.6037482 -0.56303251
1.5177354 1.6594417 -0.56268281
1.5566509 1.7019906 -0.55678242
1.6325216 1.7849452 -0.56268668
1.6938972 1.8520513 -0.56189477
1.7553066 1.9191943 -0.55960774
1.8314964 2.0024977 -0.56034106
1.9023389 2.0799544 -0.55763108
1.9952801 2.1815734 -0.55938357
2.0999632 2.2960303 -0.56198728
2.1905386 2.3950624 -0.55841243
2.306077 2.5213885 -0.55866772
2.4255524 2.652019 -0.55698442
2.5707002 2.8107185 -0.55793852
2.7340539 2.9893241 -0.55904233
2.9026263 3.1736357 -0.55712658
3.1051826 3.3951042 -0.55716527
3.3350041 3.6463833 -0.55677181
3.6011536 3.9373825 -0.55633628
3.9080436 4.2729259 -0.55513912
4.2652712 4.6635065 -0.55291671
4.7288866 5.1704087 -0.55437756
5.2593207 5.7503676 -0.55143106
5.9582725 6.5145783 -0.55101568
6.8402233 7.4788742 -0.54805702
8.0396471 8.7902842 -0.54490608
9.7820196 10.695336 -0.54232913
12.419213 13.578758 -0.53543162
17.061842 18.654854 -0.52534878
27.203547 29.743458 -0.5025261
1.3831055 1.5500895 -0.5566476
1.4457395 1.6202854 -0.56255454
1.4843771 1.6635877 -0.55785733
1.5447146 1.7312098 -0.56008494
1.608317 1.8024911 -0.56194097
1.6675303 1.8688532 -0.56072897
1.7337071 1.9430195 -0.5602963
1.8055861 2.0235767 -0.55998439
1.8843247 2.1118214 -0.55992025
1.9759402 2.2144978 -0.56155324
2.0578935 2.3063455 -0.55827612
2.1670368 2.4286656 -0.55999196
2.2778652 2.5528746 -0.55939567
2.4049902 2.6953475 -0.55983114
2.5308013 2.8363481 -0.55680656
2.6916821 3.0166521 -0.55792105
2.8618567 3.207372 -0.55682915
3.0622225 3.4319282 -0.55698687
3.2873924 3.684283 -0.55634445
3.5480945 3.97646 -0.55565113
3.8485768 4.31322 -0.5541839
4.2215962 4.7312741 -0.55475479
4.6606779 5.2233672 -0.55386913
5.1904354 5.8170824 -0.55166662
5.8708606 6.5796561 -0.55037242
6.7575946 7.5734468 -0.54885668
7.9429684 8.9019318 -0.54573125
9.646718 10.811378 -0.54215729
12.259692 13.73982 -0.53579766
16.847343 18.881342 -0.52585328
26.875544 30.12026 -0.50327075
1.3678322 1.5714478 -0.55823535
1.4147907 1.6253967 -0.55824685
1.4735302 1.69288 -0.56156164
1.5247447 1.7517184 -0.56061184
1.583375 1.8190764 -0.56099927
1.648349 1.8937225 -0.56206679
1.7143216 1.9695158 -0.56181562
1.7923574 2.0591681 -0.56369191
1.8521868 2.1279035 -0.55810344
1.9395503 2.228272 -0.55895609
2.0390472 2.3425801 -0.5609355
2.1285522 2.4454088 -0.55777538
2.2453208 2.5795596 -0.55915082
2.3690195 2.7216721 -0.55920601
2.5008283 2.8731019 -0.55794275
2.6511741 3.0458281 -0.55724567
2.8358352 3.2579782 -0.55951869
3.0325403 3.4839644 -0.55933791
3.2531734 3.7374411 -0.55828881
3.4988732 4.0197158 -0.55564159
3.8090091 4.3760185 -0.5561927
4.164495 4.7844224 -0.55494022
4.5915818 5.275085 -0.5533244
5.1142993 5.8756146 -0.55121183
5.7804117 6.6408844 -0.5495069
6.6592026 7.6504922 -0.54846448
7.8347917 9.0010796 -0.54586208
9.5153084 10.931758 -0.54228562
12.109253 13.911838 -0.53665853
16.633787 19.109896 -0.52648234
26.537643 30.488041 -0.50392544
1.3487484 1.5885495 -0.55837673
1.3939816 1.6418248 -0.55795979
1.443393 1.7000213 -0.55800074
1.5060352 1.7738011 -0.56170988
1.5508913 1.8266324 -0.55740607
1.6191014 1.9069699 -0.56004721
1.6844895 1.9839836 -0.55999178
1.7600006 2.0729203 -0.5614897
1.8273032 2.152189 -0.55853754
1.9069495 2.245996 -0.55747789
2.0053377 2.3618772 -0.55960935
2.1058755 2.4802902 -0.55978274
2.2185481 2.6129951 -0.56044269
2.3369126 2.7524047 -0.55957401
2.4778426 2.9183912 -0.56077844
2.6102772 3.0743721 -0.55655348
2.7854445 3.2806833 -0.55749363
2.9873154 3.5184457 -0.55893409
3.1901503 3.7573438 -0.55536008
3.4438972 4.0562057 -0.5547899
3.7418914 4.4071817 -0.55426347
4.1119652 4.8430529 -0.555834
4.523859 5.3281798 -0.55301696
5.0505428 5.9485054 -0.55218202
5.7141318 6.7300768 -0.55103153
6.5733542 7.742065 -0.54919314
7.7228317 9.0959148 -0.54581302
9.3831997 11.051488 -0.54246038
11.937733 14.060205 -0.53667873
16.406078 19.323 -0.52675575
26.209492 30.869413 -0.50486392
1.3425287 1.6212118 -0.56401217
1.3768486 1.6626559 -0.55924314
1.4333464 1.7308816 -0.56230241
1.4817191 1.7892954 -0.56080443
1.5406078 1.8604083 -0.56188965
1.5948529 1.9259137 -0.55980891
1.6665593 2.0125051 -0.56221539
1.7323189 2.0919149 -0.56082255
1.8026444 2.1768386 -0.55913979
1.8807837 2.271198 -0.55795079
1.9791763 2.3900151 -0.5604676
2.0720611 2.5021811 -0.5589307
2.1753888 2.6269577 -0.55765784
2.3018968 2.7797263 -0.55933177
2.4254842 2.928968 -0.55703771
2.5765159 3.111351 -0.55747026
2.739049 3.3076229 -0.55630606
2.9319649 3.5405843 -0.55668163
3.1545484 3.8093719 -0.5572747
3.3969848 4.1021338 -0.55531651
3.6962907 4.4635696 -0.55559689
4.0475092 4.8876939 -0.55520338
4.4545879 5.3792748 -0.55259317
4.9803391 6.0141616 -0.5525502
5.6409173 6.8118629 -0.5520069
6.4772353 7.821785 -0.54915679
7.6315928 9.215765 -0.54733229
9.2561789 11.177584 -0.54302192
11.782399 14.228199 -0.53752029
16.186697 19.546745 -0.52738935
25.863537 31.232309 -0.50555944
1.3123071 1.6249828 -0.55966794
1.368259 1.6942661 -0.56417364
1.3988637 1.7321628 -0.55708855
1.4574562 1.8047159 -0.55997819
1.515506 1.8765968 -0.56110817
1.5682561 1.9419154 -0.55881256
1.6365353 2.026463 -0.56045061
1.7158126 2.1246293 -0.56389397
1.7792791 2.2032175 -0.56025332
1.8575361 2.3001204 -0.55940241
1.9468836 2.4107563 -0.55967516
2.0474181 2.5352445 -0.56065017
2.1496603 2.6618476 -0.55941081
2.2648671 2.8045037 -0.5586713
2.3956504 2.9664478 -0.55852115
2.5462952 3.152986 -0.55927789
2.7034311 3.3475621 -0.55739021
2.9006734 3.5918 -0.55908388
3.1174085 3.8601754 -0.5590567
3.3551462 4.1545572 -0.55678612
3.6396153 4.5068054 -0.55536586
3.9886796 4.9390392 -0.55542248
4.3902755 5.4363208 -0.5528658
4.9087763 6.078362 -0.55286115
5.5507951 6.8733506 -0.55141681
6.3786788 7.89849 -0.54899383
7.5132871 9.3034344 -0.54701078
9.1254253 11.299687 -0.5434615
11.597163 14.360352 -0.53708488
15.96398 19.767624 -0.52801257
25.523331 31.604626 -0.50646764
1.2949947 1.6445091 -0.56086624
1.3427676 1.7051758 -0.56226587
1.3851204 1.7589595 -0.56018662
1.4271795 1.8123701 -0.55686575
1.4954062 1.8990109 -0.56226945
1.5510405 1.9696609 -0.56126595
1.6123685 2.0475411 -0.56075436
1.6764946 2.1289747 -0.5595336
1.7521969 2.2251086 -0.56029874
1.8297307 2.3235686 -0.55959088
1.9131659 2.4295228 -0.55852818
2.0030346 2.5436466 -0.55701935
