# .PCD v0.7 - Point Cloud Data file format
VERSION 0.7
FIELDS x y z
SIZE 4 4 4
TYPE F F F
COUNT 1 1 1
WIDTH 1457
HEIGHT 1
VIEWPOINT 0 0 0 1 0 0 0
POINTS 1457
DATA ascii
-1.9386415 12.264616 -0.56798327
-2.3730052 15.012573 -0.56870431
-3.0622814 19.373209 -0.57070065
-4.3084521 27.256979 -0.57345128
-7.2679086 45.979675 -0.58035797
-0.35477945 2.0784273 -0.56496722
-0.36624619 2.1456039 -0.56388104
-0.38031667 2.2280338 -0.56554091
-0.39355719 2.3056016 -0.56461614
-0.40494549 2.3723183 -0.559829
-0.42490667 2.4892583 -0.5653438
-0.44041228 2.5800958 -0.56317222
-0.4595786 2.692379 -0.5639717
-0.48033312 2.8139665 -0.56474549
-0.50068873 2.933217 -0.56302118
-0.52905154 3.0993769 -0.56788963
-0.55136144 3.2300763 -0.5637567
-0.58260751 3.4131272 -0.56611794
-0.61369324 3.5952387 -0.56524253
-0.64788043 3.7955201 -0.56400239
-0.68777961 4.029264 -0.5640766
-0.7357136 4.3100786 -0.56639928
-0.78811121 4.617043 -0.56719911
-0.84485722 4.9494815 -0.56573796
-0.91536313 5.3625312 -0.56720525
-0.99439591 5.8255339 -0.56656909
-1.0895933 6.3832345 -0.56653738
-1.2045296 7.0565734 -0.56638962
-1.3467286 7.889627 -0.56636024
-1.5331298 8.9816332 -0.56868744
-1.7692081 10.364666 -0.56857204
-2.0913205 12.251718 -0.5685339
-2.5598879 14.996757 -0.56925452
-3.3027544 19.34874 -0.57113302
-4.6525707 27.256456 -0.57460046
-7.849381 45.984535 -0.58159363
-0.38064352 2.0757377 -0.56546563
-0.39331797 2.1448543 -0.56491238
-0.40482321 2.2075951 -0.5615741
-0.42162693 2.2992296 -0.56428272
-0.43709025 2.3835547 -0.56370634
-0.45354187 2.4732692 -0.56293648
-0.47452375 2.5876882 -0.56606036
-0.49114406 2.6783228 -0.56224984
-0.51567471 2.8120942 -0.5655995
-0.53669024 2.9266965 -0.56299376
-0.56273234 3.0687103 -0.56349593
-0.59283173 3.2328491 -0.56547016
-0.62424022 3.4041271 -0.56585556
-0.66065055 3.6026812 -0.56764692
-0.69626576 3.7968988 -0.56543678
-0.7373836 4.0211244 -0.5641638
-0.78965575 4.3061762 -0.5671196
-0.84089208 4.5855799 -0.56456149
-0.90556991 4.9382834 -0.56568801
-0.97904652 5.3389683 -0.5659436
-1.0648329 5.8067818 -0.56597596
-1.1673229 6.3656831 -0.56621075
-1.2934551 7.0535116 -0.56737757
-1.4469947 7.8907986 -0.56767869
-1.6368051 8.9258785 -0.56638879
-1.8928733 10.322278 -0.56748068
-2.2436755 12.235284 -0.56900853
-2.7471318 14.980748 -0.56988603
-3.5426335 19.318804 -0.57149208
-4.9921236 27.223211 -0.57515019
-8.4323072 45.983334 -0.58284575
-0.40431368 2.0616031 -0.56292695
-0.42163637 2.1499317 -0.56757236
-0.43484852 2.2173007 -0.56536049
-0.45071518 2.2982051 -0.56534874
-0.46854666 2.3891282 -0.5663442
-0.48848876 2.4908135 -0.56825393
-0.50445557 2.5722284 -0.56399274
-0.52730852 2.688756 -0.56575847
-0.55169588 2.8131077 -0.56712496
-0.57415301 2.9276168 -0.56448621
-0.60061061 3.0625248 -0.56367362
-0.63130414 3.2190316 -0.56436849
-0.66728276 3.4024873 -0.56690401
-0.70229244 3.5810025 -0.56554908
-0.74271035 3.7870941 -0.56529397
-0.78639257 4.0098305 -0.56389332
-0.83969873 4.2816396 -0.56520522
-0.90008324 4.5895414 -0.566369
-0.9674198 4.9328918 -0.56639028
-1.0446436 5.3266578 -0.56595749
-1.1368963 5.7970552 -0.56634772
-1.246956 6.3582516 -0.56687075
-1.3767906 7.0202813 -0.56602359
-1.542339 7.8644156 -0.56710219
-1.7500161 8.9233646 -0.56755185
-2.0245798 10.323371 -0.56886637
-2.3955433 12.21492 -0.56938833
-2.9339073 14.960048 -0.57042778
-3.7847514 19.298517 -0.57222545
-5.3334842 27.195536 -0.57590759
-9.0156574 45.971008 -0.58405054
-0.43099153 2.0629852 -0.56470871
-0.44756585 2.1423199 -0.56697285
-0.46068615 2.2051215 -0.56365687
-0.4785786 2.2907655 -0.56492358
-0.49867889 2.3869777 -0.56724513
-0.51609832 2.4703577 -0.56499225
-0.53654379 2.5682218 -0.56451821
-0.55830413 2.67238 -0.56371462
-0.5858497 2.8042297 -0.56674463
-0.61016732 2.9206285 -0.56454277
-0.6369397 3.0487773 -0.56254238
-0.67123199 3.2129207 -0.56470144
-0.70475018 3.373359 -0.56345212
-0.74894935 3.5849228 -0.56757981
-0.79152703 3.7887254 -0.5669474
-0.83950585 4.0183806 -0.5665046
-0.89412171 4.2798052 -0.56637162
-0.95294493 4.5613685 -0.56429577
-1.0288323 4.9246116 -0.56684923
-1.1121312 5.3233304 -0.5670141
-1.2053581 5.7695704 -0.56506789
-1.3261945 6.3479662 -0.56736475
-1.4653851 7.0142155 -0.56694448
-1.6419842 7.8595262 -0.56816262
-1.8607745 8.9067879 -0.5679099
-2.1526845 10.304045 -0.56921703
-2.5464594 12.18889 -0.56959152
-3.1201594 14.934963 -0.57089108
-4.0277534 19.279255 -0.57307947
-5.6728711 27.15378 -0.5764569
-9.6002131 45.952404 -0.58526969
-0.4566752 2.0591114 -0.56514275
-0.47281775 2.1318967 -0.56571031
-0.48665634 2.1942937 -0.56237632
-0.50690484 2.2855928 -0.56514233
-0.52835315 2.3823016 -0.56763488
-0.5451712 2.4581325 -0.56368685
-0.56770307 2.559727 -0.5641427
-0.5947125 2.6815102 -0.56714028
-0.62058359 2.798161 -0.5670175
-0.64563131 2.911099 -0.56419265
-0.67763913 3.0554197 -0.56526273
-0.71007293 3.2016611 -0.56421447
-0.7498728 3.3811154 -0.56624502
-0.78825039 3.5541568 -0.5642007
-0.83430541 3.7618153 -0.56441307
-0.88685226 3.9987447 -0.56523103
-0.94684386 4.2692423 -0.5664717
-1.0088007 4.5486002 -0.56420809
-1.0893662 4.9118633 -0.56688094
-1.1782014 5.3124146 -0.56735164
-1.2799883 5.7713633 -0.56674212
-1.4052521 6.3361673 -0.56781173
-1.5520223 6.9979429 -0.56712884
-1.7328765 7.8133993 -0.56632566
-1.9677123 8.8722544 -0.56720787
-2.2807226 10.283593 -0.56959349
-2.696209 12.156987 -0.56960696
-3.3057215 14.90523 -0.57126516
-4.2660413 19.235233 -0.57328689
-6.0151248 27.12171 -0.57730269
-10.186308 45.929234 -0.58652556
-0.48406529 2.0623162 -0.56761312
-0.49546403 2.1108794 -0.56170744
-0.51699299 2.2026017 -0.56609201
-0.53590637 2.2831805 -0.56613243
-0.55500054 2.3645294 -0.56498367
-0.57842946 2.4643459 -0.56669986
-0.60045832 2.5581982 -0.56539029
-0.62459511 2.6610308 -0.56439054
-0.65052134 2.771487 -0.56319064
-0.68009996 2.8975039 -0.56313604
-0.71739781 3.0564079 -0.56703472
-0.75300014 3.2080886 -0.56693602
-0.78668457 3.351598 -0.56287915
-0.83494961 3.5572269 -0.56627506
-0.88340342 3.76366 -0.56627685
-0.93764615 3.9947562 -0.5662542
-0.9994849 4.2582145 -0.56659639
-1.0688738 4.5538397 -0.56644547
-1.1526109 4.9105935 -0.56832713
-1.2418191 5.2906575 -0.566616
-1.3506551 5.754343 -0.56665885
-1.4796847 6.3040619 -0.5665223
-1.6429371 6.9995837 -0.56885612
-1.8321458 7.8056903 -0.56735694
-2.0790725 8.8576994 -0.56786877
-2.4057374 10.249425 -0.56929642
-2.848227 12.134612 -0.57015646
-3.4853125 14.848857 -0.57070398
-4.5033226 19.185995 -0.57342649
-6.3561325 27.079725 -0.57802892
-10.771976 45.893024 -0.58771026
-0.50774777 2.0495954 -0.56578761
-0.52508181 2.1195667 -0.56569445
-0.54142493 2.1855381 -0.563375
-0.56191486 2.2682486 -0.56410056
-0.58668303 2.3682289 -0.56754845
-0.60872811 2.457217 -0.5667389
-0.63047421 2.5449982 -0.56414372
-0.65827984 2.6572394 -0.56526053
-0.68703485 2.773313 -0.56523567
-0.71736366 2.8957396 -0.56446487
-0.74889511 3.0230207 -0.5625065
-0.79190379 3.1966314 -0.56658924
-0.83188772 3.3580322 -0.56563485
-0.87811297 3.5446267 -0.56594539
-0.92952859 3.7521732 -0.56622547
-0.98427957 3.9731834 -0.56486917
-1.0520058 4.2465696 -0.56672531
-1.1236441 4.535748 -0.565871
-1.2112335 4.8893147 -0.56754524
-1.3066193 5.274353 -0.56654775
-1.4216604 5.7387328 -0.56680024
-1.5563939 6.2826033 -0.56627095
-1.7254475 6.9650126 -0.56772786
-1.9311843 7.7954979 -0.56829917
-2.1884651 8.8340483 -0.56803477
-2.5312312 10.217672 -0.56921852
-2.9980466 12.102037 -0.57031494
-3.6763854 14.840248 -0.57206738
-4.7438555 19.14924 -0.57402796
-6.6947942 27.024481 -0.57856321
-11.355915 45.839752 -0.58877176
-0.52853298 2.0264146 -0.56114024
-0.54975778 2.1077914 -0.56431329
-0.56671387 2.1728017 -0.56184572
-0.59084576 2.2653244 -0.56513745
-0.61238509 2.3479068 -0.56444025
-0.6371941 2.4430254 -0.56523013
-0.66673732 2.5562954 -0.56842232
-0.68853158 2.6398554 -0.56332093
-0.72453129 2.7778795 -0.56793928
-0.75462359 2.8932545 -0.56574649
-0.79182416 3.0358829 -0.56666869
-0.82839167 3.176084 -0.56471014
-0.87235188 3.344629 -0.56514138
-0.92281353 3.5381007 -0.56667233
-0.97584951 3.7414427 -0.56637418
-1.032602 3.9590337 -0.56462002
-1.1029559 4.2287736 -0.56611753
-1.1837144 4.5384045 -0.56797534
-1.2705153 4.8712025 -0.56721336
-1.3735442 5.2662187 -0.56744528
-1.4950775 5.732182 -0.56792605
-1.6341172 6.2652655 -0.56647652
-1.8139913 6.9549093 -0.56867951
-2.0228195 7.7555637 -0.5671584
-2.3012791 8.8231888 -0.56911308
-2.656395 10.184715 -0.56915921
-3.1498649 12.076697 -0.57090288
-3.859144 14.7961 -0.57215154
-4.9834666 19.106794 -0.57454908
-7.0372519 26.981081 -0.57944286
-11.947276 45.806293 -0.59018433
-0.55521065 2.0263388 -0.56296718
-0.57697189 2.1057603 -0.5656262
-0.59923577 2.1870162 -0.56738383
-0.61856943 2.2575777 -0.56505978
-0.64616829 2.3583047 -0.56880701
-0.66598082 2.430614 -0.56421065
-0.69641006 2.5416708 -0.56703168
-0.72124439 2.6323082 -0.56356037
-0.75498593 2.7554538 -0.56520969
-0.79105341 2.8870885 -0.56639999
-0.82596898 3.014519 -0.56453407
-0.86773992 3.1669693 -0.56494397
-0.90972698 3.3202083 -0.56286263
-0.96442783 3.5198491 -0.5656057
-1.0194923 3.7208161 -0.56510675
-1.0853026 3.9610028 -0.56676126
-1.153586 4.2102151 -0.56548929
-1.2356102 4.5095768 -0.56622624
-1.3262252 4.840292 -0.56547028
-1.4342625 5.2345929 -0.56589514
-1.5650805 5.7120366 -0.56779391
-1.7145072 6.2573953 -0.5676282
-1.8942988 6.9135761 -0.56716156
-2.1215577 7.7429976 -0.56810427
-2.4081759 8.7890615 -0.56877881
-2.783721 10.159678 -0.56962991
-3.2999144 12.043617 -0.57121414
-4.045073 14.763206 -0.57275963
-5.2242928 19.066975 -0.57523996
-7.375587 26.918501 -0.58000273
-12.536214 45.753117 -0.59144056
-0.57968074 2.0179567 -0.56257623
-0.60048258 2.0903711 -0.56343329
-0.62305033 2.1689327 -0.56463724
-0.64662486 2.2509992 -0.56536061
-0.66501272 2.3150101 -0.56029463
-0.7001946 2.4374835 -0.56776088
-0.72429824 2.5213921 -0.56445193
-0.75270391 2.6202767 -0.56292349
-0.79030079 2.7511568 -0.56627882
-0.82631165 2.8765163 -0.56627649
-0.86246818 3.0023825 -0.56420469
-0.91212589 3.1752486 -0.56837869
-0.956249 3.3288479 -0.5662778
-1.0099651 3.5158417 -0.5669145
-1.0721996 3.7324896 -0.56883901
-1.1277213 3.9257689 -0.56366134
-1.2053722 4.1960835 -0.56553924
-1.2902625 4.4915996 -0.56591833
-1.3863847 4.8262157 -0.56577462
-1.5036302 5.2343645 -0.56782633
-1.6373744 5.6999488 -0.56855077
-1.7922035 6.2389326 -0.5679096
-1.982947 6.9029393 -0.5682463
-2.2203839 7.7294931 -0.56907362
-2.513835 8.7510405 -0.56827575
-2.9099276 10.1299 -0.5699234
-3.446846 11.998994 -0.57106477
-4.2254457 14.709417 -0.57264537
-5.4678116 19.034281 -0.57623845
-7.71665 26.862829 -0.58080381
-13.117457 45.66386 -0.59232706
-0.6050716 2.0127485 -0.56315589
-0.62792575 2.0887718 -0.56504065
-0.6557982 2.1814885 -0.56996202
-0.67388916 2.2416673 -0.56505531
-0.69968331 2.3274705 -0.56534994
-0.72889674 2.424648 -0.56681603
-0.76025367 2.5289557 -0.56819499
-0.79005343 2.6280835 -0.56664491
-0.82284939 2.7371781 -0.56544143
-0.86074948 2.8632512 -0.56570596
-0.90007389 2.9940624 -0.56467837
-0.94794881 3.1533167 -0.56649649
-0.99618489 3.3137722 -0.56575429
-1.050158 3.4933116 -0.56532109
-1.114274 3.7065914 -0.56693739
-1.1803017 3.92623 -0.5657686
-1.2615077 4.1963592 -0.56762415
-1.3449751 4.47401 -0.56574315
-1.442012 4.7967997 -0.56436217
-1.5699658 5.2224336 -0.56858331
-1.7053822 5.6728911 -0.5679006
-1.8695832 6.2190995 -0.56815392
-2.0690098 6.8824849 -0.56861389
-2.3156016 7.7027631 -0.56915897
-2.6299536 8.7484436 -0.57016408
-3.0395255 10.110869 -0.57091236
-3.5975697 11.967183 -0.57161295
-4.4100986 14.670031 -0.57317984
-5.6981907 18.954821 -0.57591057
-8.0546055 26.793348 -0.58139902
-13.713237 45.616573 -0.5938561
-0.6347816 2.0211012 -0.56763405
-0.65858114 2.0968776 -0.569381
-0.67885 2.161412 -0.56685477
-0.70162731 2.2339334 -0.56523782
-0.72632319 2.3125634 -0.56385577
-0.75902665 2.4166892 -0.56709445
-0.78402734 2.4962895 -0.56297916
-0.82391077 2.6232758 -0.5677498
-0.85436589 2.7202427 -0.56407058
-0.89304948 2.8434086 -0.56391257
-0.93710268 2.9836712 -0.56484908
-0.9887408 3.1480832 -0.56769758
-1.0377185 3.3040249 -0.56622589
-1.097432 3.4941487 -0.56759745
-1.1591738 3.6907303 -0.56664872
-1.2265229 3.9051654 -0.5648638
-1.3109515 4.1739802 -0.56673467
-1.4007422 4.4598675 -0.56609005
-1.5112344 4.8116674 -0.56825483
-1.6253986 5.175158 -0.56556952
-1.7733134 5.6461091 -0.56735957
-1.9428086 6.18577 -0.56724864
-2.1487923 6.8416076 -0.56737679
-2.4082105 7.6675782 -0.56870425
-2.7360449 8.71138 -0.56989813
-3.1635904 10.072656 -0.57090801
-3.7449076 11.923531 -0.57168418
-4.5947757 14.629452 -0.57375848
-5.9363017 18.90078 -0.5764429
-8.3925505 26.721308 -0.58203113
-14.301782 45.535896 -0.59505028
-0.65591061 2.0019314 -0.56447268
-0.68386364 2.0872478 -0.56900656
-0.7012496 2.1403124 -0.56353998
-0.72918367 2.2255712 -0.56534791
-0.75680828 2.3098853 -0.56542903
-0.78397584 2.3928046 -0.56370926
-0.81755108 2.495281 -0.56497622
-0.85214394 2.600863 -0.56512415
-0.89329296 2.7264557 -0.56759369
-0.92824113 2.8331225 -0.56409359
-0.97903353 2.988148 -0.56793278
-1.0252115 3.1290894 -0.56650293
-1.0768529 3.2867064 -0.5654844
-1.1368967 3.4699688 -0.56589776
-1.203608 3.6735809 -0.5662452
-1.2757261 3.8936956 -0.56543106
-1.3616631 4.1559873 -0.56652224
-1.4575658 4.4486957 -0.56690407
-1.5633495 4.7715626 -0.56574601
-1.700997 5.1916819 -0.56961811
-1.8424619 5.6234527 -0.56731659
-2.0202749 6.166163 -0.56768584
-2.2326815 6.8144579 -0.56735909
-2.5007603 7.6326718 -0.568353
-2.8419785 8.674118 -0.56970352
-3.2864909 10.030832 -0.57078487
-3.896193 11.891728 -0.57241321
-4.7771273 14.580464 -0.57409763
-6.174129 18.844311 -0.57699245
-8.7280493 26.639233 -0.58253706
-14.890197 45.446976 -0.59623581
-0.67716289 1.9840086 -0.56172442
-0.70315576 2.0601647 -0.56393784
-0.73178768 2.144053 -0.56685126
-0.75301009 2.2062321 -0.56274492
-0.79260749 2.322248 -0.57079786
-0.81036204 2.3742669 -0.56164706
-0.84989834 2.4901035 -0.56612736
-0.88935685 2.6057124 -0.56851107
-0.92201227 2.7013891 -0.56469285
-0.96335888 2.8225298 -0.56430048
-1.0110739 2.9623294 -0.56534582
-1.0604959 3.1071298 -0.56484544
-1.1164012 3.270926 -0.56508857
-1.1796275 3.4561718 -0.56597048
-1.2488213 3.6589015 -0.56630671
-1.3279089 3.8906188 -0.56731254
-1.416823 4.1511273 -0.56819165
-1.511067 4.4272509 -0.56649631
-1.6215523 4.7509599 -0.56562465
-1.7621883 5.1630073 -0.56880647
-1.9118896 5.6016145 -0.5674423
-2.0978765 6.1465349 -0.56821072
-2.3199942 6.7973137 -0.56826389
-2.6020358 7.6236629 -0.57002163
-2.9505365 8.6447296 -0.57011312
-3.4124787 9.9981661 -0.57127059
-4.0381956 11.831444 -0.57185835
-4.9629507 14.54087 -0.57489806
-6.4133282 18.790308 -0.57770991
-9.0666094 26.564112 -0.58328825
-15.478194 45.349312 -0.59740639
-0.709795 1.9988751 -0.56836164
-0.73065293 2.0576136 -0.56565613
-0.75627375 2.1297653 -0.56548971
-0.78744829 2.217557 -0.5680604
-0.81756514 2.3023698 -0.56833994
-0.84842187 2.3892663 -0.56762028
-0.88311166 2.4869573 -0.56783801
-0.91440064 2.5750711 -0.56423628
-0.95094585 2.6779871 -0.56220281
-1.0018274 2.8212762 -0.56646991
-1.0523649 2.9635968 -0.56801438
-1.0962265 3.0871162 -0.56361508
-1.161467 3.2708421 -0.56749851
-1.2234321 3.445344 -0.56661808
-1.293818 3.6435597 -0.56635177
-1.3734691 3.8678677 -0.56641489
-1.4665252 4.1299257 -0.56771511
-1.5640339 4.4045229 -0.56600618
-1.6867577 4.7501287 -0.5679521
-1.8188449 5.1221037 -0.56672126
-1.9828939 5.5840874 -0.56809378
-2.1771607 6.1311674 -0.56922197
-2.4088004 6.7834949 -0.56954187
-2.6929383 7.5836644 -0.56946379
-3.0547526 8.602581 -0.56976759
-3.5351894 9.9555531 -0.57127637
-4.1889615 11.796659 -0.57262349
-5.1434555 14.484639 -0.57513195
-6.6524467 18.734156 -0.57845479
-9.4075613 26.492916 -0.58422083
-16.064476 45.239651 -0.59851879
-0.72720486 1.9707184 -0.5628556
-0.7584123 2.0552905 -0.56753832
-0.78228641 2.1199889 -0.56540531
-0.80962962 2.1940889 -0.5645563
-0.83767551 2.270093 -0.56287253
-0.87541026 2.3723538 -0.56611687
-0.91071486 2.468029 -0.56603032
-0.95035791 2.5754611 -0.56683952
-0.99188268 2.687993 -0.56682104
-1.0381572 2.8133967 -0.56740808
-1.0849622 2.9402375 -0.56605154
-1.1413213 3.0929704 -0.56720316
-1.2038932 3.2625394 -0.56858349
-1.2637093 3.4246407 -0.56572598
-1.3401359 3.6317563 -0.56703562
-1.4173898 3.8411131 -0.56500655
-1.5125291 4.0989404 -0.56596953
-1.6193374 4.3883896 -0.56644899
-1.7475488 4.7358413 -0.56877005
-1.8840982 5.1058888 -0.56744766
-2.0531542 5.5640287 -0.56857866
-2.2509153 6.0999599 -0.56885129
-2.4918718 6.7529497 -0.56950688
-2.7909429 7.5634294 -0.5704782
-3.1689663 8.5878696 -0.57133096
-3.6621132 9.9242935 -0.57202339
-4.3367691 11.752604 -0.57303017
-5.3211565 14.420285 -0.5751313
-6.8831191 18.653189 -0.57852447
-9.7432032 26.403992 -0.58485764
-16.657637 45.142044 -0.59989196
-0.75507379 1.971269 -0.56562191
-0.77863926 2.0327914 -0.56392676
-0.81332386 2.1233423 -0.56892395
-0.83926743 2.1910732 -0.56639296
-0.87120372 2.2744491 -0.56656605
-0.90514851 2.3630688 -0.56651437
-0.94055694 2.4555094 -0.56576872
-0.97804022 2.5533669 -0.56458098
-1.0208879 2.6652291 -0.5646252
-1.0675237 2.7869813 -0.56468534
-1.1221043 2.9294746 -0.56659299
-1.1806473 3.0823123 -0.56786811
-1.2449061 3.250073 -0.56903565
-1.3096347 3.4190598 -0.56742138
-1.3860613 3.6185865 -0.56759757
-1.4734044 3.8466129 -0.56843758
-1.5683876 4.0945849 -0.56798816
-1.6775197 4.3794961 -0.56792063
-1.8076849 4.7193179 -0.56941217
-1.9503095 5.0916677 -0.56848943
-2.1195002 5.5333734 -0.5680663
-2.3187883 6.0536542 -0.56714916
-2.5719001 6.7144523 -0.56888431
-2.8859644 7.534379 -0.57092053
-3.2683733 8.532733 -0.57029343
-3.785578 9.8829985 -0.57228297
-4.4810133 11.698568 -0.57303882
-5.5027876 14.366112 -0.57562584
-7.1166334 18.579376 -0.57890546
-10.078877 26.312899 -0.58554083
-17.246454 45.025269 -0.6011129
-0.77907693 1.9613889 -0.56549299
-0.79994631 2.0139291 -0.56138045
-0.83623284 2.1052835 -0.56679755
-0.86389941 2.1749363 -0.5649249
-0.89196575 2.2455955 -0.56206828
-0.93345356 2.3500445 -0.5661009
-0.96204138 2.4220166 -0.56073499
-1.0147902 2.5548158 -0.56761754
-1.0523628 2.6494079 -0.56397229
-1.1041602 2.7798121 -0.56594092
-1.1553204 2.908612 -0.56526285
-1.214147 3.0567126 -0.56585956
-1.2789825 3.2199414 -0.5664708
-1.3501025 3.3989918 -0.56680328
-1.4277972 3.5945945 -0.56654531
-1.5181435 3.8220484 -0.5675233
-1.6190206 4.0760145 -0.56813079
-1.7294636 4.354064 -0.56733751
-1.8630729 4.6904359 -0.56864852
-2.0122466 5.0659928 -0.56834251
-2.1872506 5.5065799 -0.56803381
-2.400907 6.044477 -0.56901222
-2.6572993 6.6899648 -0.56953496
-2.9742086 7.4878092 -0.57011986
-3.3745847 8.4957886 -0.57055449
-3.9059784 9.8336153 -0.57216132
-4.6304083 11.657425 -0.57376909
-5.6847515 14.311819 -0.57620776
-7.3531923 18.512255 -0.57958752
-10.415409 26.22163 -0.58631551
-17.826246 44.879009 -0.60204118
-0.8031255 1.9516399 -0.56548673
-0.82881302 2.0140619 -0.56421566
-0.85873026 2.0867624 -0.56461143
-0.89320284 2.1705327 -0.56659108
-0.92427468 2.2460392 -0.56498134
-0.962982 2.3401 -0.56651503
-1.0029597 2.4372482 -0.56707376
-1.0433973 2.5355136 -0.56613684
-1.089864 2.6484306 -0.56657416
-1.137095 2.7632046 -0.56536371
-1.1941291 2.9018004 -0.56674987
-1.2504315 3.0386186 -0.56531364
-1.3169779 3.20033 -0.56582683
-1.3866404 3.3696139 -0.56470495
-1.4710917 3.5748353 -0.56623936
-1.557942 3.7858863 -0.56495553
-1.6626402 4.040309 -0.56596082
-1.7774814 4.3193793 -0.56562334
-1.9219497 4.6704454 -0.56904715
-2.0746052 5.0414066 -0.56840324
-2.2562497 5.4828129 -0.56840116
-2.4768209 6.0188131 -0.56942034
-2.7386816 6.655149 -0.56939489
-3.0671945 7.453454 -0.57033265
-3.4844921 8.4675102 -0.57148969
-4.0271425 9.7861814 -0.57223946
-4.7729406 11.598513 -0.57371473
-5.8611107 14.242827 -0.57628816
-7.5908356 18.446156 -0.58039653
-10.746795 26.115311 -0.58684868
-18.4226 44.767944 -0.60354453
-0.82645327 1.9401901 -0.56507105
-0.85798734 2.01422 -0.56717253
-0.89221436 2.0945716 -0.5696497
-0.91790485 2.1548829 -0.56540942
-0.94823092 2.2260766 -0.56285024
-0.98847926 2.320564 -0.5646854
-1.0338736 2.4271321 -0.56763506
-1.0737286 2.5206962 -0.56573361
-1.1210315 2.6317451 -0.56591082
-1.1717101 2.7507186 -0.56571418
-1.2282021 2.8833399 -0.56605119
-1.2928816 3.0351822 -0.56758904
-1.3596972 3.192039 -0.56727415
-1.4384336 3.3768816 -0.56884414
-1.5150334 3.5567076 -0.56627607
-1.6099458 3.779525 -0.5669176
-1.7186975 4.034832 -0.56811112
-1.8340547 4.3056455 -0.56673527
-1.9748054 4.6360731 -0.56777495
-2.137377 5.0177283 -0.56865376
-2.3258715 5.4602394 -0.5689829
-2.5520165 5.9911404 -0.56972808
-2.8254035 6.632946 -0.57042462
-3.1616819 7.4223971 -0.57088786
-3.5854554 8.4172516 -0.57103008
-4.1475892 9.7369232 -0.57229805
-4.9235115 11.558486 -0.57468611
-6.0399475 14.179442 -0.57668501
-7.8219199 18.36282 -0.58075684
-11.085039 26.02335 -0.58780074
-19.002712 44.610962 -0.60453266
-0.85356981 1.937425 -0.5672797
-0.87561458 1.9874622 -0.56262726
-0.91521269 2.0773416 -0.56798142
-0.94626826 2.1478312 -0.56656945
-0.9773429 2.218364 -0.56389624
-1.0240538 2.324388 -0.56863719
-1.0588223 2.4033051 -0.56506485
-1.1072971 2.5133328 -0.56709397
-1.1504445 2.6112685 -0.56450695
-1.2028956 2.7303216 -0.56451863
-1.2590616 2.8578064 -0.5640353
-1.3293456 3.0173366 -0.56726581
-1.3990616 3.1755772 -0.56736308
-1.4745561 3.3469343 -0.56681097
-1.5608404 3.5427816 -0.56707168
-1.6594696 3.7666492 -0.56800413
-1.7729255 4.0241704 -0.56963646
-1.8898275 4.2895136 -0.56762773
-2.0272703 4.60148 -0.56654853
-2.1944473 4.9809365 -0.5674994
-2.3905408 5.4260278 -0.56843805
-2.625973 5.9604096 -0.56983328
-2.9051058 6.5939832 -0.57010287
-3.2521548 7.381712 -0.57079124
-3.6919458 8.3799448 -0.57153577
-4.2718949 9.6963081 -0.57295507
-5.0641689 11.494605 -0.57456267
-6.2197151 14.117453 -0.57723069
-8.0512352 18.274622 -0.58105463
-11.406345 25.89002 -0.5879128
-19.594069 44.474442 -0.60590184
-0.87236094 1.9158771 -0.56406868
-0.90482789 1.9871809 -0.56565458
-0.93828088 2.0606503 -0.56652945
-0.97076076 2.1319826 -0.56549484
-1.0104882 2.2192316 -0.56723237
-1.0480874 2.3018069 -0.56622297
-1.0890795 2.391834 -0.56547368
-1.1302938 2.4823487 -0.5631963
-1.1888497 2.610949 -0.56755525
-1.2390659 2.7212338 -0.56574708
-1.3000243 2.8551104 -0.5666154
-1.3705106 3.009912 -0.56899524
-1.435773 3.1532412 -0.56648391
-1.5131197 3.3231099 -0.56588447
-1.6088382 3.5333269 -0.5686819
-1.7069619 3.7488258 -0.56843859
-1.8132685 3.9822962 -0.56682235
-1.938796 4.2579794 -0.56656677
-2.0929413 4.5965128 -0.56906253
-2.262913 4.9698043 -0.56935835
-2.4583025 5.3989186 -0.56872177
-2.6965473 5.9221511 -0.56930262
-2.9869061 6.5598359 -0.57028288
-3.3442659 7.3446693 -0.57106358
-3.7978446 8.3408175 -0.57200903
-4.388658 9.638361 -0.57267642
-5.2050939 11.431416 -0.57455993
-6.3979158 14.051088 -0.57769024
-8.2874374 18.200851 -0.58190525
-11.742278 25.788364 -0.58883864
-20.177599 44.313999 -0.6070503
-0.89619619 1.9057386 -0.56428558
-0.92612618 1.969384 -0.56378764
-0.9647001 2.0514104 -0.56720763
-0.99443275 2.1146362 -0.56409454
-1.0397414 2.2109838 -0.56834906
-1.0845655 2.3063011 -0.570566
-1.1232402 2.3885419 -0.56791782
-1.1600806 2.466882 -0.56288111
-1.2256557 2.6063259 -0.56978333
-1.2696505 2.6998796 -0.56451064
-1.3390565 2.8474698 -0.56832385
-1.4093051 2.9968517 -0.56975925
-1.4721116 3.1304083 -0.56559116
-1.5577286 3.3124707 -0.56729162
-1.6488354 3.5062068 -0.56753731
-1.7526753 3.7270195 -0.56835705
-1.8630925 3.9618192 -0.56712574
-1.9977142 4.2480888 -0.56847632
-2.1483431 4.568397 -0.56880927
-2.3253849 4.9448724 -0.56973475
-2.5262902 5.3720922 -0.56912524
-2.772115 5.8948326 -0.56991023
-3.0730202 6.5346999 -0.57133955
-3.4317517 7.2975335 -0.57063657
-3.9009783 8.295332 -0.57213598
-4.511683 9.5939798 -0.57329237
-5.3543515 11.385894 -0.57553762
-6.5727906 13.976872 -0.57791817
-8.5085421 18.093201 -0.58176452
-12.07686 25.681139 -0.58973652
-20.76042 44.146511 -0.60820699
-0.92020363 1.8959004 -0.56468022
-0.95792347 1.9736147 -0.5683279
-0.98955429 2.0387838 -0.56703794
-1.0193813 2.1002367 -0.56355453
-1.0551165 2.1738622 -0.56209934
-1.1073354 2.2814488 -0.56774336
-1.1533707 2.3762956 -0.56833518
-1.1971754 2.4665468 -0.5661208
-1.2543255 2.5842931 -0.5682956
-1.3094398 2.6978457 -0.5674091
-1.3728771 2.8285458 -0.56787324
-1.4358203 2.9582281 -0.56573004
-1.51309 3.1174271 -0.56656456
-1.5903022 3.2765079 -0.56443894
-1.6919758 3.4859865 -0.56758904
-1.8014539 3.711545 -0.56933224
-1.9128917 3.9411407 -0.5674898
-2.044523 4.2123413 -0.56701404
-2.2034969 4.539876 -0.56858879
-2.3908474 4.9258752 -0.57089007
-2.5915215 5.3393254 -0.56898677
-2.8454273 5.8624482 -0.5701189
-3.1506543 6.4913096 -0.57088995
-3.5269525 7.2665982 -0.57156563
-4.0061722 8.2539377 -0.57263535
-4.6436081 9.5672503 -0.57506371
-5.4961195 11.323683 -0.57576567
-6.7480664 13.903076 -0.57825404
-8.7404919 18.008081 -0.58243936
-12.402632 25.553205 -0.59025627
-21.346146 43.979576 -0.60947728
-0.94009542 1.8777517 -0.56267524
-0.97646636 1.9503992 -0.56505758
-1.0093013 2.0159838 -0.56410581
-1.0510533 2.0993795 -0.56674963
-1.0903409 2.1778526 -0.56655514
-1.130451 2.2579689 -0.56531674
-1.1720779 2.3411148 -0.56332546
-1.229799 2.4564073 -0.56722152
-1.2855641 2.5677927 -0.56810027
-1.3404714 2.677465 -0.5665465
-1.406812 2.8099737 -0.56757474
-1.476999 2.9501657 -0.56761855
-1.5556854 3.1073344 -0.56816399
-1.6395093 3.2747648 -0.56756878
-1.7300154 3.4555421 -0.56605303
-1.8427165 3.6806517 -0.56802619
-1.9638307 3.9225662 -0.5682494
-2.1066079 4.2077498 -0.56983984
-2.2578804 4.5099025 -0.56826907
-2.4392002 4.8720717 -0.5680877
-2.6601379 5.313374 -0.569664
-2.9179389 5.8283072 -0.57024497
-3.2268398 6.4453073 -0.57029074
-3.6168544 7.2243247 -0.57169557
-4.1075368 8.2044163 -0.57266051
-4.7465601 9.4808054 -0.57333261
-5.6348672 11.255114 -0.5757587
-6.9183903 13.81883 -0.57824469
-8.971797 17.920317 -0.58312488
-12.73269 25.432344 -0.59103638
-21.930855 43.80481 -0.61074632
-0.96782637 1.8751843 -0.56542933
-1.0025592 1.9424798 -0.56629205
-1.0362691 2.0077934 -0.56533682
-1.0766326 2.0859988 -0.56666851
-1.1116563 2.1538579 -0.56382638
-1.1607287 2.2489369 -0.56658602
-1.2044734 2.333693 -0.56506068
-1.2533306 2.4283547 -0.56425989
-1.3162305 2.550225 -0.56775147
-1.3687555 2.651993 -0.56467539
-1.4375789 2.7853401 -0.56612676
-1.5178198 2.9408083 -0.56936604
-1.5930793 3.0866253 -0.56791627
-1.6781199 3.2513933 -0.56705159
-1.7706187 3.4306116 -0.56549293
-1.8926531 3.6670561 -0.5694766
-2.0114512 3.8972299 -0.56811917
-2.1481755 4.1621361 -0.56719691
-2.3161361 4.4875636 -0.56899989
-2.5101368 4.8634439 -0.57063746
-2.7268455 5.2833214 -0.56999385
-2.9868722 5.7871289 -0.56976646
-3.306881 6.4071527 -0.57046956
-3.7063768 7.1811848 -0.571845
-4.2119288 8.1607018 -0.57318103
-4.8691597 9.4341011 -0.57408559
-5.7796121 11.198122 -0.57643527
-7.0968771 13.750352 -0.57898712
-9.1933966 17.812403 -0.58324778
-13.060266 25.304544 -0.59175378
-22.508392 43.610493 -0.61184973
-0.99192286 1.8652359 -0.5660646
-1.0338134 1.9440079 -0.57040036
-1.0694197 2.010963 -0.56988889
-1.1008459 2.0700576 -0.56597245
-1.132931 2.1303911 -0.56128776
-1.1920058 2.2414768 -0.56835634
-1.236375 2.3249097 -0.56657231
-1.2862816 2.4187553 -0.56566179
-1.3417517 2.5230627 -0.5653348
-1.4079342 2.6475139 -0.56736505
-1.4710242 2.76615 -0.56586009
-1.5586907 2.931 -0.57113469
-1.6297002 3.064528 -0.56749481
-1.7221864 3.2384415 -0.56844312
-1.8159783 3.4148099 -0.56652623
-1.9308783 3.6308708 -0.56750149
-2.065176 3.8834074 -0.569763
-2.2005424 4.1379542 -0.56754601
-2.3547869 4.427999 -0.56507605
-2.5662117 4.8255672 -0.56985271
-2.7906446 5.2475963 -0.56979865
-3.0699472 5.7728038 -0.57202947
-3.3840394 6.3634305 -0.57023853
-3.7965264 7.139081 -0.5721665
-4.3024058 8.0903492 -0.57191223
-4.9868031 9.377306 -0.57431757
-5.9184513 11.1292 -0.57659006
-7.2651291 13.661527 -0.57896483
-9.4244299 17.721928 -0.58403569
-13.379868 25.15983 -0.59217232
-23.083141 43.406101 -0.61291808
-1.0152981 1.8538413 -0.56635255
-1.0448252 1.9077549 -0.56349027
-1.0809164 1.9736543 -0.56304002
-1.1353924 2.0731223 -0.57058442
-1.1709069 2.1379685 -0.56703472
-1.2090819 2.2076726 -0.56351209
-1.2636335 2.3072789 -0.56601954
-1.3185903 2.407625 -0.56680781
-1.3794897 2.5188217 -0.56814235
-1.434076 2.6184912 -0.56488174
-1.5084039 2.7542071 -0.56716841
-1.5876175 2.898844 -0.56862986
-1.6653159 3.040714 -0.56683409
-1.7650491 3.2228179 -0.56946731
-1.8587897 3.3939795 -0.56681949
-1.9743123 3.6049132 -0.56719589
-2.1119878 3.8562961 -0.56955248
-2.250685 4.1095443 -0.56740242
-2.4274604 4.4323201 -0.56939369
-2.6264629 4.7956805 -0.57009417
-2.860204 5.2224698 -0.57084608
-3.127697 5.7108879 -0.56966209
-3.4641845 6.3252831 -0.57059413
-3.883332 7.0906081 -0.57206541
-4.4117789 8.0555038 -0.57324058
-5.1068339 9.3246107 -0.5748927
-6.0477319 11.042604 -0.57591289
-7.4355617 13.576653 -0.57919896
-9.6492605 17.618664 -0.58449864
-13.705173 25.024389 -0.59290618
-23.66198 43.204605 -0.61413485
-1.0377536 1.8407531 -0.56620973
-1.0766451 1.9097384 -0.56794357
-1.1144742 1.9768391 -0.56781512
-1.1480755 2.0364404 -0.56433129
-1.1952565 2.1201296 -0.56615871
-1.2365241 2.1933296 -0.56368941
-1.2997004 2.3053908 -0.56943393
-1.3468714 2.3890619 -0.5662939
-1.4001083 2.4834931 -0.56401432
-1.4768114 2.6195478 -0.56898421
-1.5390649 2.7299724 -0.56603217
-1.6167688 2.8678026 -0.56639773
-1.715402 3.0427566 -0.57110381
-1.7996048 3.1921144 -0.56790924
-1.8989242 3.3682859 -0.56638533
-2.0163076 3.576499 -0.5665834
-2.1529014 3.8187871 -0.56787962
-2.3087735 4.0952706 -0.5693084
-2.4810352 4.4008265 -0.569224
-2.6802871 4.7542567 -0.56904477
-2.9216738 5.182425 -0.57035273
-3.1983035 5.6731071 -0.56977332
-3.548068 6.2935147 -0.57162082
-3.9778242 7.0558105 -0.57316089
-4.5088544 7.9977446 -0.57303244
-5.2210398 9.2610092 -0.57488614
-6.1940012 10.986835 -0.57693291
-7.6136708 13.505026 -0.58009338
-9.868578 17.504749 -0.58470106
-14.029666 24.88563 -0.59366107
-24.248634 43.011898 -0.61558747
-1.0542722 1.8174489 -0.56298649
-1.0949049 1.887495 -0.5652898
-1.1330414 1.9532382 -0.56499535
-1.1761334 2.0275242 -0.5658254
-1.2285695 2.1179183 -0.56955928
-1.269646 2.1887295 -0.56647676
-1.3241612 2.2827077 -0.56781006
-1.3782955 2.3760293 -0.56717908
-1.4399205 2.482264 -0.56771338
-1.506188 2.5965018 -0.56795841
-1.570495 2.70736 -0.56530511
-1.6565298 2.8556743 -0.56798249
-1.7365676 2.9936509 -0.56585217
-1.8382682 3.1689713 -0.56777048
-1.9509602 3.36324 -0.56952775
-2.0592771 3.5499663 -0.56634879
-2.2054698 3.8019865 -0.5693711
-2.3499906 4.0511241 -0.56714553
-2.5306339 4.3625336 -0.56825298
-2.7379718 4.7199607 -0.56892651
-2.9853361 5.14639 -0.57038385
-3.2764115 5.6481719 -0.57127213
-3.6272559 6.2529888 -0.57194787
-4.0565228 6.9929976 -0.5720672
-4.611681 7.9500284 -0.57363331
-5.3318443 9.1915112 -0.57459843
-6.3282213 10.909154 -0.57689637
-7.7861171 13.422406 -0.58061314
-10.083491 17.382826 -0.58472592
-14.344417 24.728191 -0.59406817
-24.811092 42.771584 -0.61646795
-1.0825561 1.8144337 -0.5661332
-1.1238464 1.8836389 -0.56823069
-1.1619905 1.9475708 -0.56744611
-1.1996862 2.0107512 -0.56521863
-1.248825 2.093111 -0.56697482
-1.3037214 2.1851208 -0.56964886
-1.3526742 2.267169 -0.56803936
-1.412495 2.3674324 -0.56923002
-1.467414 2.4594803 -0.56658655
-1.5331236 2.5696137 -0.56615776
-1.6125637 2.7027605 -0.56844205
-1.6881016 2.8293669 -0.56683582
-1.776023 2.9767287 -0.56673867
-1.8763399 3.1448662 -0.56754249
-1.9842707 3.3257654 -0.5672707
-2.1078897 3.5329587 -0.56772763
-2.2475553 3.7670472 -0.56823456
-2.4062152 4.0329714 -0.56870341
-2.5824683 4.328383 -0.56789804
-2.7959654 4.6862178 -0.56896037
-3.0495913 5.111311 -0.57060891
-3.3466663 5.6092281 -0.57145226
-3.7007196 6.2026443 -0.57146204
-4.1462297 6.949348 -0.57262385
-4.7097297 7.8938093 -0.57371217
-5.4495325 9.1337671 -0.57513422
-6.473784 10.850478 -0.57795948
-7.9503608 13.325316 -0.58059829
-10.31298 17.285217 -0.58566403
-14.672199 24.591549 -0.59507483
-25.379425 42.537548 -0.61754608
-1.104479 1.8004891 -0.56597704
-1.1435382 1.8641623 -0.56655437
-1.1935356 1.9456664 -0.5711242
-1.2252148 1.9973091 -0.56563228
-1.2739508 2.076757 -0.5667454
-1.3280119 2.1648858 -0.56858778
-1.3806226 2.2506504 -0.56811118
-1.4379382 2.3440845 -0.56782466
-1.495077 2.4372303 -0.56565326
-1.571085 2.5611365 -0.5685035
-1.6440511 2.6800838 -0.56788158
-1.7245239 2.8112681 -0.5674153
-1.8231323 2.9720166 -0.57006657
-1.9160826 3.1235416 -0.56790316
-2.029546 3.3085063 -0.56854063
-2.148685 3.5027227 -0.5670718
-2.2975774 3.7454431 -0.56919432
-2.4599316 4.010108 -0.56970173
-2.6425591 4.3078218 -0.5694207
-2.8537021 4.6520209 -0.56902587
-3.1156447 5.0790324 -0.57123923
-3.4077015 5.5551348 -0.57016718
-3.783319 6.1674552 -0.57246286
-4.2287545 6.8935909 -0.57227093
-4.8104916 7.8419213 -0.5741967
-5.5699463 9.0799618 -0.57601541
-6.6059136 10.768765 -0.57788998
-8.1242828 13.243967 -0.58136261
-10.527158 17.161062 -0.5857991
-14.988652 24.434059 -0.59567869
-25.959784 42.318874 -0.61895889
-1.1237391 1.7823408 -0.56457311
-1.1723902 1.8595053 -0.56947732
-1.2081305 1.9161922 -0.56679028
-1.2531133 1.9875386 -0.56718618
-1.2956817 2.0550554 -0.56512821
-1.3517158 2.1439302 -0.56740654
-1.4105662 2.2372718 -0.56906933
-1.4669545 2.3267078 -0.56794202
-1.532755 2.431073 -0.56855547
-1.5999105 2.5375869 -0.56760013
-1.6808451 2.6659558 -0.56922442
-1.7500701 2.7757521 -0.56454766
-1.8522861 2.9378748 -0.56784368
-1.9554679 3.1015296 -0.56822991
-2.0614054 3.2695549 -0.5661602
-2.1871545 3.4690032 -0.56592399
-2.3404164 3.7120888 -0.56845605
-2.5115194 3.9834721 -0.57026201
-2.6923375 4.2702641 -0.5687893
-2.9163744 4.6256051 -0.57013804
-3.1687801 5.0259404 -0.56960726
-3.4776063 5.5157638 -0.57047218
-3.8523214 6.1100917 -0.57149208
-4.3137746 6.8419943 -0.57234782
-4.9096851 7.7871561 -0.57456374
-5.6795444 9.008215 -0.57585078
-6.7398105 10.689882 -0.57806057
-8.2927399 13.152954 -0.58179969
-10.751652 17.052986 -0.58657843
-15.301405 24.26926 -0.59620303
-26.529366 42.077709 -0.62015599
-1.1414931 1.762097 -0.56256431
-1.1842555 1.8281084 -0.56427896
-1.2312312 1.9006238 -0.56662071
-1.2777656 1.972458 -0.56732351
-1.3231218 2.0424733 -0.56609946
-1.3760037 2.1241059 -0.56659508
-1.4302713 2.2078776 -0.56602335
-1.4956386 2.3087835 -0.56801301
-1.5574005 2.404124 -0.56668884
-1.6319257 2.5191669 -0.56792557
-1.7134675 2.645041 -0.56921446
-1.7891254 2.7618327 -0.56614834
-1.8966242 2.9277761 -0.57035631
-1.9960389 3.0812402 -0.56896645
-2.1064332 3.2516532 -0.56750262
-2.2416704 3.4604161 -0.56897694
-2.3895562 3.688704 -0.56933153
-2.5547209 3.943665 -0.56901747
-2.7495997 4.2444949 -0.56981725
-2.9751048 4.5926023 -0.57053626
-3.2334495 4.9914031 -0.5701561
-3.5548975 5.4876151 -0.57203865
-3.932754 6.0709033 -0.57230657
-4.4082279 6.804882 -0.57373434
-4.9997802 7.7180481 -0.5739575
-5.7840915 8.928771 -0.57527542
-6.87011 10.605234 -0.57800764
-8.4501238 13.044266 -0.58154422
-10.965299 16.926884 -0.58683443
-15.613305 24.101908 -0.59676307
-27.090767 41.819405 -0.62121171
-1.1719768 1.7613101 -0.56687117
-1.2131635 1.8232077 -0.56732798
-1.2475048 1.8748177 -0.56345785
-1.2961344 1.9479008 -0.56480169
-1.3570691 2.0394769 -0.56985098
-1.401971 2.1069579 -0.5665766
-1.4604062 2.1947775 -0.56722587
-1.5174682 2.2805333 -0.56561071
-1.5843441 2.3810382 -0.56579655
-1.6594142 2.4938574 -0.56677705
-1.7422978 2.6184194 -0.56805301
-1.8238773 2.7410216 -0.56643683
-1.927411 2.8966174 -0.56886041
-2.0302322 3.0511427 -0.5679757
-2.153441 3.2363074 -0.56940269
-2.2795129 3.4257753 -0.56784701
-2.4339354 3.6578496 -0.56914568
-2.6098866 3.9222786 -0.57051909
-2.8055079 4.216269 -0.57061613
-3.0281086 4.5508056 -0.56992644
-3.2905786 4.9452596 -0.56946415
-3.6187038 5.4383841 -0.57150197
-4.0122509 6.0298276 -0.57304198
-4.4881182 6.744987 -0.57329416
-5.1025629 7.6684079 -0.57488847
-5.899632 8.8662863 -0.57588005
-7.0070605 10.53059 -0.5785917
-8.6286888 12.967661 -0.58281523
-11.185205 16.809731 -0.58749676
-15.936003 23.949486 -0.59779584
-27.661055 41.57053 -0.62252027
-1.191205 1.7433431 -0.56576002
-1.2416532 1.8171747 -0.57015854
-1.2717067 1.8611583 -0.56400973
-1.3258142 1.9403454 -0.56729513
-1.3764683 2.0144782 -0.56755239
-1.4259044 2.0868285 -0.56583577
-1.485383 2.1738763 -0.56650174
-1.552794 2.2725329 -0.56831914
-1.6291398 2.3842661 -0.57128066
-1.6774762 2.4550068 -0.56259286
-1.7710971 2.5920222 -0.56700808
-1.8548186 2.7145495 -0.56563681
-1.9656768 2.876792 -0.56967074
-2.0644193 3.0213029 -0.56710356
-2.1904156 3.2056999 -0.56871349
-2.3210213 3.3968432 -0.56773919
-2.4721637 3.6180418 -0.56763875
-2.6495304 3.8776202 -0.56871915
-2.8588097 4.1839032 -0.57095015
-3.0795927 4.5070214 -0.56914258
-3.3492146 4.9016166 -0.56913787
-3.6829252 5.3900061 -0.57113403
-4.0819941 5.9740477 -0.57246786
-4.5754066 6.6961632 -0.57388294
-5.193274 7.6004195 -0.57453549
-6.0097103 8.7952843 -0.57602465
-7.1350846 10.442284 -0.57851666
-8.7894144 12.863415 -0.58294338
-11.397086 16.679773 -0.58780837
-16.234768 23.759781 -0.59799832
-28.219852 41.300098 -0.62361979
-1.2256021 1.747171 -0.57184982
-1.2550091 1.7890924 -0.56614661
-1.2988493 1.8515893 -0.56590712
-1.3524543 1.9280065 -0.5685069
-1.3952565 1.9890237 -0.5651719
-1.4590429 2.0799551 -0.56879371
-1.5086006 2.1506026 -0.56522816
-1.570911 2.23943 -0.56482869
-1.6385498 2.3358531 -0.5644657
-1.7183706 2.4496424 -0.56616294
-1.8027898 2.5699873 -0.56699431
-1.8958269 2.7026176 -0.56796515
-1.9873673 2.8331139 -0.56581789
-2.1032655 2.9983342 -0.56760383
-2.2259641 3.1732483 -0.56776929
-2.369787 3.3782768 -0.56946337
-2.5274494 3.603034 -0.57011706
-2.7023845 3.8524148 -0.56985301
-2.9061625 4.1429129 -0.57018995
-3.1496975 4.490087 -0.57185161
-3.4201198 4.8755903 -0.57095593
-3.7542984 5.3519826 -0.57195342
-4.1623521 5.9336877 -0.57346153
-4.6563239 6.6378751 -0.57375115
-5.2947836 7.5480385 -0.575454
-6.1227493 8.7283545 -0.57652843
-7.2678947 10.360829 -0.57891136
-8.9397984 12.74423 -0.58247989
-11.602796 16.540497 -0.58788365
-16.556494 23.602297 -0.59911335
-28.76914 41.012173 -0.62456661
-1.2328495 1.7123269 -0.56536436
-1.2755053 1.7715722 -0.56552291
-1.3202045 1.8336557 -0.56534487
-1.3766676 1.9120784 -0.56875873
-1.4193337 1.971338 -0.565063
-1.4769119 2.0513096 -0.56588376
-1.5424095 2.1422803 -0.56798267
-1.6033603 2.2269359 -0.56660736
-1.6837132 2.3385396 -0.57007492
-1.7519373 2.4332972 -0.56732124
-1.8392417 2.5545559 -0.56853646
-1.922572 2.670295 -0.56609786
-2.0251355 2.8127472 -0.56668085
-2.1379261 2.9694037 -0.56706095
-2.270524 3.1535718 -0.56920111
-2.4108016 3.3484056 -0.56938207
-2.5701914 3.5697851 -0.56981373
-2.7448123 3.8123193 -0.56887156
-2.960392 4.1117415 -0.57086676
-3.201551 4.4466915 -0.5712955
-3.4761324 4.8280625 -0.57035261
-3.821466 5.307703 -0.57219982
-4.2368703 5.884665 -0.57371545
-4.7376895 6.5802622 -0.57376343
-5.3837805 7.4776297 -0.57508975
-6.2346754 8.6594534 -0.57699758
-7.3960009 10.272438 -0.57901031
-9.1095276 12.652387 -0.58335769
-11.821094 16.41853 -0.58867043
-16.852238 23.406374 -0.59935492
-29.333551 40.741898 -0.62589633
-1.250878 1.6930699 -0.56404215
-1.3006626 1.7604538 -0.56703627
-1.3362424 1.8086112 -0.56264663
-1.3964444 1.8900949 -0.56728446
-1.4439546 1.9544001 -0.56525463
-1.5123694 2.0469999 -0.56978202
-1.561263 2.1131775 -0.56531388
-1.6347958 2.2127047 -0.56805813
-1.7078424 2.3115735 -0.56857765
-1.7769445 2.4051037 -0.56579953
-1.8643374 2.5233905 -0.56665963
-1.9692832 2.6654353 -0.57015806
-2.0701988 2.8020248 -0.56960618
-2.1837356 2.9556978 -0.5695284
-2.3035369 3.1178491 -0.56782305
-2.4499247 3.3159859 -0.56894892
-2.6133375 3.5371661 -0.56969339
-2.7981522 3.7873137 -0.57023144
-3.013272 4.0784798 -0.57134992
-3.2553554 4.4061408 -0.57118535
-3.544518 4.797524 -0.57185054
-3.8880014 5.2624302 -0.57243001
-4.2985835 5.8181553 -0.5723412
-4.8215189 6.5259509 -0.57415396
-5.4813519 7.4190388 -0.57572383
-6.3403306 8.5816708 -0.57696611
-7.5270095 10.187847 -0.57941538
-9.2695894 12.546438 -0.58368409
-12.037269 16.292507 -0.58941448
-17.158949 23.22473 -0.60006106
-29.888773 40.454613 -0.62708163
-1.2774944 1.6853372 -0.56665647
-1.3197887 1.7411339 -0.56599784
-1.3717235 1.809649 -0.56817389
-1.4234169 1.8778455 -0.56881827
-1.4786822 1.9507544 -0.56941599
-1.5326018 2.021888 -0.56799483
-1.5948423 2.1039991 -0.56806183
-1.6606053 2.1907568 -0.5676229
-1.733479 2.2868958 -0.56770772
-1.8100656 2.3879328 -0.56695324
-1.8933126 2.4977565 -0.56608844
-2.0025356 2.6418493 -0.570337
-2.0968621 2.7662897 -0.56754035
-2.2115271 2.9175615 -0.56737709
-2.3392484 3.0860584 -0.56722903
-2.4947381 3.2911882 -0.56991452
-2.6511798 3.4975743 -0.56852436
-2.8475931 3.7566929 -0.5708499
-3.0527685 4.0273709 -0.56940579
-3.3062093 4.3617234 -0.57065439
-3.593559 4.7408099 -0.57031441
-3.950757 5.2120442 -0.57219028
-4.3777528 5.7753592 -0.57338333
-4.8870573 6.4472604 -0.57247448
-5.5770211 7.3574967 -0.57622623
-6.4491286 8.5080261 -0.57730275
-7.6614084 10.107328 -0.58015013
-9.4266062 12.436069 -0.58389783
-12.240212 16.147926 -0.58958441
-17.46076 23.035145 -0.60066473
-30.423317 40.136024 -0.62789464
-1.3030313 1.6758187 -0.56880033
-1.3408772 1.7244918 -0.56590497
-1.3867813 1.7835289 -0.56528419
-1.4397092 1.8515991 -0.56618768
-1.4927046 1.9197561 -0.56568271
-1.556125 2.0013206 -0.56754947
-1.6129646 2.0744216 -0.56538838
-1.6765984 2.1562605 -0.56398392
-1.7599334 2.2634368 -0.56721359
-1.8473433 2.3758543 -0.56943578
-1.9399705 2.4949813 -0.57082272
-2.026994 2.6069016 -0.56813031
-2.1447248 2.7583144 -0.5712716
-2.2558589 2.9012427 -0.56955492
-2.3770995 3.0571697 -0.56724882
-2.5246305 3.2469082 -0.56757963
-2.6987016 3.4707794 -0.56951994
-2.8899696 3.716768 -0.57013994
-3.1080084 3.9971859 -0.57049829
-3.3643901 4.3269167 -0.5714699
-3.6498742 4.6940756 -0.57004827
-4.0090671 5.1560307 -0.57140982
-4.4568567 5.7319298 -0.57446915
-4.9899011 6.4174738 -0.57523435
-5.6614923 7.2812023 -0.57565969
-6.5564137 8.4321537 -0.57758129
-7.7878823 10.015936 -0.58035713
-9.5810461 12.322111 -0.58403468
-12.448503 16.009926 -0.59009016
-17.756321 22.836269 -0.60112691
-30.985338 39.85001 -0.6293332
-1.3191112 1.6541196 -0.56689793
-1.363498 1.7097791 -0.56653601
-1.413416 1.7723745 -0.56721455
-1.4595709 1.8302511 -0.56510514
-1.5145856 1.8992376 -0.56508178
-1.5848217 1.9873112 -0.56906009
-1.646453 2.064595 -0.56818509
-1.7063088 2.139652 -0.56508499
-1.7868929 2.2407014 -0.56697953
-1.8738357 2.3497248 -0.56865269
-1.968218 2.4680767 -0.57016134
-2.0530257 2.5744228 -0.56651098
-2.1638985 2.7134535 -0.56744844
-2.2816913 2.8611617 -0.56715149
-2.4212852 3.0362072 -0.56884068
-2.5767503 3.2311552 -0.5703215
-2.7359092 3.4307349 -0.56842637
-2.9296966 3.6737375 -0.5690223
-3.1592884 3.9616377 -0.57092613
-3.409272 4.2751083 -0.57012117
-3.7176814 4.6618433 -0.57164234
-4.0805182 5.1168275 -0.57258254
-4.5235004 5.6723123 -0.57402545
-5.0586863 6.3434162 -0.57412845
-5.7560668 7.2179074 -0.57620788
-6.6654496 8.358242 -0.578089
-7.9185452 9.9295797 -0.58095145
-9.7395391 12.213044 -0.58449745
-12.6569 15.871313 -0.59067291
-18.054783 22.64007 -0.6017608
-31.51907 39.523815 -0.63025492
-1.3376325 1.6356754 -0.56617105
-1.389285 1.6988368 -0.56852788
-1.4332494 1.752597 -0.56648248
-1.4914103 1.823717 -0.56870705
-1.5465572 1.8911513 -0.56829107
-1.6062113 1.9640973 -0.56802541
-1.6618831 2.0321734 -0.56484377
-1.7462034 2.1352816 -0.56955856
-1.8246049 2.2311518 -0.57019722
-1.9082633 2.3334506 -0.57034975
-1.9901955 2.4336383 -0.56781614
-2.0968132 2.5640121 -0.56985068
-2.2018499 2.6924524 -0.56867564
-2.3208473 2.8379641 -0.56816715
-2.4545887 3.0015047 -0.56795096
-2.6254451 3.2104306 -0.57231849
-2.7846668 3.405129 -0.56981409
-2.9763615 3.6395357 -0.56935054
-3.2032082 3.9169271 -0.57011598
-3.466156 4.2384634 -0.57087499
-3.7726636 4.613265 -0.57133085
-4.1485095 5.0728545 -0.57332689
-4.5905943 5.6134415 -0.57373691
-5.1355453 6.2798157 -0.57404417
-5.8431802 7.1451211 -0.57608956
-6.7751284 8.2847204 -0.57872224
-8.0336866 9.8237019 -0.58049262
-9.8897076 12.09327 -0.58454108
-12.85703 15.721752 -0.5909459
-18.341448 22.428173 -0.60207778
-32.067833 39.212986 -0.63153857
-1.3565979 1.6178585 -0.56573528
-1.4023991 1.6724805 -0.56543577
-1.4674481 1.7500569 -0.57145065
-1.5002515 1.7891778 -0.5636465
-1.5696325 1.8719205 -0.56826919
-1.6358087 1.9508412 -0.5699659
-1.6918225 2.0176425 -0.56654435
-1.7693808 2.1101375 -0.56861216
-1.8401972 2.194592 -0.56659389
-1.9377255 2.3109028 -0.5706194
-2.0185509 2.407294 -0.5674178
-2.1145988 2.5218391 -0.56621397
-2.2272017 2.6561279 -0.56674504
-2.3533812 2.8066077 -0.56764013
-2.4956267 2.9762475 -0.56893545
-2.6440618 3.1532691 -0.56788146
-2.8165545 3.3589811 -0.56784439
-3.0344243 3.6188097 -0.57190204
-3.2516873 3.877914 -0.57021427
-3.5213349 4.199492 -0.57141477
-3.8337781 4.5721073 -0.5720287
-4.2156229 5.0274897 -0.57401496
-4.6637454 5.561914 -0.57428831
-5.2202606 6.2256055 -0.57491302
-5.9378023 7.0813351 -0.57679003
-6.8735008 8.1972351 -0.57847136
-8.1626282 9.7346296 -0.58111632
-10.048944 11.984222 -0.58519858
-13.061801 15.577311 -0.59150904
-18.640722 22.23065 -0.60288298
-32.600166 38.878475 -0.63255942
-1.3699044 1.5935146 -0.56307042
-1.4269787 1.6599051 -0.56707364
-1.4764882 1.717496 -0.56670403
-1.5325456 1.7827036 -0.56750077
-1.5909798 1.8506762 -0.567716
-1.6509213 1.9204021 -0.56696087
-1.7211452 2.0020885 -0.56807667
-1.7920548 2.0845728 -0.56761831
-1.8831556 2.1905439 -0.57148397
-1.9583362 2.2779963 -0.56839705
-2.0497539 2.3843362 -0.56790447
-2.1410105 2.4904885 -0.56504327
-2.2633729 2.6328244 -0.56766826
-2.3959899 2.7870884 -0.56960803
-2.5399759 2.9545772 -0.57072026
-2.6902134 3.129338 -0.56948608
-2.8636844 3.331125 -0.56904507
-3.0642788 3.5644624 -0.56922495
-3.3060868 3.8457408 -0.57141793
-3.5730937 4.1563315 -0.57147717
-3.8862355 4.5205874 -0.57151854
-4.2654152 4.9616609 -0.57244414
-4.7264357 5.4979339 -0.57363969
-5.2955818 6.1599822 -0.57482284
-6.0219593 7.0049267 -0.57655424
-6.9766221 8.1154194 -0.57870787
-8.2809324 9.6326332 -0.58106226
-10.193177 11.857014 -0.58506316
-13.255741 15.419482 -0.59166062
-18.93576 22.026653 -0.60361964
-33.129047 38.53672 -0.63357908
-15.764197 18.337395 3.1325164
-1.4064577 1.5959126 -0.56998569
-1.4519794 1.6475663 -0.56891489
-1.4992443 1.701198 -0.56736636
-1.5521213 1.7611976 -0.56668741
-1.6161501 1.8338515 -0.56860805
-1.6684337 1.8931777 -0.56493759
-1.742733 1.9774853 -0.56713331
-1.808461 2.0520673 -0.56477976
-1.8975575 2.1531653 -0.5677768
-1.9871565 2.2548337 -0.56867152
-2.0752673 2.3548133 -0.56690788
-2.1775544 2.4708788 -0.56662643
-2.3023458 2.6124802 -0.56934285
-2.4296985 2.7569876 -0.56951922
-2.5672095 2.9130218 -0.56874794
-2.7370725 3.1057661 -0.5712781
-2.9064531 3.2979627 -0.56944221
-3.1146452 3.5341992 -0.57046509
-3.3505433 3.8018734 -0.57097846
-3.6223781 4.1103253 -0.57123274
-3.9406822 4.4715061 -0.57139635
-4.3151741 4.8964438 -0.57099849
-4.8002291 5.4468374 -0.57442361
-5.3759141 6.100069 -0.57535714
-6.1067009 6.9292955 -0.5764662
-7.0745807 8.0275526 -0.57860178
-8.4042387 9.5363197 -0.5814423
-10.344013 11.737389 -0.58539242
-13.452826 15.26497 -0.59203452
-19.223608 21.813097 -0.60419953
-33.65078 38.183662 -0.63452953
-17.327368 19.661428 2.9528208
-17.297016 19.626986 3.1680474
-15.701706 17.816782 3.0763319
-1.414219 1.5654866 -0.56528705
-1.4684129 1.625477 -0.56747937
-1.5192517 1.6817536 -0.56706911
-1.5831969 1.7525386 -0.57012212
-1.635318 1.8102347 -0.56747741
-1.7100086 1.8929143 -0.57109046
-1.7719935 1.9615291 -0.5687632
-1.8336335 2.0297625 -0.56480378
-1.9335304 2.1403444 -0.57062238
-2.0107403 2.2258127 -0.56754524
-2.1055846 2.330802 -0.56731755
-2.2162323 2.4532847 -0.56879812
-2.3280852 2.5771017 -0.56782866
-2.4545434 2.7170858 -0.56746852
-2.6084566 2.8874619 -0.56997687
-2.7632968 3.0588644 -0.56885803
-2.9467432 3.2619324 -0.5694344
-3.1480176 3.4847355 -0.56868625
-3.3859618 3.7481303 -0.56911707
-3.6803606 4.074019 -0.57243311
-3.9955194 4.4228878 -0.57141858
-4.3905487 4.8601699 -0.57302094
