# .PCD v0.7 - Point Cloud Data file format
VERSION 0.7
FIELDS x y z
SIZE 4 4 4
TYPE F F F
COUNT 1 1 1
WIDTH 1460
HEIGHT 1
VIEWPOINT 0 0 0 1 0 0 0
POINTS 1460
DATA ascii
3.4248927 -11.65202 -0.55554336
4.1791072 -14.217976 -0.55450344
5.3517828 -18.207602 -0.55219787
7.4278378 -25.270664 -0.5473569
12.147488 -41.327652 -0.5370391
0.61467719 -2.0000005 -0.56063628
0.63759094 -2.0745559 -0.56224525
0.65855145 -2.142756 -0.56089002
0.68348008 -2.2238672 -0.56161749
0.71179384 -2.3159928 -0.56361479
0.73873752 -2.4036605 -0.56296128
0.76814908 -2.4993582 -0.56259602
0.8017965 -2.6088381 -0.56354803
0.83457756 -2.7154994 -0.56201285
0.87017745 -2.831332 -0.56044638
0.90985477 -2.9604318 -0.55938047
0.96138597 -3.1281009 -0.56301814
1.0090499 -3.2831872 -0.56158149
1.0604241 -3.4503453 -0.55941278
1.1271701 -3.6675196 -0.562011
1.1943681 -3.8861647 -0.56104314
1.2708161 -4.1349063 -0.56035841
1.3575923 -4.417254 -0.55961156
1.4619387 -4.7567701 -0.56069994
1.5778096 -5.1337838 -0.55997771
1.7160944 -5.5837269 -0.56002063
1.8819408 -6.1233482 -0.5604533
2.0804179 -6.7691412 -0.5602963
2.316515 -7.5373397 -0.55797803
2.6229751 -8.534482 -0.55726039
3.023258 -9.8368988 -0.55648196
3.5701122 -11.61622 -0.55588758
4.3535404 -14.165294 -0.55449474
5.5686884 -18.11907 -0.55154794
7.7279263 -25.14467 -0.54664487
12.635698 -41.113289 -0.53623205
0.6407873 -1.9971707 -0.56200933
0.66318065 -2.0669651 -0.56235564
0.68272173 -2.1278696 -0.55914861
0.71220958 -2.2197757 -0.56275332
0.74306583 -2.3159468 -0.56578434
0.7635715 -2.3798578 -0.55954313
0.7936061 -2.4734681 -0.55892259
0.83099771 -2.590008 -0.56164527
0.8704071 -2.712837 -0.56363434
0.90531051 -2.8216221 -0.56068552
0.94936836 -2.9589393 -0.56126183
0.9982807 -3.1113865 -0.56217664
1.0513365 -3.2767479 -0.56264883
1.1079751 -3.4532759 -0.5620544
1.1701336 -3.6470082 -0.56103033
1.242694 -3.8731606 -0.56132942
1.3197896 -4.1134481 -0.55960739
1.4138985 -4.4067612 -0.56044251
1.518913 -4.7340651 -0.56018275
1.6430578 -5.1209927 -0.56074387
1.7856431 -5.5653944 -0.56034178
1.95474 -6.0924263 -0.55978078
2.1603608 -6.7332935 -0.55948561
2.4152451 -7.5277033 -0.55942094
2.7307761 -8.5111332 -0.55788618
3.1442006 -9.7996712 -0.55652106
3.7117062 -11.568441 -0.55574322
4.5236707 -14.099128 -0.55404025
5.7865119 -18.035082 -0.55111557
8.0344276 -25.041264 -0.54650325
13.115287 -40.877007 -0.53521323
0.66391438 -1.9850125 -0.56084293
0.68631434 -2.0519855 -0.56053382
0.70799863 -2.1168184 -0.5584901
0.73910463 -2.209821 -0.56249118
0.76465863 -2.2862239 -0.56077772
0.80128717 -2.3957384 -0.5655508
0.82896984 -2.4785056 -0.56232178
0.85861498 -2.5671406 -0.55893373
0.90219855 -2.6974494 -0.56269974
0.94517988 -2.8259578 -0.56381387
0.98890603 -2.9566927 -0.56309968
1.0393114 -3.107398 -0.56372249
1.083952 -3.2408671 -0.55873418
1.1488535 -3.4349139 -0.56132263
1.2158899 -3.6353433 -0.5614934
1.2920933 -3.8631809 -0.56214321
1.3748002 -4.1104631 -0.56145871
1.4696121 -4.3939376 -0.56106746
1.5739205 -4.7058053 -0.55908668
1.705261 -5.0984955 -0.56053412
1.8553309 -5.547184 -0.56076294
2.0273917 -6.0616221 -0.55919874
2.2421384 -6.7036853 -0.55927396
2.5010672 -7.4778461 -0.55795914
2.829771 -8.4606256 -0.55681425
3.2660944 -9.765173 -0.5568006
3.8479891 -11.504957 -0.55492455
4.6907148 -14.024591 -0.55333596
6.0097313 -17.968269 -0.55129039
8.3274612 -24.897963 -0.5455693
13.595674 -40.649193 -0.53437889
0.69141883 -1.9857397 -0.5634079
0.71407902 -2.0508194 -0.56257135
0.73729545 -2.1174965 -0.56101853
0.76313245 -2.1916997 -0.56022483
0.79299462 -2.2774632 -0.56097823
0.82609379 -2.3725233 -0.56242597
0.86261535 -2.4774125 -0.56443763
0.89168447 -2.5608983 -0.55991954
0.93105215 -2.6739614 -0.56014591
0.97496587 -2.8000808 -0.56100059
1.0210465 -2.9324234 -0.56082636
1.0761669 -3.0907278 -0.56305641
1.1299365 -3.245153 -0.56182599
1.1869031 -3.4087598 -0.55939138
1.2590308 -3.6159093 -0.56084055
1.3383894 -3.8438253 -0.56167907
1.422012 -4.0839877 -0.56018841
1.5221944 -4.3717089 -0.56057674
1.6314605 -4.6855192 -0.55901772
1.7635419 -5.0648537 -0.55917734
1.9155793 -5.501502 -0.5584839
2.0997784 -6.0305176 -0.55866897
2.3250608 -6.6775241 -0.55943435
2.5911481 -7.441721 -0.55759889
2.9391651 -8.4412184 -0.55787337
3.388021 -9.7303219 -0.55714679
3.9880869 -11.453698 -0.5547756
4.8661575 -13.975498 -0.55371797
6.2186213 -17.859745 -0.55026525
8.6270304 -24.776644 -0.54519427
14.062123 -40.386112 -0.53315324
0.7101059 -1.9614093 -0.55893993
0.74141866 -2.0478995 -0.56422859
0.76509249 -2.1132898 -0.56235403
0.79111487 -2.1851671 -0.56099916
0.82404792 -2.2761326 -0.5631038
0.858621 -2.3716283 -0.56467396
0.88701904 -2.4500675 -0.56065017
0.92832631 -2.5641639 -0.56308681
0.96287167 -2.6595829 -0.5595718
1.008302 -2.7850673 -0.56043434
1.0609062 -2.9303675 -0.56288552
1.1107143 -3.0679443 -0.56135148
1.1676216 -3.2251301 -0.56080282
1.2338105 -3.407953 -0.56170619
1.2994064 -3.5891378 -0.55912417
1.3809724 -3.8144341 -0.55982327
1.4693884 -4.058651 -0.55914915
1.5722368 -4.3427324 -0.55929786
1.6913666 -4.6717854 -0.55981815
1.8298074 -5.0541778 -0.56044036
1.9870443 -5.4884872 -0.55960077
2.1758337 -6.0099492 -0.55919987
2.4019346 -6.6344714 -0.55825967
2.6910896 -7.4331565 -0.55939436
3.0390348 -8.394228 -0.55719548
3.4981139 -9.6622677 -0.55567098
4.1293273 -11.405765 -0.55487132
5.0310202 -13.896363 -0.55299193
6.4313321 -17.764217 -0.54971701
8.9193249 -24.636391 -0.54448026
14.534646 -40.146675 -0.53231156
0.74409884 -1.9789389 -0.56649989
0.75946665 -2.0198097 -0.55902016
0.79122794 -2.1042793 -0.5625028
0.81927848 -2.17888 -0.56192893
0.84979904 -2.2600498 -0.56166768
0.88312817 -2.3486888 -0.5617553
0.91828531 -2.4421897 -0.56138897
0.95545423 -2.5410409 -0.56054664
0.99725795 -2.6522183 -0.56056005
1.0476035 -2.786113 -0.56319433
1.0979337 -2.9199665 -0.56343842
1.1440495 -3.0426121 -0.55924809
1.2084997 -3.2140179 -0.5614121
1.2723395 -3.3838005 -0.56026167
1.3463781 -3.5807071 -0.56034756
1.4284703 -3.799032 -0.56009841
1.5207322 -4.0444036 -0.55972022
1.6269848 -4.3269839 -0.5598039
1.7508525 -4.6564112 -0.56051332
1.8923391 -5.0326962 -0.56059629
2.056442 -5.46913 -0.56016302
2.2507477 -5.985888 -0.55949396
2.4857268 -6.6108174 -0.55879897
2.7725208 -7.373549 -0.557432
3.1424446 -8.3573656 -0.55727136
3.6211643 -9.6305256 -0.55636424
4.2686682 -11.352569 -0.55479503
5.1998072 -13.828943 -0.55281162
6.6459198 -17.674894 -0.54944026
9.2113667 -24.49773 -0.5438779
15.000657 -39.894409 -0.53137231
0.76160538 -1.9522879 -0.56150907
0.78921032 -2.0230498 -0.56256026
0.81508648 -2.0893805 -0.56115693
0.84950256 -2.1776023 -0.56425071
0.88039297 -2.2567861 -0.5635044
0.91270447 -2.339613 -0.56222636
0.94550598 -2.4236958 -0.55976796
0.9912973 -2.5410767 -0.56320095
1.0382135 -2.6613407 -0.56514364
1.0776778 -2.7625034 -0.5610581
1.1300628 -2.8967862 -0.56160438
1.1854657 -3.0388052 -0.5611853
1.2514845 -3.2080367 -0.56301284
1.3184624 -3.3797269 -0.56222898
1.3877815 -3.5574181 -0.55933124
1.4775245 -3.7874641 -0.56102914
1.5726348 -4.0312686 -0.56053627
1.6842258 -4.3173189 -0.56119043
1.8069644 -4.6319456 -0.56020057
1.9512885 -5.0019035 -0.55979663
2.1202517 -5.4350214 -0.55929756
2.3243151 -5.9581146 -0.5595271
2.5605342 -6.5636353 -0.55743003
2.8614137 -7.3349051 -0.55712843
3.2406325 -8.3069887 -0.55652726
3.7316039 -9.5655375 -0.5552187
4.4025707 -11.285484 -0.55412036
5.3643227 -13.750825 -0.55228388
6.8607025 -17.586622 -0.54927719
9.4965277 -24.343256 -0.54299986
15.464638 -39.641819 -0.53050065
0.78454167 -1.9402765 -0.56078666
0.81395024 -2.0130079 -0.56250852
0.83779728 -2.071985 -0.55920947
0.87314284 -2.159399 -0.5622735
0.90479475 -2.2376785 -0.56146896
0.94150531 -2.3284688 -0.56228787
0.97656715 -2.4151814 -0.56053251
1.0179896 -2.5176249 -0.56073511
1.0651361 -2.6342242 -0.56212407
1.1122885 -2.7508385 -0.56142437
1.1686651 -2.8902652 -0.56308359
1.2234435 -3.0257397 -0.56150824
1.282671 -3.1722169 -0.55945218
1.3571063 -3.3563058 -0.56106645
1.4348944 -3.548686 -0.5606901
1.5288795 -3.7811239 -0.56283218
1.6240257 -4.0164328 -0.56120771
1.7389659 -4.3006954 -0.56176662
1.8649406 -4.6122479 -0.56054944
2.0173469 -4.9891691 -0.56110525
2.1876647 -5.410388 -0.55948859
2.3925114 -5.9170012 -0.55838668
2.6415081 -6.5328031 -0.55752796
2.9528754 -7.302856 -0.55740988
3.3428135 -8.2672253 -0.55657506
3.8449905 -9.5091763 -0.55464965
4.5374494 -11.22172 -0.55368716
5.5274577 -13.670143 -0.55173159
7.0734787 -17.49366 -0.54904884
9.7885532 -24.208403 -0.54263568
15.924415 -39.383209 -0.52962023
0.81414837 -1.9443573 -0.56481689
0.82966948 -1.9814249 -0.55649179
0.86618787 -2.0686386 -0.56113857
0.90150678 -2.1529875 -0.56344783
0.9292804 -2.2193167 -0.55968654
0.96212953 -2.2977674 -0.55768877
1.0073702 -2.4058115 -0.56119043
1.0499659 -2.507539 -0.56132185
1.0984738 -2.6233861 -0.56265116
1.1476073 -2.7407274 -0.56219834
1.2028786 -2.8727267 -0.56250584
1.2587274 -3.0061054 -0.56069452
1.3242835 -3.162667 -0.56059742
1.3972546 -3.3369374 -0.56065845
1.4806699 -3.5361507 -0.56154376
1.5707791 -3.7513502 -0.56123298
1.6702194 -3.9888346 -0.56017888
1.7888652 -4.2721858 -0.56087351
1.9178033 -4.5801167 -0.55946815
2.0717638 -4.9478068 -0.55927622
2.253757 -5.3824453 -0.55942255
2.4659181 -5.8891301 -0.55857575
2.7271428 -6.51299 -0.55865669
3.0428455 -7.2669539 -0.55748332
3.4505699 -8.2406855 -0.55760264
3.9573326 -9.4509411 -0.55404931
4.6747141 -11.164199 -0.55364341
5.6966543 -13.604807 -0.55188006
7.27877 -17.38323 -0.54835057
10.075696 -24.062878 -0.54210991
16.37005 -39.095116 -0.52841306
0.83704418 -1.9320081 -0.56417686
0.8659448 -1.9987147 -0.56429559
0.89014006 -2.0545604 -0.56024647
0.93103516 -2.1489518 -0.56534505
0.96671301 -2.2313008 -0.56566387
0.99914724 -2.3061633 -0.56266594
1.0352197 -2.3894231 -0.56029457
1.0841165 -2.5022833 -0.56308699
1.1283706 -2.6044281 -0.56151855
1.1812643 -2.7265136 -0.56221974
1.2360016 -2.8528545 -0.56154823
1.3035488 -3.0087621 -0.5641371
1.3589138 -3.1365519 -0.55888808
1.4349682 -3.3120956 -0.559407
1.5220641 -3.5131242 -0.56081688
1.6199793 -3.7391253 -0.56234169
1.7221609 -3.9749742 -0.56116384
1.8371769 -4.2404461 -0.5596301
1.9777136 -4.5648232 -0.56052822
2.1282139 -4.9121976 -0.55816704
2.3166454 -5.3471227 -0.55866981
2.5353959 -5.8520274 -0.55797148
2.8064084 -6.47756 -0.55853552
3.1314132 -7.2277141 -0.55738485
3.5487058 -8.1908798 -0.55714315
4.0816159 -9.420907 -0.55518895
4.8123217 -11.107472 -0.55372292
5.8568521 -13.518386 -0.55125415
7.4864631 -17.279743 -0.5479486
10.358529 -23.908848 -0.54146838
16.829344 -38.844341 -0.52778071
0.85421067 -1.9070027 -0.55989981
0.87867939 -1.9616283 -0.55683345
0.91572267 -2.0443265 -0.56048393
0.95145464 -2.1240971 -0.56184179
0.98578632 -2.2007418 -0.56094736
1.023769 -2.285537 -0.56066251
1.0730735 -2.3956082 -0.56479627
1.1151541 -2.489552 -0.56326514
1.1585845 -2.586509 -0.56068432
1.2116125 -2.7048926 -0.56079119
1.2741451 -2.8444953 -0.56294417
1.3321651 -2.9740231 -0.56065261
1.407644 -3.1425281 -0.5629946
1.4844804 -3.3140628 -0.56277972
1.5627656 -3.4888325 -0.55996436
1.658991 -3.7036531 -0.56003255
1.7696173 -3.9506235 -0.56075573
1.8828396 -4.2033892 -0.55775291
2.0259328 -4.522841 -0.55838984
2.1911604 -4.8917074 -0.55885804
2.3748326 -5.3017507 -0.55693823
2.6084039 -5.8231921 -0.55823815
2.8782403 -6.4255953 -0.55706441
3.2119365 -7.1705627 -0.55598122
3.6425815 -8.1319656 -0.55614042
4.1902494 -9.35462 -0.55427712
4.9351406 -11.01757 -0.5522247
6.0194354 -13.43823 -0.55096221
7.6901155 -17.167978 -0.54736167
10.640581 -23.754814 -0.54090226
17.275953 -38.568108 -0.52687401
0.88119173 -1.9041302 -0.5621953
0.90212202 -1.9493576 -0.55645704
0.93850207 -2.0279696 -0.55912113
0.9829905 -2.1241031 -0.56499779
1.0145255 -2.1922457 -0.56191909
1.0497986 -2.2684658 -0.55959916
1.0995084 -2.3758817 -0.56329042
1.1409328 -2.4653938 -0.56093115
1.1951804 -2.5826154 -0.56298351
1.2430435 -2.6860406 -0.5600093
1.3013159 -2.8119588 -0.55962956
1.3695841 -2.9594769 -0.56104279
1.4385298 -3.1084588 -0.56001765
1.5219671 -3.2887547 -0.56161767
1.6054595 -3.4691701 -0.55993474
1.6992816 -3.6719065 -0.55834949
1.8167337 -3.9257038 -0.56034714
1.9393885 -4.1907434 -0.55919695
2.0845029 -4.5043154 -0.5592249
2.2510746 -4.8642526 -0.55884159
2.4504135 -5.2949958 -0.55935162
2.6803267 -5.7918053 -0.55834657
2.9591591 -6.3943229 -0.55746567
3.3027141 -7.1366963 -0.55646217
3.741492 -8.0848331 -0.55602139
4.3094921 -9.3122005 -0.55486161
5.0747848 -10.965889 -0.55272025
6.1776843 -13.349099 -0.55038071
7.8875065 -17.043783 -0.54645288
10.921399 -23.599592 -0.54038495
17.71747 -38.284935 -0.52594203
0.90211409 -1.8880796 -0.56068909
0.94232559 -1.9722402 -0.5662539
0.96429318 -2.0182173 -0.55965918
1.008707 -2.1111734 -0.56481516
1.0400021 -2.1766725 -0.56116283
1.0818343 -2.2642252 -0.56179214
1.1282498 -2.3613703 -0.56309664
1.1748188 -2.4588368 -0.56268352
1.2216759 -2.5569065 -0.56061161
1.2841376 -2.6876359 -0.56359142
1.3447653 -2.8145266 -0.56338888
1.4082533 -2.9474037 -0.56199431
1.4771817 -3.0916672 -0.56022257
1.555577 -3.2557449 -0.55920482
1.6475875 -3.4483182 -0.55979681
1.7486387 -3.6598134 -0.55973792
1.8610741 -3.8951349 -0.55920804
1.9904077 -4.1658239 -0.55909538
2.1404881 -4.4799342 -0.55942345
2.312762 -4.8404951 -0.55933708
2.509974 -5.2532501 -0.55815989
2.7517037 -5.7591782 -0.55842096
3.0394454 -6.3614068 -0.55781221
3.3858337 -7.0863805 -0.55574322
3.8333347 -8.0229778 -0.55496716
4.4172444 -9.2450724 -0.55405629
5.2081237 -10.900342 -0.55260259
6.3416548 -13.272766 -0.55040699
8.0971775 -16.946987 -0.54650044
11.201206 -23.443565 -0.53992522
18.150202 -37.987465 -0.52488178
0.92436415 -1.875026 -0.56014574
0.95840287 -1.9440718 -0.56150752
0.99495935 -2.0182247 -0.56301135
1.0358176 -2.1011038 -0.56548601
1.0656163 -2.1615486 -0.56059957
1.1069658 -2.245424 -0.56046224
1.1513097 -2.3353736 -0.56023097
1.2060174 -2.4463453 -0.56317604
1.2591774 -2.554178 -0.56336558
1.3127471 -2.6628413 -0.56173456
1.3754243 -2.7899787 -0.56181812
1.4453756 -2.9318714 -0.56237906
1.5165224 -3.076189 -0.56075454
1.5913239 -3.2279201 -0.55774438
1.6892455 -3.4265492 -0.5595926
1.7878391 -3.6265414 -0.55796933
1.9110206 -3.8764091 -0.55985093
2.0401623 -4.1383662 -0.55873495
2.1982746 -4.4590893 -0.56015354
2.3715343 -4.8105378 -0.55920285
2.5773697 -5.2280641 -0.55880898
2.818567 -5.7173209 -0.55768079
3.1100323 -6.3085432 -0.55648804
3.472363 -7.0435133 -0.5556879
3.931638 -7.9751296 -0.5549596
4.5348406 -9.1986952 -0.55457681
5.3350897 -10.821959 -0.55191302
6.4919858 -13.168666 -0.54935896
8.2958527 -16.827719 -0.54590267
11.472775 -23.271946 -0.53918099
18.586784 -37.702354 -0.52406073
0.94915313 -1.8670681 -0.5612126
0.97927541 -1.9263213 -0.5598163
1.0112785 -1.9892741 -0.55836189
1.0554971 -2.076256 -0.56224912
1.0990889 -2.1620049 -0.56418037
1.133104 -2.2289157 -0.55977714
1.187007 -2.3349476 -0.56358755
1.2236249 -2.4069786 -0.55753505
1.2827224 -2.5232282 -0.55997574
1.3467101 -2.6490977 -0.56228614
1.4041842 -2.7621546 -0.55964983
1.4788867 -2.909101 -0.5614571
1.5544989 -3.0578368 -0.56085116
1.6446184 -3.2351096 -0.56243843
1.7360317 -3.4149277 -0.56113845
1.8319573 -3.603622 -0.55786675
1.9542942 -3.8442693 -0.55863756
2.0979424 -4.1268377 -0.56061912
2.2478058 -4.4216328 -0.55887818
2.4271235 -4.7743669 -0.55842525
2.6363685 -5.1859698 -0.55773258
2.8905139 -5.6858964 -0.55804032
3.1920652 -6.2790747 -0.55730885
3.5640326 -7.0107675 -0.55651993
4.0260639 -7.9196234 -0.55450016
4.6462727 -9.1396294 -0.55441839
5.4775872 -10.774899 -0.55290616
6.656518 -13.093959 -0.5496155
8.5009441 -16.722109 -0.54582644
11.753332 -23.119844 -0.53896469
19.013372 -37.400986 -0.52308196
0.97436041 -1.8596892 -0.56255347
1.0050553 -1.9182743 -0.56102687
1.0421457 -1.9890661 -0.56185794
1.0755599 -2.0528412 -0.55944759
1.1283113 -2.1535239 -0.56554496
1.1646448 -2.2228711 -0.56181324
1.2110192 -2.3113823 -0.56145149
1.2597663 -2.4044223 -0.5604887
1.3209759 -2.5212483 -0.56309867
1.374871 -2.624114 -0.56052923
1.4450529 -2.758065 -0.56237894
1.514622 -2.8908465 -0.56148601
1.5914642 -3.0375092 -0.56066972
1.6824098 -3.2110906 -0.56181675
1.7734294 -3.3848128 -0.55973101
1.8780028 -3.5844042 -0.55842441
2.0057356 -3.8281982 -0.5598439
2.1483102 -4.1003199 -0.56056291
2.2882059 -4.3673282 -0.5555287
2.491405 -4.7551594 -0.55971968
2.7055881 -5.1639547 -0.55890065
2.95538 -5.6407142 -0.55713046
3.2589967 -6.2202048 -0.55559862
3.6436114 -6.9542904 -0.55555123
4.1226482 -7.8685923 -0.55443466
4.7487411 -9.0635691 -0.55330485
5.6036673 -10.695303 -0.55231583
6.8105092 -12.998713 -0.54909122
8.6964684 -16.598301 -0.5452345
12.022094 -22.945675 -0.53830999
19.445581 -37.114334 -0.52237755
0.99039567 -1.8350487 -0.55874145
1.0216331 -1.8929269 -0.55724567
1.0701151 -1.9827565 -0.56375003
1.103726 -2.0450323 -0.56097579
1.1394261 -2.1111789 -0.5580619
1.1942174 -2.2126987 -0.56291115
1.2388875 -2.2954655 -0.56124318
1.2875646 -2.3856566 -0.5597626
1.3508812 -2.5029724 -0.56268424
1.400398 -2.5947192 -0.55788642
1.4717875 -2.7269928 -0.55969113
1.5428125 -2.8585911 -0.55886358
1.6257693 -3.0122969 -0.55966365
1.7140877 -3.1759374 -0.55931175
1.8179573 -3.3683915 -0.56066972
1.9273932 -3.5711591 -0.56001091
2.0488396 -3.79618 -0.55880356
2.1910429 -4.0596609 -0.55864549
2.3565147 -4.3662543 -0.55903566
2.5383065 -4.7030859 -0.55722201
2.7669804 -5.1267834 -0.55851781
3.0218394 -5.5989976 -0.55663806
3.3430579 -6.1941652 -0.55690241
3.7378588 -6.9256692 -0.55689448
4.2193131 -7.8177295 -0.55446464
4.8644977 -9.013155 -0.55383694
5.729012 -10.614966 -0.55176336
6.9669161 -12.908609 -0.5488624
8.8960953 -16.483076 -0.54500163
12.290789 -22.772915 -0.53776199
19.863447 -36.803871 -0.52140623
1.0168195 -1.8298151 -0.56091255
1.055539 -1.8994927 -0.56295687
1.1015308 -1.9822574 -0.56741637
1.1252477 -2.0249369 -0.55921662
1.1717862 -2.1086853 -0.56116903
1.2198316 -2.1951451 -0.5622189
1.2726703 -2.290231 -0.56374699
1.3145908 -2.365669 -0.55882341
1.3764769 -2.477036 -0.56061625
1.4365366 -2.5851159 -0.55957735
1.5049567 -2.7082415 -0.55959839
1.5790043 -2.8414936 -0.55927461
1.668313 -3.0022089 -0.56155837
1.751923 -3.152669 -0.55896556
1.8532256 -3.3349679 -0.5588572
1.9681982 -3.5418665 -0.55917031
2.0969434 -3.7735496 -0.55922562
2.2435029 -4.0372906 -0.55932105
2.4072554 -4.3319712 -0.55839396
2.6054022 -4.6885457 -0.55925274
2.8175135 -5.07025 -0.55609125
3.0907331 -5.5619216 -0.55668843
3.4120526 -6.1401515 -0.55577636
3.812377 -6.8605542 -0.55538613
4.3062158 -7.7492409 -0.55332083
4.969348 -8.9425783 -0.55321312
5.8535976 -10.533829 -0.55124563
7.1159744 -12.805536 -0.54815882
9.0827084 -16.344767 -0.54408014
12.554034 -22.591583 -0.5370847
20.273989 -36.484009 -0.52036721
1.0455047 -1.8281267 -0.56429321
1.0742261 -1.8783478 -0.56056255
1.1173676 -1.9537833 -0.56315613
1.1547258 -2.0191061 -0.56148523
1.1960821 -2.0914202 -0.56044608
1.2489842 -2.1839225 -0.56323552
1.2929387 -2.2607796 -0.5603686
1.3450246 -2.3518548 -0.55942482
1.4066411 -2.459595 -0.56054121
1.4680279 -2.5669334 -0.55950665
1.5435405 -2.6989715 -0.5615623
1.6172805 -2.8279102 -0.56047297
1.7044696 -2.9803655 -0.56135052
1.7924572 -3.1342173 -0.55955958
1.8985693 -3.3197606 -0.56017864
2.0154555 -3.524143 -0.56024247
2.1405137 -3.7428143 -0.5585292
2.2862086 -3.9975705 -0.55767077
2.4661369 -4.3121858 -0.55971014
2.6581376 -4.6479106 -0.55826235
2.8852174 -5.0449729 -0.55716795
3.1530542 -5.5133014 -0.55566061
3.4896684 -6.101891 -0.5561552
3.8971171 -6.8143392 -0.55548221
4.4071922 -7.7062354 -0.55407774
5.075211 -8.8743057 -0.55280846
5.977139 -10.45138 -0.55073559
7.2757158 -12.722018 -0.54837203
9.2810507 -16.228466 -0.54396653
12.813199 -22.404634 -0.53634542
20.695589 -36.187458 -0.51972789
1.0578896 -1.7981125 -0.55900168
1.1003613 -1.8703026 -0.56215709
1.1392745 -1.9364439 -0.5621537
1.1811143 -2.0075598 -0.56227058
1.2175202 -2.0694394 -0.5585255
1.266297 -2.1523461 -0.55906546
1.317705 -2.2397254 -0.55912387
1.3769703 -2.3404596 -0.5606994
1.4294386 -2.4296408 -0.55767828
1.4985077 -2.5470386 -0.55914432
1.576516 -2.6796308 -0.56152916
1.6530954 -2.8097937 -0.56086868
1.7330563 -2.9457049 -0.55879378
1.8326818 -3.1150401 -0.56011677
1.9349194 -3.2888148 -0.55892938
2.0614367 -3.5038581 -0.56100506
2.1879804 -3.7189469 -0.55894017
2.3396485 -3.9767399 -0.55873597
2.5140655 -4.2731991 -0.55862015
2.7155664 -4.6156936 -0.55836123
2.9497061 -5.0136652 -0.55767393
3.2260711 -5.483407 -0.55660373
3.5623677 -6.055016 -0.55583334
3.9762533 -6.7585044 -0.55487448
4.5032248 -7.6542063 -0.55427635
5.1887031 -8.8193254 -0.55331624
6.1110396 -10.387036 -0.55126303
7.4258499 -12.621841 -0.54794842
9.4700546 -16.096411 -0.54340237
13.081244 -22.234411 -0.53608054
21.093903 -35.853657 -0.51861984
1.0885584 -1.7992502 -0.56347412
1.1208687 -1.8526552 -0.56095308
1.1652954 -1.9260869 -0.56326419
1.1979318 -1.9800307 -0.55864376
1.2443106 -2.056689 -0.5591715
1.2972822 -2.1442447 -0.5610621
1.3519742 -2.2346435 -0.5619629
1.405901 -2.3237777 -0.5608021
1.4685738 -2.4273679 -0.56125915
1.5370944 -2.5406237 -0.56184286
1.6082282 -2.6581991 -0.56113976
1.6839546 -2.7833655 -0.55968428
1.7714127 -2.9279227 -0.55951023
1.8753886 -3.0997818 -0.5614773
1.977721 -3.2689242 -0.55963969
2.0976191 -3.4671006 -0.55920726
2.2407565 -3.7036889 -0.56074572
2.3811626 -3.9357626 -0.55705041
2.5662289 -4.2416539 -0.55857927
2.7775686 -4.5909715 -0.55945998
3.0050478 -4.9669662 -0.55654764
3.2958429 -5.4476142 -0.55704218
3.6411786 -6.0184107 -0.55654109
4.0550623 -6.7025084 -0.55432904
4.5956383 -7.5960126 -0.55411255
5.2831841 -8.732439 -0.55189914
6.2297812 -10.297045 -0.55051094
7.5760231 -12.522215 -0.54762626
9.662303 -15.970572 -0.54312414
13.343134 -22.054523 -0.53565878
21.514212 -35.560287 -0.5181638
1.1048485 -1.7764839 -0.56055659
1.1443285 -1.8399637 -0.56132841
1.1882224 -1.9105406 -0.56294811
1.2263795 -1.9718933 -0.56056017
1.2737491 -2.0480587 -0.56104106
1.3243929 -2.1294889 -0.5614199
1.3731668 -2.2079124 -0.55944455
1.4334325 -2.3048131 -0.56043679
1.4923764 -2.3995893 -0.55903697
1.559589 -2.5076604 -0.55875194
1.6416563 -2.639616 -0.56143576
1.7185605 -2.7632701 -0.55985045
1.807313 -2.9059751 -0.55952066
1.9087033 -3.0690005 -0.56011069
2.020355 -3.2485249 -0.56035811
2.1427305 -3.4452922 -0.55989712
2.2781999 -3.6631131 -0.55880159
2.4377789 -3.9197001 -0.55897743
2.6132028 -4.2017641 -0.55751562
2.8204484 -4.5349936 -0.55682272
3.0678866 -4.9328489 -0.55690968
3.3606038 -5.4035087 -0.55671561
3.7087195 -5.963243 -0.55561471
4.1425223 -6.6607537 -0.55504662
4.6849022 -7.5328455 -0.5536651
5.3967347 -8.6773996 -0.55257285
6.3502469 -10.21055 -0.5500198
7.730864 -12.430442 -0.54772866
9.8565845 -15.848384 -0.54304951
13.596289 -21.861446 -0.53498954
21.907145 -35.224453 -0.51715636
1.141252 -1.7856781 -0.56784302
1.1684729 -1.8282697 -0.56210172
1.2153172 -1.9015656 -0.56466419
1.2490427 -1.9543345 -0.55989248
1.297307 -2.0298522 -0.56038111
1.3577315 -2.1243961 -0.5644362
1.4061403 -2.2001398 -0.56181377
1.4549944 -2.2765801 -0.55787992
1.5289919 -2.3923616 -0.56169081
1.5967898 -2.4984426 -0.56103063
1.6638788 -2.6034145 -0.55804539
1.7520539 -2.741379 -0.5597378
1.8482527 -2.8918979 -0.5611437
1.9416934 -3.0381014 -0.55878669
2.0695198 -3.238107 -0.56290817
2.1908443 -3.4279392 -0.56141263
2.3225632 -3.6340356 -0.55868024
2.4849858 -3.8881726 -0.5587967
2.6681685 -4.1747923 -0.55824798
2.882786 -4.5105968 -0.55813742
3.133837 -4.9034081 -0.55789423
3.4272459 -5.3624949 -0.55678988
3.7897201 -5.9296455 -0.55678415
4.2178631 -6.599546 -0.55422616
4.7705202 -7.4642701 -0.55289459
5.4934268 -8.5953779 -0.55160964
6.4758205 -10.132495 -0.55006301
7.8671327 -12.309434 -0.54661798
10.042062 -15.712471 -0.54258251
13.848734 -21.66864 -0.53439814
22.317127 -34.91885 -0.5166595
1.1519372 -1.7544762 -0.5623827
1.1874583 -1.8085771 -0.56049407
1.2382115 -1.8858776 -0.56448424
1.2773812 -1.9455355 -0.56182915
1.3129348 -1.999686 -0.55646813
1.3763422 -2.0962598 -0.56141472
1.4352729 -2.1860151 -0.56267112
1.5003347 -2.2851086 -0.56444806
1.5522537 -2.3641846 -0.55951434
1.6293765 -2.4816477 -0.5617159
1.7004476 -2.5898936 -0.55958688
1.787183 -2.7219973 -0.56022519
1.8784491 -2.8610017 -0.55958831
1.9885384 -3.0286748 -0.56150782
2.0941782 -3.1895714 -0.55890507
2.2202985 -3.3816607 -0.55826253
2.364496 -3.6012833 -0.55807275
2.5302165 -3.8536863 -0.55826962
2.7209275 -4.1441517 -0.55858248
2.9357486 -4.4713383 -0.55770433
3.1830707 -4.8480263 -0.55600435
3.4926262 -5.3195 -0.55674279
3.8544884 -5.8706393 -0.55565202
4.3036261 -6.5547061 -0.55486274
4.8600516 -7.4021788 -0.55268019
5.6044464 -8.5359402 -0.55217612
6.5936861 -10.042618 -0.54954386
8.0223932 -12.218633 -0.54692501
10.214774 -15.557774 -0.54153699
14.097014 -21.47068 -0.53375065
22.701496 -34.575874 -0.51567614
1.1736412 -1.7405044 -0.56248754
1.2119905 -1.7973763 -0.56159902
1.252942 -1.8581071 -0.56074113
1.3027914 -1.9320335 -0.56251371
1.3581845 -2.0141814 -0.56510657
1.4009768 -2.077642 -0.56099987
1.458685 -2.1632233 -0.56137896
1.5195553 -2.2534935 -0.56121176
1.5819906 -2.3460846 -0.55979228
1.6511784 -2.4486897 -0.5588094
1.7379905 -2.5774317 -0.56146938
1.8241937 -2.7052708 -0.56135684
1.9143257 -2.8389361 -0.55983424
2.0125732 -2.9846368 -0.55788928
2.1370268 -3.1692009 -0.55989784
2.2588031 -3.3497946 -0.55754501
2.4186337 -3.5868227 -0.56039822
2.5792923 -3.8250782 -0.55867767
2.7756162 -4.1162257 -0.55937642
2.9883053 -4.431643 -0.55729425
3.2401168 -4.805078 -0.55560607
3.56373 -5.2849951 -0.55767572
3.9190629 -5.8119516 -0.55461657
4.3828583 -6.4997582 -0.55473155
4.9626675 -7.3596129 -0.55401641
5.705297 -8.4609289 -0.55182022
6.7184582 -9.9634418 -0.54969043
8.164156 -12.107406 -0.54639864
10.41647 -15.447576 -0.54211861
14.355691 -21.289423 -0.53359264
23.085758 -34.236073 -0.51480305
1.1883478 -1.7164022 -0.55937845
1.231878 -1.7792754 -0.56063396
1.2838761 -1.8543793 -0.56433773
1.3267475 -1.9163011 -0.56264055
1.3692555 -1.9776981 -0.55955225
1.4245353 -2.0575418 -0.56025994
1.4805698 -2.1384759 -0.5596391
1.5440027 -2.2300959 -0.56007069
1.6148714 -2.3324556 -0.56123596
1.6800325 -2.4265718 -0.55843407
1.7660309 -2.5507846 -0.5603528
1.8486536 -2.6701214 -0.55873793
1.9493755 -2.8156002 -0.55991703
2.0572526 -2.9714134 -0.56010371
2.1734037 -3.1391776 -0.55927289
2.3066134 -3.3315804 -0.55919194
2.4459291 -3.5328023 -0.55661517
2.6231849 -3.7888236 -0.55805147
2.8125899 -4.0623927 -0.55671859
3.0400214 -4.3908858 -0.55682766
3.3017941 -4.7689795 -0.55608457
3.6187024 -5.2267094 -0.55617869
3.9988146 -5.7757282 -0.55581009
4.465457 -6.449728 -0.55510598
5.0427928 -7.2836084 -0.55292106
5.8070483 -8.3874693 -0.55164456
6.8324528 -9.8685217 -0.54904729
8.3037767 -11.993643 -0.54583138
10.598432 -15.307952 -0.54175127
14.600279 -21.088058 -0.53300518
23.468622 -33.897141 -0.51400715
1.2233402 -1.7213291 -0.56584382
1.2553465 -1.7663645 -0.56138724
1.2918097 -1.8176708 -0.55795836
1.3410769 -1.8869934 -0.55883509
1.3929838 -1.9600302 -0.55935746
1.456749 -2.0497525 -0.56297398
1.5042378 -2.1165726 -0.55870539
1.5714992 -2.2112145 -0.56013948
1.6433973 -2.3123803 -0.56122541
1.705063 -2.3991485 -0.55690598
1.7930256 -2.5229182 -0.55903238
1.8868542 -2.654942 -0.56037426
1.9943061 -2.8061347 -0.56286883
2.0841606 -2.9325664 -0.5575698
2.2135856 -3.114677 -0.55971497
2.3561962 -3.3153405 -0.56128669
2.4982834 -3.5152676 -0.55865037
2.6699004 -3.7567456 -0.55812007
2.8646142 -4.0307221 -0.55716354
3.0939682 -4.3534398 -0.55686152
3.3759511 -4.7502103 -0.5586943
3.6778066 -5.174943 -0.55544055
4.0631433 -5.7171402 -0.55493808
4.5346947 -6.3806472 -0.55391777
5.1326456 -7.2220082 -0.55299413
5.9052997 -8.3091888 -0.55123025
6.9504929 -9.7798529 -0.54882759
8.4552412 -11.897143 -0.54613
10.765741 -15.148186 -0.54074126
14.838534 -20.878904 -0.53229028
23.846035 -33.553116 -0.51319796
1.2282798 -1.6840389 -0.55850822
1.2803396 -1.7554157 -0.5628686
1.3236119 -1.8147442 -0.56201357
1.3667418 -1.8738779 -0.55988574
1.4165152 -1.9421198 -0.55917472
1.4728466 -2.0193532 -0.5595566
1.5344298 -2.1037872 -0.56026864
1.6056314 -2.2014084 -0.56261432
1.666195 -2.2844446 -0.55937564
1.7403823 -2.3861594 -0.55881625
1.8274019 -2.5054679 -0.5601024
1.915835 -2.6267147 -0.55934644
2.0137923 -2.7610195 -0.55874419
2.1247885 -2.9132013 -0.55881321
2.2444668 -3.0772867 -0.5579133
2.3924184 -3.2801363 -0.56026483
2.5318327 -3.4712813 -0.55656558
2.7171245 -3.7253263 -0.55837375
2.9129293 -3.9937856 -0.55696696
3.1491623 -4.3176737 -0.55719775
3.4178967 -4.6861234 -0.55605781
3.7449324 -5.1345072 -0.55600107
4.1331406 -5.6667624 -0.55493933
4.6118178 -6.3230543 -0.55379915
5.2167401 -7.1524363 -0.55253702
6.0045567 -8.2325754 -0.55100429
7.0667534 -9.6889057 -0.54855877
8.5879068 -11.77449 -0.54530603
10.946942 -15.008857 -0.54053187
15.070953 -20.663101 -0.53147292
24.234491 -33.226814 -0.51272631
1.2533983 -1.6748292 -0.56052297
1.2962738 -1.7321208 -0.56046772
1.3459871 -1.7985492 -0.56208122
1.3960826 -1.8654884 -0.56246573
1.4381021 -1.921636 -0.55832624
1.5056132 -2.0118463 -0.56256402
1.5573338 -2.0809572 -0.55924618
1.6271659 -2.1742687 -0.56074941
1.6989568 -2.2701981 -0.56096023
1.7685305 -2.3631644 -0.55848175
1.8634362 -2.4899805 -0.56172007
1.9569929 -2.6149938 -0.56193238
2.0525355 -2.7426608 -0.56009412
2.1573074 -2.8826599 -0.55800104
2.2843964 -3.0524805 -0.55846637
2.4295702 -3.2464659 -0.55957425
2.5824125 -3.4506986 -0.55831462
2.759578 -3.6874325 -0.55773795
2.9707091 -3.9695525 -0.55863953
3.2049458 -4.2825465 -0.5577082
3.4799898 -4.6500688 -0.55681509
3.8062041 -5.0859661 -0.55577081
4.1962395 -5.6071434 -0.55411202
4.6907878 -6.2679739 -0.55398494
5.3011093 -7.0835042 -0.5522058
6.1062822 -8.1594009 -0.55109054
7.1854978 -9.6014814 -0.5485701
8.7402449 -11.678982 -0.54581892
11.124983 -14.865541 -0.54025632
15.317576 -20.467813 -0.53125441
24.599495 -32.870598 -0.51185846
1.2723138 -1.6572299 -0.55982661
1.3243926 -1.7250642 -0.5634113
1.3670557 -1.7806342 -0.56169343
1.424473 -1.8554221 -0.56466925
1.4645507 -1.9076246 -0.55944538
1.5216905 -1.982051 -0.55942237
1.5922033 -2.0738962 -0.56256771
1.647143 -2.1454568 -0.55850011
1.7266647 -2.2490366 -0.5609352
1.7999645 -2.344512 -0.55926204
1.8881391 -2.4593623 -0.56000823
1.9757161 -2.5734339 -0.55818003
2.0918427 -2.7246926 -0.5616352
2.1935265 -2.8571391 -0.55823994
2.3191986 -3.0208309 -0.55785131
2.4626477 -3.2076781 -0.55806595
2.6244068 -3.4183748 -0.55826384
2.7995343 -3.6464837 -0.55670899
3.0023153 -3.9106126 -0.55549836
3.2519157 -4.2357249 -0.55677611
3.5303824 -4.5984373 -0.55578876
3.8603976 -5.0282927 -0.55461377
4.2616973 -5.5509987 -0.55370051
4.7664309 -6.2084303 -0.55386055
5.3890252 -7.0193791 -0.55233091
6.1964188 -8.0710354 -0.55022687
7.2991905 -9.507431 -0.54828322
8.8713865 -11.555267 -0.54509413
11.303767 -14.723521 -0.54010558
15.556152 -20.26239 -0.53084731
24.95986 -32.511024 -0.51099992
1.2919766 -1.6406765 -0.55955911
1.3400999 -1.7017882 -0.56114882
1.3876394 -1.7621584 -0.56120539
1.4336712 -1.8206141 -0.55939883
1.4948007 -1.8982421 -0.56204182
1.5520463 -1.9709381 -0.56162995
1.6162459 -2.052465 -0.56210279
1.6728786 -2.1243825 -0.55832672
1.7598871 -2.2348745 -0.56275785
1.8264662 -2.319423 -0.5585925
1.9195135 -2.4375834 -0.56038129
2.0046916 -2.5457506 -0.5574801
2.1231697 -2.6962056 -0.56110227
2.2338614 -2.8367727 -0.55958527
2.3677146 -3.0067523 -0.56058556
2.506063 -3.1824405 -0.55899417
2.6684327 -3.3886333 -0.55872309
2.8424377 -3.6096015 -0.55637228
3.0632145 -3.8899655 -0.55787379
3.3017664 -4.1929011 -0.55644172
3.5890596 -4.557734 -0.55616122
3.922642 -4.981349 -0.55471426
4.3401189 -5.5115018 -0.55504215
4.8401928 -6.1465435 -0.55360734
5.4740319 -6.9514537 -0.55224085
6.2931371 -7.9916325 -0.55004758
7.4189353 -9.4212799 -0.54853439
9.0068378 -11.437752 -0.54473388
11.469668 -14.565291 -0.53943413
15.79273 -20.055132 -0.53046495
25.325428 -32.160671 -0.51034927
1.3201277 -1.6346669 -0.56300324
1.3560487 -1.6791465 -0.55913895
1.4005575 -1.7342602 -0.5577631
1.4625522 -1.8110261 -0.56193614
1.5132033 -1.8737453 -0.56025559
1.5704225 -1.944598 -0.5595845
1.6353538 -2.0250001 -0.56004596
1.7094654 -2.1167698 -0.56180799
1.7738395 -2.1964819 -0.55854046
1.8597879 -2.3029089 -0.56008053
1.9349258 -2.3959494 -0.55623764
2.0528202 -2.5419338 -0.56212944
2.157114 -2.671077 -0.56135046
2.2690697 -2.8097079 -0.55970794
2.4007897 -2.9728119 -0.55971932
2.5417881 -3.1474051 -0.55828792
2.7032132 -3.3472922 -0.55734527
2.8963439 -3.5864391 -0.55824941
3.1089389 -3.8496876 -0.55753779
3.3655536 -4.1674447 -0.55851322
3.6486905 -4.5180426 -0.5567506
3.9841332 -4.9334097 -0.55478936
4.4063268 -5.4561968 -0.55488718
4.9140239 -6.0848598 -0.55345213
5.5561152 -6.8799386 -0.55194533
6.3925934 -7.9157195 -0.5501914
7.5190659 -9.3105898 -0.54743153
9.1384039 -11.315758 -0.5442344
11.645997 -14.420821 -0.53934646
16.023249 -19.841015 -0.52997291
25.679443 -31.797935 -0.50956541
1.3280429 -1.603719 -0.55792654
1.3868427 -1.6747246 -0.56330252
1.4264783 -1.7225877 -0.55960804
1.4737009 -1.7796128 -0.55776966
1.537867 -1.8570985 -0.56088996
1.6014286 -1.9338545 -0.56211704
1.6630042 -2.0082119 -0.56101602
1.7409228 -2.1023047 -0.56360793
1.8054599 -2.1802387 -0.56001312
1.8907038 -2.2831776 -0.56089365
1.9814122 -2.3927152 -0.56110078
2.0754147 -2.5062308 -0.55983531
2.1855886 -2.6392748 -0.56027263
2.3056388 -2.784245 -0.56024098
2.4316778 -2.9364474 -0.55846018
2.5839195 -3.1202915 -0.55907214
2.7489674 -3.3196001 -0.55832052
2.9344442 -3.5435784 -0.55715239
3.1603379 -3.8163631 -0.55829746
3.4073784 -4.1146846 -0.55701554
3.6970515 -4.4644885 -0.55571121
4.0493555 -4.889924 -0.5554567
4.4696651 -5.3974814 -0.55446345
4.9835567 -6.0180469 -0.55290711
5.6412244 -6.8122339 -0.552037
6.4969077 -7.8455405 -0.5508247
7.6355085 -9.2204933 -0.54761314
9.281374 -11.208009 -0.54450005
11.809269 -14.260646 -0.53874606
16.251932 -19.625521 -0.52951479
26.034857 -31.439192 -0.50890827
1.3564447 -1.597614 -0.5615629
1.3971999 -1.6456153 -0.55924797
1.4427841 -1.6993041 -0.55776536
1.4998655 -1.7665344 -0.55940878
1.5518867 -1.8278047 -0.55776381
1.6312971 -1.9213339 -0.56426567
1.6890386 -1.9893417 -0.56150413
1.7566808 -2.0690103 -0.56043065
1.8237939 -2.1480558 -0.55746484
1.910213 -2.2498398 -0.55843192
2.0017982 -2.3577085 -0.55862164
2.1022499 -2.4760199 -0.558819
2.2193544 -2.613945 -0.56064636
2.3340051 -2.74898 -0.55887777
2.4691813 -2.90819 -0.55881822
2.615047 -3.0799899 -0.55757052
2.8002264 -3.2980933 -0.56045216
2.9758081 -3.5048926 -0.55678105
3.2056873 -3.7756433 -0.55806488
3.4556558 -4.070055 -0.55668414
3.7532997 -4.4206185 -0.55595332
4.1084394 -4.8389006 -0.55535746
4.5328078 -5.3387198 -0.55411088
5.060204 -5.9598842 -0.55323827
5.7122974 -6.7279167 -0.55085468
6.5762663 -7.7454948 -0.54943645
7.7436857 -9.1204758 -0.54728687
9.4024239 -11.07413 -0.54357177
11.974988 -14.104083 -0.53835356
16.475973 -19.405323 -0.52899987
26.383379 -31.074217 -0.50821346
1.3765475 -1.5814605 -0.56179214
1.4233723 -1.6352556 -0.56163287
1.4648916 -1.6829555 -0.55826944
1.5373765 -1.7662306 -0.56525624
1.5723352 -1.8063933 -0.55708784
1.6477021 -1.8929793 -0.5618462
1.7059678 -1.9599184 -0.55907792
1.777017 -2.041544 -0.55886739
1.8645294 -2.1420834 -0.56182253
1.9340861 -2.2219944 -0.55738133
2.0392516 -2.3428149 -0.5609917
2.1414897 -2.4602723 -0.56116557
2.2393646 -2.5727167 -0.55766755
2.3628914 -2.7146318 -0.55775952
2.5013967 -2.8737547 -0.55806953
2.6530716 -3.0480082 -0.55764455
2.8183589 -3.2379 -0.55607051
3.0182788 -3.4675801 -0.55670744
3.2451351 -3.7282064 -0.55690932
3.5111563 -4.0338273 -0.55759221
3.8151875 -4.3831167 -0.55709481
4.1699457 -4.7906842 -0.55566651
4.5995359 -5.2842236 -0.55428296
5.1259594 -5.8890104 -0.55246854
5.7972636 -6.6602449 -0.55110896
6.6769967 -7.6709352 -0.54993004
7.8512468 -9.0199842 -0.54700851
9.5514288 -10.973255 -0.54434413
12.141769 -13.949195 -0.53809965
16.70101 -19.187124 -0.52861005
26.723785 -30.701891 -0.50746006
1.396674 -1.5652961 -0.5621084
1.4425532 -1.6167142 -0.5613147
1.4875181 -1.6671079 -0.5590378
1.5476886 -1.7345428 -0.56116331
1.6070697 -1.8010931 -0.56150514
1.6652985 -1.866352 -0.55997849
1.7324408 -1.9416004 -0.55988711
1.8022747 -2.0198655 -0.5589574
1.8848099 -2.1123652 -0.56006444
1.9697233 -2.2075303 -0.55978644
2.0549507 -2.3030474 -0.55747777
2.15958 -2.4203086 -0.55806506
2.26984 -2.5438805 -0.55742484
2.4009633 -2.6908345 -0.55889374
2.5448735 -2.852119 -0.55990255
2.6914551 -3.0163975 -0.55787396
2.8730614 -3.2199295 -0.55900925
3.0628655 -3.4326489 -0.55710387
3.2925172 -3.6900268 -0.55721176
3.5481932 -3.9765708 -0.55566663
3.857873 -4.3236384 -0.55552256
4.234622 -4.7458725 -0.55646646
4.658648 -5.2210917 -0.55362785
5.2060413 -5.8345723 -0.55332524
5.8851089 -6.5956254 -0.55170816
6.7780337 -7.5963535 -0.55051672
7.957375 -8.9180784 -0.54672104
9.6760788 -10.844283 -0.54380739
12.301387 -13.786548 -0.53761989
16.913366 -18.955336 -0.52791405
27.056198 -30.322725 -0.50665367
1.4099652 -1.5416094 -0.55978608
1.4642848 -1.6010005 -0.56206793
1.5104923 -1.6515224 -0.5599975
1.5643446 -1.7104027 -0.55953437
1.6269615 -1.7788659 -0.56077021
1.6997697 -1.8584721 -0.56384277
1.7602932 -1.9246465 -0.56119746
1.835855 -2.0072632 -0.56167454
1.9118578 -2.0903623 -0.56042141
2.0035849 -2.1906533 -0.56171179
2.0911198 -2.2863615 -0.55962068
2.1875746 -2.3918219 -0.55765688
2.3048127 -2.5200062 -0.55836141
2.436451 -2.6639349 -0.55948704
2.5876019 -2.8291984 -0.56160682
2.7325013 -2.9876266 -0.55872488
2.8977232 -3.1682749 -0.55618548
3.1056619 -3.3956282 -0.55725127
3.3359115 -3.6473753 -0.55692333
3.6031857 -3.9396043 -0.55665016
3.9131875 -4.2785497 -0.55586982
4.2782912 -4.6777425 -0.55460447
4.7224679 -5.1633902 -0.55362499
5.2708898 -5.7630167 -0.55264401
5.9664855 -6.5235581 -0.55177522
6.8517885 -7.4915195 -0.54898363
8.0697498 -8.8231974 -0.54694635
9.7833452 -10.696786 -0.54240263
12.469457 -13.633692 -0.53759772
17.140322 -18.74066 -0.52776527
27.398119 -29.956198 -0.50612038
1.4324739 -1.5280612 -0.56122017
1.4843577 -1.5834072 -0.56225675
1.5263444 -1.6281955 -0.55840969
1.592016 -1.6982492 -0.56192011
1.6534652 -1.7637988 -0.56238741
1.7018495 -1.8154118 -0.55708557
1.784866 -1.9039679 -0.56152505
1.8511201 -1.9746432 -0.55887389
1.9343565 -2.0634336 -0.55953652
2.0165823 -2.1511462 -0.55789769
2.1206186 -2.262125 -0.56002861
2.2273266 -2.3759534 -0.56030035
2.334569 -2.4903522 -0.55810934
2.4679136 -2.6325946 -0.55923611
2.5972409 -2.7705517 -0.55626279
2.7717073 -2.95666 -0.55926526
2.9480703 -3.1447914 -0.5583846
3.154922 -3.3654463 -0.55862242
3.3765247 -3.6018362 -0.55626744
3.6556983 -3.8996387 -0.55731267
3.9563828 -4.2203875 -0.55459195
4.3424239 -4.6321888 -0.5554924
4.7863088 -5.1056938 -0.55370736
5.3452349 -5.7019162 -0.55304593
6.0386033 -6.4415517 -0.55107778
6.9410524 -7.4042206 -0.5487994
8.1751509 -8.7206688 -0.54678082
9.9156256 -10.577283 -0.54248452
12.634074 -13.477131 -0.53750956
17.347239 -18.504799 -0.52709031
27.730354 -29.580769 -0.5055002
1.4488925 -1.5079789 -0.56034553
1.5016923 -1.5629319 -0.56150061
1.5471373 -1.6102301 -0.5587306
1.6022384 -1.6675783 -0.55824846
1.6616449 -1.7294075 -0.55789441
1.7454915 -1.8166734 -0.5640164
1.7976546 -1.8709637 -0.55826837
1.8856739 -1.9625723 -0.56197762
1.9568721 -2.0366743 -0.55876297
2.0535235 -2.1372671 -0.56080461
2.13234 -2.2192976 -0.55587524
2.2465498 -2.338165 -0.55786139
2.3649056 -2.4613473 -0.55808407
2.4903529 -2.5919106 -0.55705667
2.6499689 -2.7580357 -0.56024987
2.8025091 -2.9167964 -0.55820113
2.9908023 -3.1127684 -0.55918628
3.1823566 -3.3121343 -0.55622661
3.425983 -3.565696 -0.55715001
3.7009439 -3.8518701 -0.55694753
4.0146923 -4.1784129 -0.55552137
4.392766 -4.5719047 -0.55469871
4.8519273 -5.0497909 -0.5540731
5.4109898 -5.6316524 -0.55264258
6.1137543 -6.3630757 -0.55075395
7.0264702 -7.3130126 -0.54840159
8.2728653 -8.6102362 -0.54619372
10.045998 -10.455678 -0.54254222
12.783719 -13.305044 -0.53687501
17.565308 -18.281628 -0.52684599
28.051313 -29.195257 -0.50476861
1.4658551 -1.4885579 -0.55978441
1.5110475 -1.5344503 -0.55790138
1.5718091 -1.5961529 -0.5605101
1.6355096 -1.6608402 -0.56268263
1.6852077 -1.7113079 -0.55869812
1.7494857 -1.7765815 -0.5582059
1.8332717 -1.8616651 -0.56217772
1.9102354 -1.9398208 -0.56214631
1.9913864 -2.0222285 -0.5614754
2.069571 -2.101624 -0.55808741
2.1779404 -2.2116718 -0.56063074
2.2760446 -2.3112955 -0.55808586
2.3938732 -2.430949 -0.55782372
2.5264583 -2.5655875 -0.55803394
2.6759539 -2.7173984 -0.5586369
2.8348618 -2.8787675 -0.55755234
3.0179219 -3.0646629 -0.55716884
3.2304969 -3.2805302 -0.55754805
3.4793975 -3.5332856 -0.55872875
3.7350638 -3.7929118 -0.55502152
4.0583973 -4.121253 -0.55451471
4.4610615 -4.5301538 -0.55624658
4.9055867 -4.9815636 -0.55316383
5.4673409 -5.5520177 -0.55138355
6.1814246 -6.2771611 -0.54985511
7.1202397 -7.2305164 -0.54873943
8.3752346 -8.5049486 -0.54600644
10.171574 -10.329109 -0.54242373
12.934898 -13.135231 -0.53640032
17.775362 -18.050663 -0.52644908
28.376793 -28.816286 -0.50421119
1.4816626 -1.4680595 -0.5588851
1.5473981 -1.5331916 -0.56431919
1.592905 -1.5782807 -0.56106991
1.6600804 -1.6448393 -0.56413484
1.7102551 -1.6945534 -0.56005168
1.7811841 -1.7648312 -0.56135327
1.8524826 -1.835475 -0.56110525
1.9318126 -1.9140768 -0.56152731
2.0063367 -1.9879166 -0.55875629
2.0923941 -2.073184 -0.55732536
2.2000029 -2.1798048 -0.55936795
2.3167391 -2.2954693 -0.56110072
2.4156175 -2.3934398 -0.55599052
2.5645227 -2.540978 -0.55949789
2.7106376 -2.6857514 -0.55894089
2.8699312 -2.8435826 -0.55753052
3.0597708 -3.0316792 -0.5579704
3.2626665 -3.232712 -0.55619752
3.512126 -3.4798813 -0.55707091
3.7930076 -3.7581842 -0.5567227
4.1193848 -4.0815654 -0.5559482
4.4996853 -4.458374 -0.55418491
4.969399 -4.9237752 -0.55349034
5.5325127 -5.481719 -0.55111659
6.2591977 -6.2017322 -0.54994816
7.1992531 -7.1331573 -0.54802758
8.4710979 -8.3933249 -0.54548633
10.285877 -10.191442 -0.54179531
13.093503 -12.973292 -0.53632152
17.974113 -17.809093 -0.52580994
28.6835 -28.42016 -0.50341338
1.5165355 -1.4661019 -0.56519634
1.5584857 -1.5066571 -0.56156385
1.6049037 -1.5515313 -0.55853397
1.6736454 -1.6179869 -0.56194115
1.7332611 -1.6756202 -0.56079578
1.7847942 -1.7254394 -0.55576235
1.8772614 -1.8148316 -0.56180876
1.9460702 -1.8813521 -0.55890489
2.0393157 -1.9714967 -0.56114697
2.1213732 -2.0508251 -0.55828494
2.2183106 -2.1445389 -0.55727583
2.3356164 -2.2579436 -0.55890596
2.4594421 -2.3776512 -0.55930585
2.5898936 -2.5037646 -0.55827397
2.7453361 -2.6540377 -0.55932403
2.899585 -2.8031569 -0.55655301
3.0951355 -2.9922042 -0.55766767
3.2978859 -3.1882119 -0.55547631
3.5563405 -3.4380715 -0.55733621
3.8358576 -3.708293 -0.55627716
4.1524391 -4.0143461 -0.55370539
4.5520935 -4.4007101 -0.55393302
5.0248075 -4.8577032 -0.55296695
5.6142912 -5.4275832 -0.55257285
6.3322997 -6.1217136 -0.54971564
7.2916336 -7.0491443 -0.54842007
8.5797558 -8.2944288 -0.54587424
10.413123 -10.066826 -0.54193658
13.242871 -12.802469 -0.53595102
18.169157 -17.564926 -0.52515763
28.990273 -28.026178 -0.50271106
1.5226892 -1.4362538 -0.56086534
1.5704377 -1.4812918 -0.55926496
1.6349269 -1.5421202 -0.56234074
1.6957259 -1.599468 -0.56270868
1.7413405 -1.6424934 -0.55683309
1.8236006 -1.720084 -0.56121761
1.895548 -1.7879472 -0.56065941
1.9614425 -1.8501011 -0.55674404
2.0488148 -1.9325136 -0.55717987
2.1616023 -2.0388987 -0.56223154
2.2600479 -2.1317561 -0.56113333
2.362838 -2.2287114 -0.55881977
2.4897845 -2.3484519 -0.55959666
2.6172297 -2.4686627 -0.55758089
2.7736945 -2.6162455 -0.55850512
2.9308085 -2.764441 -0.55597943
3.1348772 -2.9569259 -0.55823481
3.346415 -3.1564558 -0.55707067
3.592808 -3.3888621 -0.55647868
3.8785107 -3.6583469 -0.555897
4.2055726 -3.9668429 -0.55424422
4.6073003 -4.3457665 -0.55410641
5.0866847 -4.7979393 -0.55324203
5.6804566 -5.3580055 -0.55255872
6.4114137 -6.0474696 -0.55008656
7.3857303 -6.9664788 -0.5490129
8.6729212 -8.180603 -0.54536051
10.535037 -9.9370155 -0.5418812
13.39164 -12.631462 -0.53564525
18.386709 -17.342987 -0.52524203
29.307407 -27.64377 -0.50227797
1.5413557 -1.4184555 -0.56127393
1.5939347 -1.4668419 -0.56116688
1.6510102 -1.5193666 -0.56140417
1.7167609 -1.5798746 -0.5631997
1.7737094 -1.6322824 -0.56072313
1.8454552 -1.6983075 -0.56147408
1.9132919 -1.7607353 -0.55946153
2.0062315 -1.8462644 -0.56297058
2.0841668 -1.9179853 -0.56033772
2.168565 -1.9956542 -0.55761772
2.2753077 -2.0938857 -0.55848724
2.3874538 -2.1970897 -0.55820978
2.5131426 -2.3127568 -0.55841249
2.6465971 -2.4355702 -0.55741483
2.8031876 -2.579675 -0.55801439
2.9657295 -2.7292566 -0.5561955
3.1662526 -2.9137909 -0.55739957
3.37589 -3.1067131 -0.55557603
3.6362731 -3.3463345 -0.55679548
3.9264326 -3.613358 -0.55635524
4.2636485 -3.9236858 -0.55549753
4.6562982 -4.2850275 -0.55362046
5.1498251 -4.739203 -0.55372924
5.7327662 -5.2756629 -0.55129504
6.488266 -5.9709229 -0.55033928
7.448998 -6.855051 -0.54740858
8.7761679 -8.0763979 -0.54556668
10.657637 -9.8078489 -0.54194301
13.532573 -12.453551 -0.53511679
18.57423 -17.093212 -0.52455497
29.60743 -27.246675 -0.5016399
1.5583768 -1.3991244 -0.5611648
1.6084764 -1.4441042 -0.55999243
1.6720492 -1.5011803 -0.56223881
1.7355832 -1.5582218 -0.56304616
1.7939222 -1.610599 -0.56080973
1.8544964 -1.664983 -0.55795372
1.9310739 -1.7337351 -0.55838513
2.0163252 -1.8102745 -0.55951434
2.1037939 -1.8888044 -0.55932796
2.1992126 -1.9744723 -0.55921298
2.3065743 -2.0708628 -0.55986917
2.4216688 -2.1741953 -0.55991638
2.5477803 -2.2874196 -0.55981684
2.6715558 -2.3985462 -0.55641764
2.8402956 -2.5500424 -0.55911702
3.0031593 -2.6962628 -0.55695522
3.1993592 -2.8724127 -0.55696774
3.4161942 -3.0670891 -0.55596018
3.6813467 -3.3051453 -0.55743194
3.9661109 -3.5608091 -0.55573124
4.3049374 -3.8650105 -0.55464298
4.7112565 -4.2298074 -0.55392891
5.1861329 -4.6561556 -0.55143535
5.8016009 -5.2087278 -0.55171359
6.5523677 -5.8827734 -0.54959923
7.5306363 -6.7610712 -0.54725707
8.8657589 -7.9597559 -0.54501045
10.763092 -9.6631985 -0.54122233
13.677853 -12.280096 -0.53485006
18.783504 -16.863995 -0.52456909
29.901655 -26.845968 -0.50099403
1.5631133 -1.369042 -0.55676633
1.6424359 -1.4385161 -0.5656144
1.6773678 -1.469111 -0.55791068
1.7449694 -1.5283194 -0.55995214
1.81554 -1.5901281 -0.56141275
1.8750436 -1.642244 -0.55801785
1.9448085 -1.7033471 -0.55625808
2.0416234 -1.7881417 -0.56039053
2.1195674 -1.8564085 -0.55741048
2.222652 -1.9466943 -0.55904406
2.3278759 -2.0388539 -0.55891198
2.4395339 -2.1366489 -0.55793017
2.569391 -2.2503834 -0.55844283
2.7075391 -2.3713794 -0.55779666
2.8615217 -2.5062439 -0.55718672
3.0526867 -2.6736746 -0.56000084
3.2370086 -2.8351116 -0.55741084
3.4754009 -3.043906 -0.55946201
3.7198596 -3.2580132 -0.55715525
4.0117564 -3.513669 -0.55603105
4.3552399 -3.8145068 -0.55503875
4.7700677 -4.1778307 -0.55476159
5.2599721 -4.6069102 -0.55322134
5.8790751 -5.1491475 -0.55301815
6.624258 -5.8018107 -0.5496037
7.6170006 -6.6712971 -0.54753041
8.9636202 -7.8507247 -0.54505068
10.877628 -9.5270948 -0.54105002
13.83257 -12.115161 -0.53503424
18.978519 -16.622206 -0.52426755
30.19437 -26.44553 -0.50041217
1.5985159 -1.3656847 -0.56335223
1.6527907 -1.4120543 -0.56315827
1.7023158 -1.4543658 -0.56021804
1.7640983 -1.5071493 -0.56010115
1.8327264 -1.5657815 -0.56073117
1.904164 -1.6268139 -0.5606885
1.9739833 -1.6864637 -0.5586291
2.0635347 -1.7629718 -0.56041217
2.1500978 -1.8369263 -0.55945694
2.2505817 -1.9227743 -0.56007987
2.3476517 -2.0057058 -0.55769646
2.4658206 -2.1066628 -0.55797535
2.5864527 -2.2097242 -0.55620342
2.7259071 -2.3288665 -0.55563915
2.8884127 -2.4677024 -0.5564723
3.0661938 -2.6195889 -0.5565275
3.2738123 -2.7969668 -0.55778378
3.4909501 -2.9824777 -0.55601937
3.7477977 -3.2019141 -0.55540067
4.0420194 -3.4532809 -0.55429822
4.3923717 -3.7526028 -0.55384833
4.8169389 -4.1153302 -0.55428553
5.3082104 -4.5350456 -0.55238795
5.9252939 -5.0622482 -0.55146867
6.6915188 -5.7168689 -0.54931021
7.7026787 -6.580749 -0.547831
9.0522985 -7.7337904 -0.54461914
10.999752 -9.3975887 -0.5413357
13.966691 -11.93238 -0.53450626
