# .PCD v0.7 - Point Cloud Data file format
VERSION 0.7
FIELDS x y z
SIZE 4 4 4
TYPE F F F
COUNT 1 1 1
WIDTH 1461
HEIGHT 1
VIEWPOINT 0 0 0 1 0 0 0
POINTS 1461
DATA ascii
-0.93299699 2.8476381 -0.56698376
-0.97516155 2.9763303 -0.56568664
-1.0257638 3.1307752 -0.56680816
-1.0759634 3.2839916 -0.56501734
-1.1344378 3.4624639 -0.56467378
-1.2045033 3.6763134 -0.56666642
-1.276922 3.8973453 -0.56596106
-1.3596698 4.1499033 -0.56569296
-1.4541532 4.4382801 -0.56557685
-1.564549 4.7752233 -0.56618011
-1.692335 5.1652446 -0.56671751
-1.8437474 5.6273761 -0.56771243
-2.0189371 6.1620798 -0.56730992
-2.2394934 6.8352485 -0.56909013
-2.5035307 7.6411276 -0.56898266
-2.8409874 8.671093 -0.56950486
-3.2861073 10.029662 -0.57071823
-3.8894367 11.871107 -0.57142061
-4.7739949 14.570904 -0.57372117
-6.1634727 18.811785 -0.57599664
-8.7078857 26.577692 -0.5811913
-14.817192 45.224155 -0.59331256
-0.68259156 1.9999142 -0.56622767
-0.70581365 2.0679519 -0.56606948
-0.72781104 2.1324019 -0.56377095
-0.75389892 2.2088363 -0.56340915
-0.78593814 2.3027074 -0.56599492
-0.81984305 2.402045 -0.56821817
-0.84769082 2.4836357 -0.56465691
-0.88887286 2.6042943 -0.56820166
-0.92363614 2.7061467 -0.56568736
-0.96538937 2.8284788 -0.56548983
-1.0091636 2.9567325 -0.56427771
-1.0558368 3.0934792 -0.56236392
-1.120059 3.2816427 -0.56694001
-1.1751339 3.443006 -0.56381452
-1.2491982 3.6600056 -0.5664776
-1.3255568 3.8837276 -0.56630772
-1.4122494 4.1377268 -0.56635749
-1.5100907 4.4243908 -0.56613034
-1.6289163 4.7725353 -0.56819332
-1.7617568 5.1617432 -0.56866717
-1.9114537 5.6003375 -0.56731296
-2.0930555 6.1324096 -0.56690496
-2.3215876 6.8019819 -0.56865424
-2.5994422 7.6160636 -0.56945342
-2.9464204 8.6326704 -0.56931782
-3.4078999 9.9847507 -0.57050407
-4.0358868 11.82468 -0.57153141
-4.9569473 14.523281 -0.57420266
-6.4000068 18.751278 -0.57650995
-9.0420523 26.492163 -0.58170843
-15.408052 45.143806 -0.59469914
-0.70825166 1.9945289 -0.56712586
-0.73182392 2.0609114 -0.56656271
-0.75757557 2.1334314 -0.56646317
-0.78483701 2.2102032 -0.56617665
-0.8130669 2.2897022 -0.56521297
-0.84943581 2.3921218 -0.56829864
-0.88346952 2.4879651 -0.56806809
-0.91948426 2.5893872 -0.56737316
-0.95587409 2.6918657 -0.56511641
-0.99763942 2.8094823 -0.56410187
-1.0498067 2.9563923 -0.56663358
-1.0960399 3.086591 -0.56351918
-1.1590369 3.2639987 -0.56631118
-1.2220955 3.4415798 -0.56599903
-1.2971835 3.6530375 -0.56782496
-1.3744676 3.8706796 -0.5668267
-1.4645777 4.1244411 -0.56696111
-1.5648259 4.4067531 -0.56629282
-1.6777349 4.7247195 -0.56491399
-1.8243078 5.1374884 -0.56842345
-1.9810115 5.5787859 -0.56755447
-2.1664116 6.1008968 -0.56641161
-2.404948 6.772646 -0.56863099
-2.6889563 7.5724511 -0.56862175
-3.0561886 8.6066246 -0.57003546
-3.5352595 9.9557505 -0.57128775
-4.1837521 11.78199 -0.57191139
-5.1313353 14.450507 -0.57377672
-6.6314831 18.675119 -0.57663196
-9.3797493 26.414593 -0.58249366
-15.992157 45.035995 -0.59582436
-0.73135865 1.9819752 -0.56607062
-0.75658703 2.0503438 -0.56617236
-0.78090775 2.1162529 -0.5644089
-0.80918121 2.1928735 -0.56424361
-0.83846563 2.2722342 -0.56340343
-0.86798459 2.3522303 -0.56131482
-0.91029686 2.4668961 -0.56577051
-0.94923556 2.5724196 -0.5661701
-0.98649836 2.6734016 -0.56374413
-1.029373 2.7895916 -0.56260705
-1.0835643 2.9364491 -0.56532216
-1.1386492 3.0857289 -0.56587523
-1.2022045 3.2579629 -0.56778592
-1.2666358 3.4325712 -0.56703603
-1.3413082 3.634933 -0.56753165
-1.4164084 3.8384538 -0.56461537
-1.5107239 4.094048 -0.56529403
-1.6228122 4.3978062 -0.56766444
-1.7420319 4.7208905 -0.56697452
-1.8835772 5.1044769 -0.56729072
-2.0439851 5.5391808 -0.56603944
-2.2505417 6.098947 -0.56875688
-2.4847379 6.7336164 -0.5678764
-2.7848144 7.5468211 -0.56922549
-3.162714 8.5709257 -0.57020372
-3.6534703 9.9008713 -0.57067335
-4.3318119 11.73917 -0.57237518
-5.3152175 14.404191 -0.57448936
-6.8719969 18.623049 -0.57758963
-9.7176132 26.334642 -0.58332157
-16.578934 44.928761 -0.59705764
-0.75520462 1.9716105 -0.5657199
-0.78259015 2.0431058 -0.56678814
-0.80566871 2.1033571 -0.56356919
-0.84021956 2.1935589 -0.5670355
-0.86715078 2.2638681 -0.56393033
-0.9005174 2.3509781 -0.5636158
-0.93946397 2.452656 -0.56511128
-0.97862774 2.5549006 -0.56492013
-1.0240264 2.6734228 -0.56636107
-1.0701829 2.7939236 -0.56609195
-1.1174259 2.9172609 -0.56423068
-1.1718256 3.0592821 -0.5636251
-1.2355502 3.2256474 -0.56475914
-1.3033239 3.4025841 -0.56468713
-1.386869 3.6206951 -0.56792831
-1.472278 3.843672 -0.568003
-1.5687226 4.0954599 -0.56810951
-1.6743059 4.3711057 -0.5668326
-1.800948 4.7017298 -0.56729013
-1.9501839 5.0913396 -0.56845284
-2.1211541 5.5376911 -0.56850958
-2.3234134 6.0657287 -0.56828034
-2.5735271 6.7186999 -0.56924415
-2.8802896 7.5195637 -0.56979793
-3.2678595 8.5313921 -0.57020378
-3.7783961 9.8642483 -0.57119721
-4.4843569 11.707298 -0.57346636
-5.4936309 14.342206 -0.57466799
-7.1093454 18.560349 -0.57831264
-10.058334 26.259266 -0.58434731
-17.157272 44.792442 -0.59800452
-0.77821517 1.9592192 -0.5648675
-0.80194175 2.0189528 -0.5627808
-0.8338306 2.0992355 -0.56516933
-0.86323899 2.1732736 -0.564493
-0.89557254 2.2546759 -0.56434107
-0.93337113 2.3498368 -0.56605089
-0.97117335 2.4450071 -0.56605762
-1.0118182 2.5473335 -0.56595516
-1.0596565 2.6677706 -0.56788111
-1.1068287 2.7865303 -0.56730866
-1.152383 2.901217 -0.56382573
-1.2208396 3.0735619 -0.56897867
-1.2736766 3.2065835 -0.56412077
-1.3529378 3.4061298 -0.56799358
-1.4314452 3.6037786 -0.56799287
-1.515126 3.8144517 -0.56639528
-1.6190847 4.0761762 -0.56815332
-1.7285033 4.3516464 -0.5670225
-1.859561 4.6815944 -0.56757665
-2.0115397 5.0642128 -0.56814283
-2.1849418 5.5007668 -0.56743419
-2.3976305 6.0362277 -0.5682357
-2.6529024 6.6788955 -0.56859261
-2.9741917 7.4877667 -0.57011664
-3.3712318 8.4873466 -0.5699876
-3.9024801 9.8248081 -0.5716489
-4.6318169 11.660972 -0.57394361
-5.6750889 14.287493 -0.57522833
-7.3416009 18.483072 -0.5786739
-10.389296 26.155888 -0.58484548
-17.751394 44.690567 -0.59951323
-0.80312318 1.9516343 -0.56548512
-0.83000797 2.0169659 -0.56502914
-0.85910296 2.0876682 -0.56485653
-0.88498247 2.150557 -0.56137663
-0.92000884 2.235673 -0.56237376
-0.96282858 2.3397272 -0.56642479
-0.9993639 2.4285102 -0.56504065
-1.0464294 2.542882 -0.56778198
-1.0941492 2.6588438 -0.56880188
-1.1408764 2.7723935 -0.56724375
-1.1909751 2.894136 -0.5652529
-1.2486571 3.0343065 -0.56451136
-1.3187414 3.2046154 -0.56658453
-1.3933088 3.3858182 -0.5674206
-1.4712336 3.5751798 -0.5662939
-1.5621959 3.7962234 -0.5664981
-1.6689894 4.0557375 -0.56812209
-1.7837759 4.3346753 -0.5676263
-1.9147998 4.6530704 -0.56693017
-2.0702167 5.0307426 -0.56720084
-2.2500691 5.4677939 -0.56684411
-2.4781706 6.0220928 -0.56973064
-2.7390814 6.6561208 -0.56947803
-3.0656869 7.4497905 -0.57005233
-3.4785411 8.4530497 -0.57051367
-4.0215707 9.7726412 -0.57144767
-4.7644897 11.577976 -0.57269895
-5.8553748 14.228888 -0.57572412
-7.5734653 18.403944 -0.57906842
-10.720337 26.051018 -0.58540392
-18.340616 44.568726 -0.60085875
-0.82761282 1.9429123 -0.56586385
-0.86095798 2.0211937 -0.56913626
-0.88530225 2.0783446 -0.56523651
-0.91630989 2.1511385 -0.56442702
-0.95280117 2.2368057 -0.56556308
-0.98992777 2.3239646 -0.5655129
-1.0329436 2.4249489 -0.56712449
-1.0720176 2.5166793 -0.56483203
-1.1273588 2.6465991 -0.56910491
-1.1690909 2.7445698 -0.56444961
-1.2291526 2.885571 -0.56648922
-1.2923098 3.0338397 -0.56733805
-1.3643799 3.2030323 -0.56922781
-1.4355184 3.3700378 -0.56769127
-1.5172055 3.5618069 -0.56708795
-1.6107986 3.781527 -0.56721795
-1.7175261 4.0320816 -0.56772387
-1.8313781 4.2993622 -0.56590819
-1.9739587 4.6340857 -0.56753159
-2.1302214 5.0009294 -0.56674999
-2.3204286 5.4474621 -0.56765145
-2.5497105 5.9857264 -0.56921327
-2.8226576 6.6264997 -0.56987023
-3.1561127 7.4093223 -0.56988227
-3.5871077 8.4211311 -0.57129323
-4.1454268 9.7318459 -0.57199967
-4.9130015 11.533813 -0.57345933
-6.0311904 14.158884 -0.57584888
-7.8075647 18.329119 -0.57969099
-11.047063 25.934196 -0.585787
-18.920116 44.417061 -0.60190505
-0.84876716 1.926524 -0.56408793
-0.88290542 2.0040107 -0.56731194
-0.91657966 2.0804443 -0.56882977
-0.94204175 2.1382377 -0.56403881
-0.98398799 2.2334471 -0.56773025
-1.019146 2.3132482 -0.56591189
-1.0593477 2.4044981 -0.56534529
-1.1118351 2.5236335 -0.56941813
-1.1550256 2.6216667 -0.56675488
-1.2099878 2.7464194 -0.56784701
-1.2615616 2.8634813 -0.56515533
-1.3286049 3.0156555 -0.56694973
-1.399491 3.1765521 -0.56753725
-1.4755003 3.3490775 -0.5671739
-1.5626261 3.5468347 -0.56772047
-1.6533455 3.7527487 -0.56590796
-1.7663032 4.0091391 -0.5675087
-1.8859541 4.2807217 -0.5664643
-2.0331542 4.6148353 -0.56819284
-2.191494 4.9742332 -0.56673563
-2.3921673 5.4297194 -0.56882477
-2.6249616 5.9581141 -0.56961381
-2.9002752 6.5830188 -0.56915486
-3.2555852 7.3894978 -0.57139331
-3.689714 8.3748798 -0.5711903
-4.2694192 9.6906891 -0.57262301
-5.0566769 11.4776 -0.57371265
-6.2098022 14.094953 -0.57631069
-8.0354309 18.238749 -0.57991403
-11.38856 25.849651 -0.58699608
-19.502182 44.265877 -0.60306042
-0.87844586 1.9292408 -0.56800324
-0.90415609 1.9857056 -0.5652346
-0.93975812 2.0638945 -0.56742144
-0.97011071 2.1305549 -0.56511617
-1.0035907 2.2040837 -0.56336051
-1.0509318 2.308054 -0.56775969
-1.0890893 2.3918555 -0.56547874
-1.1361994 2.4953184 -0.56613892
-1.1851858 2.6029024 -0.56580609
-1.2322434 2.7062502 -0.56263202
-1.2959265 2.8461108 -0.56482935
-1.3653152 2.998502 -0.56683832
-1.434605 3.1506763 -0.56602311
-1.5179721 3.3337667 -0.56769919
-1.602069 3.5184603 -0.56628919
-1.7072722 3.7495074 -0.56854194
-1.8117757 3.9790177 -0.56635571
-1.944865 4.2713079 -0.5683403
-2.0867207 4.5828514 -0.56737125
-2.2613471 4.9663653 -0.5689643
-2.4578872 5.3980064 -0.56862569
-2.6883488 5.9041452 -0.5675717
-2.9843888 6.5543075 -0.56980228
-3.3402269 7.3357987 -0.57037389
-3.7943497 8.3331423 -0.5714826
-4.3858032 9.6320906 -0.57230389
-5.2022886 11.425254 -0.57425022
-6.3866239 14.026288 -0.57667065
-8.2682524 18.158716 -0.58055812
-11.713559 25.725292 -0.58739847
-20.089539 44.120598 -0.60440093
-0.90216231 1.9184253 -0.5680421
-0.9302929 1.9782444 -0.56632417
-0.96109432 2.0437429 -0.56508756
-0.99587065 2.1176939 -0.56491017
-1.0318671 2.1942394 -0.56404489
-1.0751032 2.2861798 -0.56558806
-1.1211667 2.3841326 -0.56686944
-1.1707275 2.4895225 -0.56804711
-1.2161418 2.5860949 -0.56536055
-1.2786 2.7189105 -0.56848979
-1.3351372 2.8391356 -0.5666604
-1.4056669 2.9891155 -0.56828839
-1.4759283 3.1385243 -0.56705755
-1.5565706 3.310008 -0.56686985
-1.6494013 3.5074103 -0.5677321
-1.7492394 3.7197134 -0.56724292
-1.8649105 3.9656851 -0.56767911
-1.9944932 4.2412395 -0.56755978
-2.1407034 4.5521522 -0.56678659
-2.3199198 4.9332509 -0.56839579
-2.5242848 5.3678284 -0.56867349
-2.7683144 5.8867507 -0.56912887
-3.0616474 6.5105162 -0.56922513
-3.4343436 7.3030448 -0.57106751
-3.8980289 8.2890606 -0.57170343
-4.5041423 9.5779448 -0.57233423
-5.3440351 11.363955 -0.57442868
-6.5612726 13.952381 -0.57690549
-8.5014029 18.078018 -0.58127636
-12.041128 25.605156 -0.58799171
-20.672823 43.960236 -0.60564071
-0.91802752 1.8914169 -0.56334484
-0.95317948 1.9638406 -0.56551337
-0.99208963 2.0440073 -0.56849074
-1.0213012 2.104192 -0.56461591
-1.0602195 2.1843758 -0.56481791
-1.1048323 2.2762916 -0.56645995
-1.1494445 2.3682063 -0.56640053
-1.1997962 2.4719462 -0.5673601
-1.2486784 2.5726585 -0.56573707
-1.3073977 2.6936383 -0.56652421
-1.3665801 2.815572 -0.56526858
-1.439853 2.9665365 -0.56731892
-1.5216812 3.1351275 -0.56978148
-1.601676 3.2999413 -0.56847578
-1.6934345 3.4889917 -0.5680784
-1.8013729 3.7113779 -0.56930655
-1.9161072 3.9477656 -0.56844378
-2.0537062 4.2312617 -0.56956089
-2.2083936 4.5499649 -0.56985229
-2.3845854 4.9129739 -0.56939489
-2.5873833 5.3307991 -0.56807822
-2.8397045 5.8506579 -0.56897229
-3.1475422 6.4848976 -0.57032609
-3.5254827 7.2635703 -0.57132745
-4.0047536 8.2510147 -0.57243258
-4.6333594 9.546134 -0.57379448
-5.4884787 11.30794 -0.57496524
-6.7333922 13.872843 -0.57699662
-8.7236061 17.973289 -0.58131409
-12.373138 25.492439 -0.58885264
-21.256962 43.795826 -0.60693085
-0.94698375 1.8915106 -0.56679815
-0.97728455 1.9520335 -0.56553108
-1.0170391 2.0314393 -0.56843054
-1.0508101 2.0988936 -0.5666185
-1.0907966 2.1787632 -0.56679195
-1.1350653 2.2671857 -0.56762433
-1.1815473 2.360029 -0.56787664
-1.2278327 2.4524796 -0.56631458
-1.2739671 2.5446289 -0.56297559
-1.3372475 2.6710253 -0.56518388
-1.4071647 2.8106782 -0.56771702
-1.4676265 2.9314451 -0.56401664
-1.5531876 3.1023455 -0.56725174
-1.638225 3.2721996 -0.56712413
-1.7262297 3.4479804 -0.56481433
-1.8438079 3.682832 -0.56836265
-1.9636514 3.9222081 -0.56819755
-2.100086 4.1947231 -0.56807566
-2.2628992 4.519927 -0.56953222
-2.4392352 4.8721418 -0.56809586
-2.6599271 5.312953 -0.56961888
-2.917064 5.8265595 -0.57007396
-3.2260423 6.4437146 -0.57014978
-3.6175759 7.2257662 -0.57180959
-4.1028833 8.1951218 -0.57201177
-4.743114 9.4739218 -0.57291633
-5.6248417 11.235089 -0.57473433
-6.914207 13.810475 -0.57789505
-8.9553595 17.887484 -0.58205646
-12.69783 25.362717 -0.58941823
-21.828405 43.600174 -0.60789323
-0.96805793 1.875633 -0.56556457
-1.0051475 1.9474946 -0.56775397
-1.0401287 2.0152717 -0.56744248
-1.0759933 2.0847602 -0.56633198
-1.1131533 2.1567585 -0.56458569
-1.1598647 2.2472627 -0.56616426
-1.208564 2.3416188 -0.56697977
-1.2584212 2.4382179 -0.56655174
-1.3133965 2.5447338 -0.56652898
-1.3722298 2.6587245 -0.5661087
-1.4373956 2.7849848 -0.56605458
-1.5091431 2.9239972 -0.56611127
-1.5937823 3.0879874 -0.56816691
-1.6733643 3.2421792 -0.56544465
-1.7720648 3.4334135 -0.56595474
-1.8882499 3.6585248 -0.56815171
-2.0051649 3.8850498 -0.56634367
-2.1531413 4.1717572 -0.56850803
-2.3195777 4.4942317 -0.56984538
-2.500006 4.8438153 -0.5683344
-2.7232213 5.2762995 -0.56923628
-2.9815469 5.7768111 -0.56875062
-3.3035207 6.4006419 -0.56988984
-3.7001274 7.1690764 -0.57088083
-4.2031698 8.1437321 -0.57198906
-4.8642426 9.4245749 -0.57350588
-5.7701941 11.179874 -0.57549596
-7.0871167 13.731441 -0.5781908
-9.1796284 17.785727 -0.58237427
-13.023635 25.233572 -0.59009409
-22.410547 43.420918 -0.60918999
-0.99595571 1.8728195 -0.56836605
-1.0250983 1.9276199 -0.56559193
-1.0618658 1.9967583 -0.56586343
-1.0985135 2.0656714 -0.56477326
-1.1449914 2.1530697 -0.56726283
-1.1913525 2.2402484 -0.56804484
-1.2401925 2.3320885 -0.5683217
-1.2892997 2.4244306 -0.56698906
-1.3414879 2.5225666 -0.56522363
-1.4034731 2.6391251 -0.56556737
-1.472324 2.768594 -0.56636006
-1.5460992 2.9073226 -0.56652093
-1.6289073 3.0630372 -0.56721872
-1.7078387 3.2114615 -0.56370729
-1.8209094 3.4240825 -0.56806457
-1.9389389 3.646028 -0.56987053
-2.0600007 3.8736756 -0.56833518
-2.205014 4.1463623 -0.56869924
-2.3637187 4.4447942 -0.56721944
-2.5661547 4.8254604 -0.56984007
-2.7922411 5.2505984 -0.57012463
-3.0655959 5.7646217 -0.57121867
-3.3871491 6.369278 -0.57076252
-3.7848513 7.1171274 -0.57040697
-4.3124547 8.1092453 -0.57324803
-4.9915781 9.3862858 -0.57486755
-5.9075294 11.108663 -0.575526
-7.2566438 13.64557 -0.57828861
-9.4058676 17.687023 -0.58288544
-13.355672 25.114332 -0.59110147
-22.994122 43.238708 -0.6105544
-1.006341 1.8374863 -0.56135607
-1.0455178 1.9090196 -0.56386387
-1.0821593 1.9759237 -0.56368744
-1.1269114 2.0576367 -0.56632233
-1.1657629 2.1285763 -0.56454366
-1.2132947 2.2153649 -0.56547552
-1.2602543 2.3011088 -0.56450588
-1.3133234 2.3980081 -0.56454378
-1.3749635 2.5105572 -0.56627822
-1.4391674 2.6277876 -0.56688726
-1.5103091 2.7576859 -0.5678848
-1.5792139 2.8834996 -0.56561995
-1.6681503 3.0458896 -0.56779885
-1.7523125 3.1995621 -0.56535804
-1.8646371 3.4046564 -0.56860262
-1.9724866 3.6015797 -0.56667143
-2.1039569 3.8416324 -0.56738675
-2.2536557 4.1149688 -0.56815135
-2.4195559 4.4178872 -0.56753957
-2.6175206 4.7793527 -0.56815314
-2.8579924 5.2184319 -0.57040471
-3.1254485 5.7067823 -0.56925255
-3.4648397 6.3264794 -0.57070208
-3.8825855 7.0892453 -0.57195544
-4.4074225 8.0475492 -0.57267457
-5.1021371 9.3160343 -0.57436395
-6.0511022 11.048758 -0.5762338
-7.4311666 13.568628 -0.57885659
-9.631011 17.585342 -0.58339322
-13.670644 24.96134 -0.59141237
-23.567822 43.032681 -0.61169106
-1.037641 1.8405536 -0.56614834
-1.0686587 1.8955722 -0.56373066
-1.1094501 1.9679275 -0.5652554
-1.1460375 2.0328255 -0.56332952
-1.1943543 2.1185293 -0.56573141
-1.2414622 2.2020888 -0.56594062
-1.2899427 2.2880828 -0.56515884
-1.3468342 2.3889961 -0.56627828
-1.4015497 2.4860497 -0.56459498
-1.4683836 2.6045988 -0.56573719
-1.5450356 2.7405629 -0.56822807
-1.6154602 2.8654811 -0.56593931
-1.7025616 3.0199804 -0.56682885
-1.8039138 3.1997576 -0.56926906
-1.9050399 3.3791337 -0.56820941
-2.0183358 3.5800967 -0.56715333
-2.1539717 3.8206856 -0.56816196
-2.3021116 4.0834541 -0.5676657
-2.4790635 4.3973289 -0.5687716
-2.6829772 4.7590284 -0.5696159
-2.916635 5.1734877 -0.56936914
-3.2048273 5.684679 -0.57093555
-3.5464559 6.2906551 -0.57136112
-3.9718642 7.0452385 -0.5723021
-4.5040636 7.9892468 -0.57242358
-5.2179613 9.2555485 -0.57454723
-6.1923485 10.983904 -0.57677901
-7.6021943 13.484669 -0.57921898
-9.8575182 17.48513 -0.58404577
-14.00217 24.836857 -0.59249759
-24.15317 42.842564 -0.61316395
-1.0556099 1.8197551 -0.56370085
-1.090901 1.8805929 -0.56322265
-1.1382658 1.9622446 -0.56760049
-1.1739429 2.0237479 -0.56477153
-1.2218591 2.1063502 -0.56644839
-1.2723895 2.193459 -0.56770086
-1.3160468 2.2687194 -0.56433058
-1.3837136 2.3853695 -0.56940871
-1.4363756 2.4761529 -0.56631577
-1.5067924 2.5975437 -0.56818628
-1.576913 2.7184238 -0.56761527
-1.6453831 2.8364587 -0.56416059
-1.737727 2.9956496 -0.56622994
-1.8312199 3.1568208 -0.56559348
-1.9425339 3.3487139 -0.56706792
-2.0629761 3.5563431 -0.56736606
-2.2029326 3.7976127 -0.56871605
-2.348887 4.049222 -0.56687921
-2.5338309 4.3680449 -0.56897086
-2.7411187 4.7253857 -0.56958044
-2.9816532 5.1400409 -0.56968015
-3.2702107 5.6374822 -0.57019097
-3.6232185 6.2460289 -0.57131124
-4.0511594 6.9837518 -0.57131082
-4.6106172 7.9481945 -0.57350099
-5.3295856 9.1876173 -0.57435507
-6.3244376 10.902632 -0.5765515
-7.7756653 13.404388 -0.57983375
-10.075006 17.3682 -0.58423394
-14.317033 24.680984 -0.59293407
-24.715288 42.60643 -0.61408758
-1.0808326 1.8115449 -0.5652318
-1.1281282 1.8908153 -0.57039559
-1.1620709 1.9477055 -0.56748539
-1.1992567 2.0100315 -0.56501627
-1.2469902 2.0900357 -0.56614178
-1.2930143 2.1671751 -0.56497049
-1.3566597 2.2738488 -0.569713
-1.4027634 2.3511217 -0.56530821
-1.4635683 2.4530346 -0.56510168
-1.5390893 2.5796127 -0.56836087
-1.6024814 2.6858618 -0.56488794
-1.6902304 2.8329349 -0.5675506
-1.7765119 2.9775481 -0.56689465
-1.8759404 3.1441967 -0.56742167
-1.9860153 3.3286893 -0.56776947
-2.1110637 3.5382786 -0.56858248
-2.2452328 3.7631547 -0.5676474
-2.4035614 4.0285234 -0.56807625
-2.5838513 4.3307009 -0.5682022
-2.7885261 4.673749 -0.56744653
-3.0500205 5.1120305 -0.57068926
-3.3360891 5.5914998 -0.56964618
-3.7031934 6.2067904 -0.57184404
-4.143671 6.9450593 -0.57227051
-4.7042656 7.8846517 -0.57304657
-5.4453788 9.1268044 -0.57469583
-6.4598355 10.8271 -0.57671416
-7.9411087 13.309809 -0.57992262
-10.299425 17.262499 -0.5848943
-14.635936 24.530769 -0.59360403
-25.291542 42.390251 -0.61540771
-1.1123263 1.8132815 -0.56999826
-1.144816 1.8662454 -0.56718743
-1.1820223 1.926898 -0.565615
-1.2216665 1.9915247 -0.56399417
-1.2717252 2.0731289 -0.56575525
-1.3249494 2.1598935 -0.5672766
-1.3868239 2.2607594 -0.57066292
-1.4381576 2.3444421 -0.56791127
-1.5013063 2.4473853 -0.56801009
-1.562102 2.5464926 -0.56525296
-1.6469241 2.6847672 -0.56887394
-1.7308899 2.8216457 -0.56950992
-1.8080468 2.9474247 -0.56534958
-1.9140602 3.1202447 -0.56730372
-2.0252538 3.3015091 -0.56733823
-2.1546998 3.5125282 -0.56865919
-2.2912948 3.7352014 -0.56763792
-2.4557116 4.0032287 -0.56872445
-2.6435559 4.3094468 -0.56963545
-2.8540432 4.6525774 -0.56909388
-3.1068926 5.064765 -0.56963456
-3.4146006 5.5663815 -0.57132155
-3.7815609 6.1645894 -0.57219684
-4.2295575 6.8949003 -0.57237965
-4.805954 7.8345246 -0.57365507
-5.5598264 9.0634651 -0.57496887
-6.599359 10.75808 -0.57731664
-8.1142969 13.227688 -0.58064806
-10.513211 17.138329 -0.58502299
-14.950341 24.371607 -0.59415615
-25.849731 42.139473 -0.61633497
-1.1300708 1.7923834 -0.56775421
-1.1728455 1.8602275 -0.56969845
-1.210924 1.9206231 -0.56810087
-1.2578458 1.9950447 -0.56932825
-1.3048532 2.0696023 -0.56912851
-1.3463606 2.1354363 -0.56515855
-1.4065912 2.2309668 -0.56746566
-1.4615088 2.3180707 -0.56583369
-1.5235553 2.4164813 -0.56514293
-1.6005425 2.5385895 -0.56782436
-1.674373 2.6556907 -0.56703264
-1.7551789 2.7838552 -0.56619573
-1.8551579 2.9424298 -0.5687241
-1.9515302 3.0952842 -0.56708568
-2.0727174 3.2874968 -0.56926703
-2.204495 3.4965065 -0.57041079
-2.3419695 3.7145522 -0.56883323
-2.5156415 3.9900098 -0.57119793
-2.6945393 4.273756 -0.5692544
-2.9135695 4.6211557 -0.56958967
-3.1671488 5.0233531 -0.56931406
-3.4805145 5.5203762 -0.5709492
-3.8483129 6.1037345 -0.57089746
-4.3143616 6.8429251 -0.57242572
-4.8954649 7.7646017 -0.57289964
-5.6753097 9.0014982 -0.57542139
-6.740932 10.691661 -0.57815677
-8.2746992 13.12434 -0.58053398
-10.72807 17.015583 -0.58529186
-15.265674 24.212587 -0.59481078
-26.422695 41.908524 -0.61766243
-1.1488678 1.7734814 -0.56619889
-1.1856586 1.8302743 -0.56494755
-1.2234744 1.8886499 -0.56305099
-1.2767873 1.9709476 -0.56688911
-1.3238143 2.0435421 -0.56639576
-1.3738 2.1207042 -0.56568766
-1.4363296 2.2172296 -0.56842089
-1.490289 2.3005254 -0.56598133
-1.5537214 2.3984447 -0.56535012
-1.627023 2.5115986 -0.56621939
-1.7090836 2.6382737 -0.56775814
-1.793933 2.769254 -0.56766963
-1.8856291 2.9108028 -0.5670498
-1.9903097 3.0723963 -0.56733334
-2.1144214 3.2639844 -0.5696547
-2.2405283 3.458653 -0.56868702
-2.3812451 3.6758742 -0.56735134
-2.5507987 3.9376104 -0.56814384
-2.7455692 4.2382731 -0.56898201
-2.9673359 4.5806093 -0.56904638
-3.2366941 4.9964118 -0.57072824
-3.5448277 5.4720707 -0.57041824
-3.9281266 6.0637603 -0.57163316
-4.3967557 6.7871723 -0.57224119
-4.99931 7.7173223 -0.57390356
-5.7865243 8.9325275 -0.57551748
-6.8601284 10.589826 -0.57716787
-8.4421568 13.031966 -0.58099586
-10.944185 16.894291 -0.58570451
-15.577147 24.046089 -0.59538102
-26.985369 41.656704 -0.61879486
-1.1726074 1.7622579 -0.56717616
-1.210933 1.8198556 -0.56628489
-1.2483299 1.8760577 -0.56383055
-1.3014588 1.9559027 -0.56712186
-1.3488888 2.0271831 -0.56641597
-1.4007609 2.1051393 -0.56608754
-1.4672625 2.2050815 -0.56988889
-1.5205337 2.2851403 -0.56675333
-1.5924799 2.393265 -0.56870198
-1.6532001 2.4845185 -0.56465465
-1.7369062 2.6103165 -0.56629509
-1.8254156 2.7433333 -0.56691456
-1.9311827 2.9022861 -0.56997365
-2.0293071 3.0497527 -0.5677169
-2.1448164 3.2233462 -0.56712234
-2.2821646 3.4297605 -0.56850761
-2.429003 3.6504371 -0.56799233
-2.6005793 3.9082911 -0.56848449
-2.796216 4.2023044 -0.56872618
-3.0238791 4.5444489 -0.56913036
-3.2868462 4.9396501 -0.56881815
-3.6178722 5.4371343 -0.57137066
-4.0055046 6.0196891 -0.57207847
-4.4864058 6.742413 -0.57307541
-5.1000671 7.6646571 -0.57460731
-5.898128 8.8640261 -0.57573324
-7.0043101 10.526456 -0.57836455
-8.6035652 12.929904 -0.58111829
-11.166531 16.781668 -0.58651596
-15.90379 23.901075 -0.59658748
-27.558107 41.415817 -0.62020338
-1.1857942 1.7354243 -0.56319016
-1.2295303 1.7994328 -0.56459177
-1.2813424 1.8752602 -0.5682832
-1.3246626 1.9386599 -0.56680238
-1.381084 2.0212331 -0.56945556
-1.4329081 2.0970783 -0.56861502
-1.4826125 2.1698215 -0.56544507
-1.5509492 2.2698331 -0.56764394
-1.6127841 2.3603292 -0.56554532
-1.6917163 2.4758475 -0.56736875
-1.7699027 2.5902743 -0.56662571
-1.8595319 2.7214477 -0.56707418
-1.9598746 2.8683004 -0.56798923
-2.0744402 3.0359685 -0.56985635
-2.1787076 3.188565 -0.56567365
-2.3250825 3.4027867 -0.56873256
-2.4694235 3.6140316 -0.56700963
-2.6484125 3.875984 -0.56847918
-2.8497357 4.1706233 -0.56913793
-3.0810933 4.5092177 -0.56941986
-3.355134 4.9102798 -0.57014376
-3.6861799 5.3947692 -0.5716387
-4.0766482 5.9662247 -0.57171816
-4.5698156 6.6879811 -0.57318169
-5.1991429 7.6090097 -0.57518482
-6.0133395 8.8005962 -0.5763725
-7.1275277 10.431224 -0.57790393
-8.7674274 12.831238 -0.58148521
-11.386415 16.664158 -0.58725804
-16.201632 23.711287 -0.5967778
-28.109438 41.138504 -0.62117976
-1.2146412 1.7315454 -0.56673557
-1.2534086 1.7868108 -0.56542462
-1.3001664 1.8534669 -0.56648093
-1.3423675 1.9136273 -0.56426692
-1.4007784 1.9968956 -0.56740862
-1.4513173 2.0689418 -0.56578201
-1.5104548 2.1532459 -0.56592286
-1.5781684 2.2497759 -0.56743813
-1.642568 2.3415813 -0.5658499
-1.7241391 2.457866 -0.56806356
-1.8044354 2.5723331 -0.56751186
-1.8882121 2.6917622 -0.56568384
-1.9985207 2.8490138 -0.56899339
-2.109405 3.007086 -0.56926066
-2.2304714 3.1796737 -0.56891894
-2.3604407 3.364953 -0.56721741
-2.5219469 3.59519 -0.56887591
-2.6980133 3.8461835 -0.56893128
-2.9013653 4.1360741 -0.5692488
-3.1384809 4.4740973 -0.56981522
-3.4242358 4.8814583 -0.57164299
-3.7558706 5.3542237 -0.57219291
-4.1493435 5.9151435 -0.57166934
-4.6540914 6.6346922 -0.57347602
-5.2852521 7.534451 -0.57441807
-6.1228619 8.7285147 -0.57653904
-7.264802 10.356421 -0.57866508
-8.9291401 12.729036 -0.58178544
-11.60365 16.541714 -0.58792692
-16.513924 23.541611 -0.59757298
-28.675694 40.87896 -0.62253797
-1.2388709 1.72069 -0.56812567
-1.276006 1.7722677 -0.56574488
-1.3282803 1.8448724 -0.56880313
-1.3693477 1.9019116 -0.56573457
-1.428899 1.9846234 -0.56887114
-1.473518 2.0465956 -0.56458336
-1.5487828 2.1511323 -0.57032961
-1.6158037 2.2442188 -0.57100463
-1.6766557 2.3287373 -0.56768531
-1.7544476 2.4367838 -0.56813413
-1.8334869 2.5465629 -0.56675756
-1.9233705 2.6714039 -0.56633294
-2.031256 2.8212478 -0.56839347
-2.1458075 2.9803505 -0.5691514
-2.267755 3.1497257 -0.5685069
-2.4086974 3.3454828 -0.56888509
-2.5564289 3.5506701 -0.56676257
-2.7420478 3.8084795 -0.56829864
-2.958478 4.1090832 -0.57049769
-3.1982286 4.4420772 -0.57070267
-3.4786568 4.8315687 -0.57076681
-3.8215084 5.3077617 -0.57220614
-4.2206421 5.8621254 -0.571518
-4.7292199 6.5684986 -0.57273769
-5.3839588 7.4778767 -0.57510877
-6.2356529 8.6608105 -0.57708806
-7.3935103 10.268979 -0.57881534
-9.0985479 12.637137 -0.5826546
-11.805239 16.396509 -0.58788091
-16.817942 23.358742 -0.59813523
-29.231821 40.600601 -0.62372571
-1.2563268 1.7004449 -0.56649911
-1.2992159 1.7584956 -0.56640553
-1.3472739 1.8235424 -0.56729162
-1.3887968 1.8797438 -0.56417775
-1.4371337 1.945168 -0.56258452
-1.5016716 2.0325203 -0.56575161
-1.5688095 2.1233919 -0.56804639
-1.6318194 2.2086761 -0.56702387
-1.6997148 2.3005729 -0.56587183
-1.7817705 2.4116356 -0.5673362
-1.8689013 2.5295677 -0.56804675
-1.9723722 2.6696162 -0.57105243
-2.0548673 2.7812736 -0.56538779
-2.1849074 2.9572837 -0.56983399
-2.293107 3.1037326 -0.56525213
-2.4490106 3.3147488 -0.56873667
-2.6124976 3.5360291 -0.56951028
-2.7942555 3.7820394 -0.56943733
-2.9937484 4.0520539 -0.56764799
-3.2622285 4.4154434 -0.57239127
-3.5410564 4.7928386 -0.5712921
-3.8785403 5.2496247 -0.57103699
-4.300076 5.8201752 -0.57253987
-4.8077865 6.5073643 -0.57251871
-5.4749169 7.4103289 -0.57504791
-6.3303957 8.568224 -0.57606202
-7.5236712 10.183329 -0.57915843
-9.2581863 12.531003 -0.58296597
-12.019093 16.267904 -0.5885244
-17.127737 23.182482 -0.59896958
-29.774406 40.299816 -0.62468219
-1.2766529 1.684227 -0.56628317
-1.3128228 1.7319441 -0.56301045
-1.36953 1.8067552 -0.56726533
-1.4184 1.8712271 -0.56681353
-1.473792 1.944303 -0.56753284
-1.5295854 2.0179086 -0.56687695
-1.5865465 2.0930548 -0.56510693
-1.6544446 2.1826293 -0.56551707
-1.7330775 2.286366 -0.56757623
-1.8036866 2.3795173 -0.56495523
-1.9015576 2.5086339 -0.56855363
-1.9902685 2.6256657 -0.56684327
-2.0897288 2.7568791 -0.56560963
-2.2124922 2.9188349 -0.56762469
-2.3501129 3.1003911 -0.56986344
-2.4931464 3.2890887 -0.56955093
-2.6582019 3.5068383 -0.57003015
-2.8458965 3.7544549 -0.57050979
-3.0555465 4.0310359 -0.569924
-3.3064461 4.3620358 -0.57069528
-3.5953331 4.7431502 -0.57059598
-3.9475319 5.2077899 -0.57172322
-4.3736238 5.7699122 -0.57284254
-4.9015646 6.4663992 -0.57417387
-5.5698276 7.3480062 -0.57548296
-6.448072 8.5066319 -0.57720816
-7.6532054 10.096506 -0.57952899
-9.4177446 12.424379 -0.58334899
-12.228559 16.132551 -0.58902305
-17.432463 22.997812 -0.59969127
-30.329393 40.012115 -0.62595624
-1.3006166 1.6727132 -0.56774628
-1.3424392 1.7265009 -0.56656426
-1.3911182 1.7891065 -0.56705201
-1.4365547 1.847542 -0.56494713
-1.500077 1.9292376 -0.56847656
-1.5573299 2.0028701 -0.56798893
-1.6201 2.0835984 -0.56788951
-1.6940035 2.1786449 -0.5698387
-1.7581896 2.2611942 -0.56665158
-1.8382734 2.3641894 -0.56663996
-1.9265476 2.4777181 -0.56687313
-2.0249152 2.604228 -0.56754762
-2.1341419 2.7447038 -0.56845272
-2.2590451 2.9053407 -0.57035941
-2.3908513 3.0748556 -0.57053041
-2.5424085 3.2697723 -0.57157642
-2.7057571 3.4798536 -0.57100892
-2.8952963 3.7236185 -0.57119077
-3.108274 3.9975274 -0.57054704
-3.3586042 4.3194752 -0.57048714
-3.6565714 4.7026887 -0.57109427
-4.0150657 5.1637454 -0.57226479
-4.4519362 5.7256012 -0.5738349
-4.9827681 6.4083004 -0.57441205
-5.6521888 7.269237 -0.57471371
-6.5574355 8.4334679 -0.57767129
-7.7887874 10.0171 -0.58042461
-9.5706434 12.308732 -0.58340055
-12.425178 15.979927 -0.58898443
-17.725456 22.796576 -0.60008198
-30.874889 39.707962 -0.62708992
-1.3213563 1.6569349 -0.56786275
-1.3598207 1.7051679 -0.5650081
-1.4088513 1.7666504 -0.56538266
-1.4668165 1.8393369 -0.56791049
-1.5284086 1.9165713 -0.57023907
-1.5827622 1.9847287 -0.56832057
-1.6400907 2.0566165 -0.56598943
-1.7090131 2.143043 -0.56598061
-1.7922162 2.2473767 -0.5686686
-1.8714042 2.3466759 -0.56791478
-1.967976 2.4677734 -0.57009125
-2.0563371 2.5785751 -0.56742471
-2.169786 2.7208362 -0.56899232
-2.2806358 2.859838 -0.56688911
-2.4291844 3.0461128 -0.57069647
-2.564878 3.2162676 -0.56769377
-2.7420454 3.4384294 -0.56970125
-2.9318295 3.6764121 -0.56943655
-3.1571813 3.9589953 -0.57054532
-3.4121251 4.278686 -0.57059824
-3.715416 4.6590023 -0.57129401
-4.0816989 5.1183085 -0.57274824
-4.5150261 5.6616855 -0.57295001
-5.0550737 6.3388867 -0.57371849
-5.745101 7.2041569 -0.57511014
-6.6525512 8.3420677 -0.57697028
-7.9116945 9.92099 -0.58044887
-9.7279978 12.198571 -0.58380479
-12.63466 15.843423 -0.58963495
-18.025103 22.602852 -0.60077155
-31.415825 39.394352 -0.62819046
-1.3338541 1.6310551 -0.5645718
-1.3783571 1.6854739 -0.56405592
-1.4447006 1.7665998 -0.57100856
-1.488991 1.8207587 -0.56778455
-1.5460472 1.8905278 -0.56810373
-1.6041353 1.9615586 -0.56729126
-1.672025 2.0445752 -0.56829083
-1.7415166 2.1295505 -0.56802982
-1.8230309 2.2292273 -0.56970537
-1.8939422 2.3159387 -0.56606942
-1.9954966 2.4401207 -0.56932861
-2.0935953 2.5600772 -0.56897616
-2.1914911 2.6797855 -0.56600022
-2.3287573 2.8476365 -0.57010365
-2.4620237 3.0105963 -0.56967127
-2.605402 3.1859212 -0.5679493
-2.7805357 3.4000773 -0.56896871
-2.9776819 3.6411505 -0.56960315
-3.2019508 3.9153893 -0.56989217
-3.4631488 4.234786 -0.57037967
-3.7699385 4.6099329 -0.5709182
-4.1384325 5.0605321 -0.57193422
-4.5905271 5.6133595 -0.5737285
-5.1415753 6.287189 -0.57471818
-5.8521461 7.1560845 -0.57697356
-6.7567749 8.2622776 -0.57715452
-8.0420952 9.8339853 -0.58110023
-9.8818989 12.083722 -0.5840795
-12.843761 15.705528 -0.59033602
-18.32205 22.404455 -0.60144109
-31.95434 39.074207 -0.62930346
-1.3532706 1.6138906 -0.56434774
-1.3963223 1.6652333 -0.56298566
-1.4604095 1.7416629 -0.56870973
-1.5025434 1.7919111 -0.5645076
-1.5617433 1.8625119 -0.56541294
-1.6274081 1.940823 -0.56703889
-1.694078 2.0203323 -0.56729966
-1.7626481 2.102108 -0.56644851
-1.8462062 2.2017584 -0.56844407
-1.9326003 2.3047905 -0.5691101
-2.0158675 2.4040937 -0.56666344
-2.1348803 2.5460267 -0.5716446
-2.2307165 2.6603193 -0.56763941
-2.3599679 2.8144629 -0.56922889
-2.4963291 2.9770854 -0.56909555
-2.6500814 3.1604478 -0.56917429
-2.8269494 3.3713782 -0.56994015
-3.0204933 3.6021955 -0.56927639
-3.2563143 3.8834321 -0.57102567
-3.5218105 4.2000589 -0.57149196
-3.8278689 4.5650597 -0.57114702
-4.1982112 5.0067248 -0.57164419
-4.6490169 5.5443487 -0.5724746
-5.225563 6.2319293 -0.57549703
-5.9232044 7.0639257 -0.57537198
-6.8659472 8.1882277 -0.57783568
-8.1624136 9.734374 -0.58110106
-10.038361 11.9716 -0.58458221
-13.034093 15.544267 -0.59025431
-18.617838 22.20336 -0.60214287
-32.495659 38.753841 -0.63053161
-1.3719375 1.5958796 -0.56390607
-1.429299 1.6626042 -0.56799579
-1.4769063 1.7179823 -0.56686449
-1.5468879 1.7993871 -0.57281172
-1.5753863 1.8325373 -0.56215167
-1.6450884 1.913617 -0.56495768
-1.708985 1.9879434 -0.56406313
-1.7927432 2.0853734 -0.5678364
-1.8727173 2.1784017 -0.56831622
-1.952865 2.271632 -0.56680906
-2.0522938 2.3872907 -0.56860816
-2.1462235 2.4965525 -0.56641906
-2.2728131 2.6438053 -0.57003587
-2.3839443 2.7730765 -0.56674445
-2.531657 2.9449005 -0.56885099
-2.6807365 3.1183145 -0.56747997
-2.8669667 3.3349431 -0.56969732
-3.0695081 3.5705452 -0.57019633
-3.3002503 3.8389516 -0.57040918
-3.5739877 4.1573715 -0.57162017
-3.8897154 4.5246353 -0.57203031
-4.2684069 4.9651408 -0.57284564
-4.7216749 5.4923959 -0.57306188
-5.292562 6.1564689 -0.57449502
-6.0214972 7.0043893 -0.57651001
-6.9655395 8.1025276 -0.57778859
-8.2863169 9.6388969 -0.58144009
-10.189205 11.852394 -0.58483517
-13.240906 15.402225 -0.59099841
-18.908913 21.995422 -0.60276377
-33.022755 38.413074 -0.6315462
-1.4000791 1.5886749 -0.56740069
-1.4520723 1.6476716 -0.56895125
-1.4968296 1.698458 -0.56645256
-1.5547812 1.7642158 -0.56765854
-1.6060981 1.8224453 -0.56507146
-1.6892574 1.9168065 -0.57198858
-1.7452893 1.9803861 -0.56796521
-1.8225205 2.0680206 -0.56917048
-1.8991524 2.1549749 -0.56825399
-1.9880266 2.255821 -0.56892055
-2.0799692 2.3601484 -0.56819224
-2.1861277 2.480607 -0.56885731
-2.3029892 2.61321 -0.56950194
-2.4368603 2.7651143 -0.57119793
-2.5652945 2.9108491 -0.56832373
-2.7299118 3.0976408 -0.56978351
-2.9105165 3.3025737 -0.57023841
-3.1116867 3.5308421 -0.56992322
-3.3438716 3.7943032 -0.5698415
-3.6279826 4.1166849 -0.57211655
-3.9344451 4.4644294 -0.57049197
-4.3387055 4.9231443 -0.57411224
-4.7871737 5.432023 -0.57286131
-5.369895 6.0932388 -0.57471287
-6.107511 6.9302144 -0.57654262
-7.0651689 8.0168724 -0.57783204
-8.4002314 9.5317726 -0.58116508
-10.338218 11.730813 -0.58506441
-13.436481 15.246424 -0.59131521
-19.194389 21.779943 -0.6032812
-33.546078 38.064854 -0.63255519
-1.4301523 1.583124 -0.57165587
-1.469751 1.6269583 -0.5679965
-1.5207492 1.6834114 -0.56762803
-1.573411 1.7417059 -0.56659818
-1.6416391 1.8172319 -0.56967098
-1.6983429 1.8800008 -0.56719446
-1.7681119 1.9572325 -0.56751734
-1.8435111 2.0406964 -0.5678463
-1.9211873 2.1266811 -0.56697971
-2.0140464 2.2294726 -0.56847841
-2.1071963 2.3325861 -0.56775177
-2.2207568 2.458293 -0.56995934
-2.32741 2.576354 -0.56766391
-2.4625049 2.725899 -0.56930918
-2.6121583 2.8915596 -0.57078576
-2.7680836 3.064163 -0.56984341
-2.949851 3.2653725 -0.57003498
-3.1536205 3.4909375 -0.56969839
-3.3961265 3.7593825 -0.57082558
-3.6735723 4.0665045 -0.57137734
-3.9997525 4.4275737 -0.57202399
-4.3911328 4.860817 -0.57309723
-4.8572254 5.3767629 -0.57328904
-5.4479547 6.0306783 -0.57508725
-6.1900434 6.8521419 -0.57633626
-7.1721582 7.9393058 -0.57855415
-8.5217562 9.433259 -0.58150363
-10.493772 11.616205 -0.58573973
-13.631868 15.089958 -0.59170324
-19.472795 21.555641 -0.60365504
-34.084072 37.729767 -0.63390362
-1.432856 1.5474346 -0.56508803
-1.4897485 1.6088765 -0.56803626
-1.5397884 1.6629179 -0.56705934
-1.6003559 1.7283287 -0.56860512
-1.6571373 1.7896507 -0.56736964
-1.7214564 1.859113 -0.56723607
-1.8097129 1.954427 -0.57311302
-1.8642697 2.0133464 -0.56657189
-1.9482403 2.1040318 -0.56728524
-2.0336287 2.1962481 -0.56634015
-2.1398027 2.3109124 -0.56883776
-2.2490141 2.4288568 -0.56950331
-2.3661599 2.5553703 -0.56940818
-2.4894209 2.688488 -0.56784606
-2.6388757 2.849894 -0.56892335
-2.8017669 3.0258107 -0.56907499
-2.9906523 3.2298005 -0.57020175
-3.2072623 3.4637315 -0.57165134
-3.4406385 3.71577 -0.5705843
-3.7314322 4.0298166 -0.57262611
-4.0562615 4.380621 -0.57235867
-4.451488 4.8074517 -0.57321572
-4.9375601 5.3323932 -0.57498831
-5.5286899 5.9707928 -0.57581592
-6.2728572 6.7744675 -0.57624722
-7.2671933 7.8483162 -0.57839173
-8.6315737 9.3217993 -0.5811317
-10.631809 11.481984 -0.58551961
-13.829019 14.934858 -0.59224463
-19.764114 21.344557 -0.60450387
-34.60173 37.368668 -0.63493723
-1.4532524 1.5312574 -0.5656634
-1.5069367 1.5878233 -0.56710255
-1.5557789 1.6392871 -0.56548196
-1.6096255 1.6960241 -0.56444615
-1.6837897 1.7741691 -0.56898248
-1.739599 1.832974 -0.56574458
-1.8168732 1.9143959 -0.56788272
-1.8888768 1.9902644 -0.56656969
-1.976431 2.0825183 -0.56799448
-2.0653312 2.1761901 -0.5676738
-2.1625569 2.2786345 -0.56739521
-2.2717626 2.393702 -0.56776744
-2.390512 2.5188255 -0.56777203
-2.5209906 2.6563077 -0.5675537
-2.6803253 2.8241949 -0.57032943
-2.845969 2.9987295 -0.57052034
-3.0355213 3.1984565 -0.57121474
-3.2403193 3.4142473 -0.57001734
-3.4926183 3.6800888 -0.57165676
-3.7674148 3.9696352 -0.5706141
-4.1097875 4.3303852 -0.57235456
-4.5089755 4.7509999 -0.57305229
-4.9934096 5.2614365 -0.57391459
-5.59168 5.89182 -0.57478738
-6.3601117 6.701498 -0.57664919
-7.3655949 7.7609515 -0.57858425
-8.7537136 9.2235785 -0.58167487
-10.778597 11.35715 -0.58586824
-14.01832 14.77077 -0.59252846
-20.030979 21.106165 -0.60468245
-35.118885 37.003929 -0.6360293
-1.4774877 1.5189455 -0.56778371
-1.5237364 1.5664918 -0.56613296
-1.577167 1.6214217 -0.56596637
-1.6330967 1.6789209 -0.56539452
-1.7008709 1.7485967 -0.56744581
-1.7711246 1.8208218 -0.56867278
-1.8512597 1.9032054 -0.57127267
-1.9160358 1.969799 -0.56740785
-2.0031908 2.0593996 -0.56836432
-2.0984817 2.1573644 -0.56945103
-2.1998048 2.2615304 -0.56982869
-2.2949817 2.3593779 -0.56627679
-2.429028 2.4971857 -0.56958383
-2.5600133 2.6318464 -0.56901014
-2.7066896 2.7826383 -0.56861562
-2.8753157 2.955996 -0.56907374
-3.060317 3.1461885 -0.56855774
-3.2834525 3.3755851 -0.57026017
-3.5333407 3.6324849 -0.57096803
-3.8210638 3.9282815 -0.57138044
-4.1553936 4.2719927 -0.57134706
-4.5689707 4.6971741 -0.57329315
-5.0605626 5.2025599 -0.57423663
-5.6704106 5.8295202 -0.57546836
-6.4517612 6.6327953 -0.57752031
-7.4802871 7.6901813 -0.5801217
-8.8717403 9.1206779 -0.5820213
-10.927121 11.233732 -0.58638865
-14.20566 14.604265 -0.59281158
-20.324112 20.8944 -0.60572964
-35.634151 36.634033 -0.6371547
-1.5005229 1.5051485 -0.56948042
-1.5486782 1.5534523 -0.56825978
-1.6007392 1.6056738 -0.56729722
-1.665635 1.6707697 -0.56950384
-1.7200685 1.7253709 -0.56672961
-1.7923111 1.7978363 -0.56833422
-1.86277 1.8685123 -0.5676915
-1.9368011 1.9427717 -0.56643999
-2.0305045 2.0367639 -0.56896502
-2.1151018 2.1216218 -0.5668388
-2.2256582 2.2325191 -0.56937152
-2.3309577 2.3381433 -0.56801665
-2.4589953 2.4665756 -0.56945568
-2.6007674 2.6087847 -0.5708952
-2.7445698 2.7530303 -0.56941867
-2.9117308 2.9207067 -0.56912982
-3.1075747 3.1171544 -0.5701732
-3.3244779 3.3347263 -0.57022053
-3.5786245 3.5896564 -0.57110965
-3.879077 3.8910351 -0.5728575
-4.2189431 4.2319489 -0.57288647
-4.6222501 4.6364989 -0.57278144
-5.1181474 5.133925 -0.57356411
-5.7349334 5.7526121 -0.57479423
-6.5310268 6.5511599 -0.57736111
-7.5612302 7.5845389 -0.57912242
-8.9924746 9.020196 -0.58262134
-11.068352 11.102472 -0.58659703
-14.391371 14.435735 -0.59310907
-20.588558 20.652027 -0.60599673
-36.133301 36.24469 -0.63806254
-1.5177563 1.4854499 -0.5690456
-1.5706813 1.5372485 -0.56935436
-1.6117336 1.5774268 -0.56427675
-1.6695354 1.6339984 -0.56392491
-1.7513705 1.7140915 -0.57005543
-1.8175871 1.7788987 -0.56936991
-1.8804387 1.8404124 -0.5661366
-1.9611356 1.9193916 -0.56661141
-2.0612171 2.0173428 -0.57057685
-2.1403234 2.0947654 -0.56665218
-2.2538834 2.2059081 -0.56961
-2.3700707 2.3196223 -0.57055408
-2.4777727 2.4250319 -0.56685573
-2.6221044 2.5662913 -0.568609
-2.7755349 2.7164559 -0.56886989
-2.9586577 2.8956809 -0.57129931
-3.1481688 3.0811579 -0.57062668
-3.3651412 3.2935121 -0.57020563
-3.6325436 3.5552225 -0.57269454
-3.9060791 3.8229358 -0.56985986
-4.2552862 4.1647096 -0.57082438
-4.6795716 4.5799642 -0.57286263
-5.2001843 5.0894952 -0.5757007
-5.8098602 5.6861939 -0.57525259
-6.6060371 6.4654236 -0.57692045
-7.6579137 7.4949102 -0.57942504
-9.104599 8.9108019 -0.58274263
-11.213455 10.974771 -0.58709073
-14.589622 14.279073 -0.59399837
-20.862192 20.418127 -0.60661495
-36.647919 35.867847 -0.63931334
-1.5368401 1.467568 -0.56939167
-1.5828636 1.511517 -0.56699008
-1.6457602 1.5715786 -0.56938088
-1.6911335 1.6149068 -0.56447011
-1.7593334 1.6800325 -0.5658803
-1.833552 1.7509059 -0.56758368
-1.9225901 1.8359306 -0.57198697
-1.9884745 1.8988453 -0.56772125
-2.0748262 1.9813048 -0.5675571
-2.1727676 2.0748315 -0.56844419
-2.275892 2.1733077 -0.56837529
-2.3878708 2.2802391 -0.56804633
-2.5193272 2.4057701 -0.56955153
-2.6528239 2.5332496 -0.56847262
-2.8047869 2.6783628 -0.5680722
-2.9839685 2.849468 -0.56937796
-3.1764464 3.0332701 -0.56894863
-3.4090009 3.2553422 -0.57081151
-3.6667428 3.5014668 -0.57125509
-3.9752614 3.7960792 -0.57309967
-4.3200645 4.1253405 -0.57266605
-4.7368145 4.5233054 -0.57301784
-5.2445483 5.0081534 -0.57375109
-5.8864803 5.621151 -0.57595164
-6.6948113 6.3930473 -0.57776427
-7.7544651 7.4049377 -0.57979715
-9.2138338 8.7985258 -0.5827654
-11.346293 10.834867 -0.58702576
-14.761879 14.096497 -0.5939095
-21.132706 20.180162 -0.60721946
-37.140995 35.466888 -0.64025849
-1.5605171 1.4539167 -0.5714969
-1.6060516 1.4963406 -0.56866229
-1.6591021 1.5457673 -0.56737787
-1.7278478 1.609817 -0.57007438
-1.7922294 1.6698006 -0.56981385
-1.8484938 1.7222215 -0.56561077
-1.9281136 1.7964023 -0.56701565
-2.0017397 1.8649992 -0.5649184
-2.1079254 1.963931 -0.56996214
-2.1902227 2.0406065 -0.56640333
-2.3060596 2.1485305 -0.56926835
-2.4145849 2.2496424 -0.56777775
-2.5479946 2.3739388 -0.56939018
-2.6918602 2.5079768 -0.57018608
-2.8342481 2.6406379 -0.56741983
-3.0236413 2.8170936 -0.5702951
-3.2270832 3.0066381 -0.57135314
-3.4414158 3.2063296 -0.56959444
-3.7019598 3.4490757 -0.57009113
-4.0091505 3.7352817 -0.57132047
-4.3734298 4.074677 -0.57305503
-4.806951 4.4785838 -0.57479692
-5.3085337 4.9459028 -0.57405436
-5.9628282 5.5555019 -0.57669419
-6.7776284 6.3146424 -0.57816666
-7.8437238 7.3079119 -0.57970822
-9.3277483 8.6905613 -0.58316731
-11.489701 10.704829 -0.58759063
-14.947747 13.926653 -0.5944528
-21.412777 19.95005 -0.60817218
-37.635799 35.064861 -0.64130694
-1.5563456 1.4146854 -0.56355602
-1.6147656 1.4677879 -0.56531441
-1.6798254 1.5269258 -0.56800091
-1.7373248 1.5791916 -0.56675148
-1.8040462 1.6398399 -0.56711704
-1.8806483 1.7094696 -0.56897455
-1.9467214 1.7695286 -0.56604612
-2.0332959 1.848223 -0.56736726
-2.1225791 1.9293796 -0.56746662
-2.2287188 2.0258584 -0.56987345
-2.328819 2.1168473 -0.56841809
-2.4433515 2.2209549 -0.56807733
-2.5808082 2.3459001 -0.57023358
-2.7207563 2.47311 -0.56982219
-2.8792675 2.6171935 -0.56994677
-3.0608411 2.7822402 -0.5708155
-3.2639325 2.9668458 -0.57137507
-3.484283 3.1671398 -0.57020056
-3.7511411 3.409708 -0.57116503
-4.0593877 3.689898 -0.57197046
-4.4241109 4.0214233 -0.57317305
-4.8614135 4.4189224 -0.57476848
-5.372653 4.8836284 -0.57445079
-6.0221725 5.4740276 -0.57588011
-6.845356 6.2222838 -0.57737362
-7.940001 7.2172933 -0.58022088
-9.4311628 8.5727282 -0.58299822
-11.621698 10.563878 -0.58765352
-15.136901 13.759124 -0.59520179
-21.663807 19.691944 -0.60837865
-38.117558 34.648056 -0.64220768
-1.5904043 1.4103241 -0.56956607
-1.6443213 1.4581361 -0.56934142
-1.6911488 1.4996613 -0.56555164
-1.75292 1.5544384 -0.56556082
-1.8232282 1.6167855 -0.56685454
-1.8978295 1.6829398 -0.56786877
-1.9673575 1.7445952 -0.56576604
-2.0586853 1.825582 -0.56814504
-2.1519766 1.9083101 -0.56900954
-2.2480888 1.9935395 -0.5685153
-2.3482456 2.0823555 -0.56686705
-2.4759572 2.1956065 -0.56933802
-2.6087813 2.313391 -0.57008588
-2.7572103 2.4450135 -0.5711171
-2.9024136 2.5737755 -0.56822079
-3.0904582 2.7405279 -0.5700112
-3.3007979 2.9270511 -0.57148468
-3.5311625 3.1313317 -0.57152796
-3.7879138 3.3590114 -0.57043201
-4.1076078 3.6425066 -0.57241046
-4.4698248 3.9637101 -0.57273775
-4.9061022 4.3505883 -0.57368374
-5.4378023 4.822084 -0.57503331
-6.0915546 5.401813 -0.57611954
-6.9374433 6.1519217 -0.57871652
-8.0274172 7.1184788 -0.58016855
-9.5373993 8.4574871 -0.58309257
-11.757903 10.426565 -0.58801335
-15.314426 13.580386 -0.59557098
-21.934637 19.450996 -0.60922146
-38.607029 34.235584 -0.64331305
-1.6042712 1.3877616 -0.56837791
-1.6496289 1.4269979 -0.56506085
-1.7186849 1.4867343 -0.56860352
-1.7805192 1.5402235 -0.56831187
-1.8374038 1.589431 -0.56514257
-1.907999 1.6504989 -0.56479627
-1.9978201 1.7281978 -0.56837219
-2.0757704 1.7956281 -0.56672376
-2.1766062 1.8828553 -0.56935704
-2.2699101 1.963567 -0.56788474
-2.3882267 2.0659158 -0.57034296
-2.5074344 2.1690354 -0.57039994
-2.6400774 2.2837772 -0.57074499
-2.7669981 2.3935688 -0.5670051
-2.9411938 2.5442555 -0.56964505
-3.1142986 2.6939983 -0.56825548
-3.3290002 2.8797243 -0.57019359
-3.569797 3.0880234 -0.57159197
-3.8341889 3.3167336 -0.57121569
-4.1508489 3.5906575 -0.57224017
-4.5221844 3.9118783 -0.57323992
-4.9612584 4.2916956 -0.573919
-5.4910488 4.7499866 -0.57444406
-6.1654968 5.3334122 -0.57686657
-7.0028605 6.0577669 -0.57791609
-8.1238708 7.0274878 -0.5808503
-9.6582365 8.3547783 -0.58415514
-11.889629 10.285026 -0.58823174
-15.483334 13.393731 -0.59568971
-22.180374 19.186949 -0.60944772
-39.091312 33.81562 -0.64440531
-1.6245253 1.3707259 -0.56953907
-1.6753927 1.4136463 -0.56788874
-1.7315867 1.4610612 -0.56688529
-1.8018475 1.5203451 -0.56910938
-1.868608 1.5766757 -0.56873411
-1.9387761 1.6358814 -0.5679093
-2.0083554 1.6945902 -0.56539845
-2.110369 1.7806664 -0.57014871
-2.2024894 1.8583947 -0.57010692
-2.2971716 1.9382849 -0.56869924
-2.4163234 2.0388217 -0.57102257
-2.5327334 2.1370449 -0.57013416
-2.6638193 2.2476511 -0.56985962
-2.8107228 2.371604 -0.56994611
-2.9707665 2.506644 -0.56935984
-3.1709285 2.6755347 -0.57254213
-3.3761179 2.8486676 -0.57222092
-3.6053195 3.0420611 -0.57124716
-3.8716605 3.2667916 -0.5707705
-4.1956315 3.5401487 -0.57236946
-4.5665641 3.8531303 -0.57281631
-5.0270829 4.2417026 -0.5754565
-5.5531845 4.6856112 -0.57487339
-6.2275009 5.2545795 -0.57657892
-7.0778584 5.9720855 -0.57800132
-8.2024679 6.9209981 -0.58034122
-9.7577324 8.233283 -0.58400548
-12.021668 10.143525 -0.5885489
-15.658934 13.212541 -0.59614992
-22.441021 18.935064 -0.61016577
-39.561176 33.380539 -0.64533567
-1.633814 1.3445234 -0.56695652
-1.6916143 1.3920892 -0.56754202
-1.7521356 1.4418944 -0.56776518
-1.8214796 1.49896 -0.56944537
-1.8918383 1.5568607 -0.56993479
-1.9521568 1.606499 -0.56599957
-2.0387433 1.6777539 -0.56810248
-2.1239908 1.7479073 -0.56797922
-2.2211952 1.8279002 -0.5690878
-2.3341839 1.9208825 -0.57197142
-2.4320693 2.001436 -0.56888467
-2.5570586 2.1042941 -0.56974208
-2.6887476 2.2126658 -0.5693289
-2.8250108 2.3248012 -0.56700379
-2.9984946 2.4675674 -0.56881583
-3.1808374 2.6176236 -0.56847656
-3.4083159 2.8048239 -0.57178932
-3.6446719 2.9993296 -0.57159549
-3.9180393 3.2242932 -0.57171965
-4.233541 3.4839308 -0.5716536
-4.6194944 3.8015454 -0.57354873
-5.0669589 4.1697798 -0.57410836
-5.6008911 4.6091714 -0.57390141
-6.2760978 5.1648231 -0.57515478
-7.1613851 5.8933573 -0.5788607
-8.2915716 6.8234277 -0.58066511
-9.8538532 8.1090851 -0.58374637
-12.149494 9.9982491 -0.58874345
-15.815736 13.015329 -0.59598148
-22.687456 18.670311 -0.61057794
-40.048141 32.957031 -0.64661968
-1.6441864 1.3194894 -0.56488287
-1.705829 1.3689586 -0.56662065
-1.7699405 1.4204092 -0.56783205
-1.8361028 1.4735057 -0.56830961
-1.8945775 1.5204327 -0.56508493
-1.9829623 1.5913631 -0.56921464
-2.058219 1.651758 -0.56782687
-2.143563 1.7202481 -0.56751364
-2.2381051 1.7961198 -0.56771874
-2.3460402 1.8827397 -0.5691607
-2.46136 1.9752859 -0.5700115
-2.5898664 2.0784144 -0.57131439
-2.7119031 2.1763513 -0.56852233
