# .PCD v0.7 - Point Cloud Data file format
VERSION 0.7
FIELDS x y z
SIZE 4 4 4
TYPE F F F
COUNT 1 1 1
WIDTH 1447
HEIGHT 1
VIEWPOINT 0 0 0 1 0 0 0
POINTS 1447
DATA ascii
0.21577731 -5.396574 -0.56311721
0.23448151 -5.8643646 -0.56266302
0.25723711 -6.4334798 -0.56330544
0.28424197 -7.10887 -0.56290132
0.3178983 -7.9506121 -0.56305021
0.36023092 -9.009347 -0.56275827
0.41623756 -10.410069 -0.56337041
0.49162838 -12.295588 -0.56288403
0.60011864 -15.00892 -0.56204206
0.77020943 -19.262878 -0.56093955
1.0772566 -26.942104 -0.56032282
1.7893341 -44.751106 -0.5583697
0.10922234 -2.088129 -0.56027651
0.11318997 -2.1639826 -0.561369
0.11725564 -2.2417109 -0.56166655
0.12271918 -2.3461635 -0.56713176
0.12597863 -2.4084783 -0.56102449
0.13153456 -2.5146973 -0.56374806
0.13655189 -2.6106195 -0.56247813
0.14244787 -2.7233398 -0.56309229
0.14905615 -2.8496778 -0.564529
0.15540431 -2.9710426 -0.56291926
0.16289297 -3.114212 -0.56324112
0.17122839 -3.2735698 -0.56397152
0.18042408 -3.4493744 -0.56474376
0.18976945 -3.6280406 -0.56303567
0.20126921 -3.8478947 -0.56440324
0.2130619 -4.073349 -0.5628863
0.22659537 -4.3320842 -0.56194139
0.24279499 -4.6417909 -0.56287742
0.26190233 -5.0070877 -0.56493372
0.28161481 -5.383954 -0.56211925
0.30688652 -5.8671021 -0.56324518
0.33631021 -6.4296284 -0.56328773
0.37155709 -7.1034842 -0.56279403
0.41596594 -7.9524984 -0.56350344
0.47087106 -9.002183 -0.56262994
0.54339677 -10.388741 -0.56253523
0.64138359 -12.262067 -0.56166804
0.78392684 -14.987229 -0.56154835
1.0068451 -19.249014 -0.56085396
1.4072905 -26.904789 -0.55986434
2.3355863 -44.652088 -0.55745041
0.13484897 -2.0860126 -0.56011117
0.14105134 -2.1819587 -0.56643933
0.14456502 -2.2363126 -0.56071699
0.15060145 -2.3296916 -0.56355512
0.15605253 -2.414016 -0.56271887
0.16216922 -2.5086365 -0.56279379
0.16921495 -2.6176286 -0.564394
0.17584504 -2.7201912 -0.56284583
0.18446898 -2.8535972 -0.56571203
0.19230694 -2.9748442 -0.56404489
0.20060229 -3.1031673 -0.56164724
0.21161821 -3.2735755 -0.56437814
0.22299317 -3.4495375 -0.56517667
0.235165 -3.6378264 -0.56496042
0.24770932 -3.8318777 -0.56245816
0.26347056 -4.0756922 -0.56361514
0.28101739 -4.3471289 -0.56429851
0.29967901 -4.6358099 -0.56255651
0.32267225 -4.991498 -0.5635798
0.34742561 -5.374414 -0.56152678
0.37935999 -5.8684154 -0.56377643
0.41524726 -6.4235644 -0.56316125
0.45941839 -7.1068583 -0.56346637
0.51224971 -7.9241199 -0.56189638
0.58101678 -8.987895 -0.56214088
0.67041928 -10.370885 -0.56197232
0.79245925 -12.258752 -0.56192011
0.96693671 -14.957788 -0.5608483
1.2419385 -19.211859 -0.56017399
1.7362572 -26.858601 -0.55930519
2.8769627 -44.504459 -0.55600703
0.16188197 -2.1023073 -0.56497824
0.16754779 -2.1758873 -0.5653553
0.17327616 -2.2502799 -0.56471062
0.17946537 -2.3306572 -0.56427985
0.18610647 -2.416903 -0.56388265
0.19331111 -2.5104673 -0.56369519
0.202792 -2.6335924 -0.56833065
0.20923762 -2.7172995 -0.56273729
0.21919321 -2.8465893 -0.56481439
0.22865993 -2.9695306 -0.56352794
0.23911023 -3.1052451 -0.56251293
0.25114676 -3.2615597 -0.56279641
0.26443475 -3.4341264 -0.56314188
0.27784956 -3.6083398 -0.56086928
0.29500952 -3.8311906 -0.5628472
0.31295577 -4.0642524 -0.56252283
0.33288833 -4.3231101 -0.56166953
0.35758314 -4.6438131 -0.56401867
0.38368735 -4.98282 -0.56309009
0.41438514 -5.3814821 -0.56275511
0.45094436 -5.8562646 -0.56309927
0.49231452 -6.3935251 -0.56101602
0.54612541 -7.0923491 -0.56280589
0.61022812 -7.92483 -0.56243628
0.69006228 -8.9616098 -0.56098527
0.79732716 -10.354623 -0.56157994
0.94244999 -12.239285 -0.56151646
1.150871 -14.945979 -0.56089377
1.47706 -19.182087 -0.55979311
2.0625007 -26.785013 -0.55825871
3.4186447 -44.396801 -0.5551452
0.18739323 -2.0965161 -0.56399852
0.19328126 -2.1623905 -0.56242341
0.20061335 -2.2444203 -0.56381655
0.20832582 -2.3307056 -0.56486911
0.21632813 -2.420234 -0.56523764
0.22372924 -2.5030358 -0.56260175
0.23291622 -2.605818 -0.56291246
0.24330498 -2.7220452 -0.56429702
0.25307357 -2.8313341 -0.56236243
0.26514518 -2.9663887 -0.5635078
0.27583659 -3.0860021 -0.55959922
0.29169378 -3.2634089 -0.56369185
0.30669242 -3.4312105 -0.56323957
0.32262278 -3.6094363 -0.56161386
0.34316173 -3.8392217 -0.56460428
0.36330485 -4.064579 -0.56314373
0.38581729 -4.316443 -0.56137729
0.41362387 -4.6275373 -0.56261706
0.44527712 -4.981667 -0.56353599
0.48132351 -5.3849468 -0.5636937
0.52225029 -5.8428268 -0.56238216
0.57209575 -6.4004879 -0.56220174
0.63427526 -7.096139 -0.56368291
0.7079066 -7.9199109 -0.56266242
0.80188191 -8.9712868 -0.56216574
0.92387944 -10.33617 -0.56115282
1.0915059 -12.211539 -0.56081694
1.3341258 -14.92592 -0.56071424
1.7124363 -19.158379 -0.55967349
2.3892872 -26.730846 -0.55769998
3.9557769 -44.256405 -0.55395603
0.21222837 -2.0849321 -0.5615418
0.22062691 -2.1674395 -0.5643996
0.22793011 -2.239186 -0.56316316
0.23760939 -2.3342752 -0.56639951
0.24590853 -2.4158061 -0.56486708
0.25511396 -2.5062404 -0.56398445
0.26409388 -2.5944588 -0.56111771
0.27654573 -2.7167861 -0.56386912
0.28801179 -2.8294287 -0.56264484
0.30138019 -2.9607599 -0.56309998
0.31545484 -3.0990293 -0.56262237
0.33043295 -3.2461741 -0.56137425
0.34817272 -3.42045 -0.56213349
0.36794773 -3.6147196 -0.56309736
0.39103383 -3.8415174 -0.5656063
0.4125205 -4.0526023 -0.5621447
0.4405036 -4.3275089 -0.56347829
0.47090006 -4.6261234 -0.5631066
0.50668311 -4.9776564 -0.56374449
0.54580802 -5.3620195 -0.56195378
0.59248275 -5.8205523 -0.56089699
0.64989132 -6.3845344 -0.5614599
0.71933192 -7.0667191 -0.56200606
0.80347365 -7.8933272 -0.56143332
0.91033256 -8.9431095 -0.56105912
1.0502211 -10.317375 -0.56079119
1.2427633 -12.20891 -0.56135553
1.5159173 -14.892376 -0.56011206
1.9453166 -19.110796 -0.55893993
2.7151756 -26.673893 -0.55716616
4.4902925 -44.112648 -0.55280596
0.23951866 -2.0967929 -0.56548685
0.24750432 -2.1667011 -0.56495714
0.25687847 -2.248764 -0.5663237
0.26296815 -2.3020744 -0.5593285
0.27493083 -2.4067981 -0.56350869
0.28546447 -2.4990115 -0.56310511
0.29758516 -2.6051183 -0.56417185
0.309688 -2.7110691 -0.56343031
0.32426956 -2.8387189 -0.56524241
0.33742881 -2.9539175 -0.56254524
0.35382843 -3.0974829 -0.56308895
0.37062114 -3.2444897 -0.56182855
0.39141262 -3.4265022 -0.56387651
0.41007972 -3.5899177 -0.55997694
0.43609846 -3.8176906 -0.56284517
0.4653084 -4.0734 -0.56578052
0.49265164 -4.3127685 -0.56230527
0.5288524 -4.6296768 -0.56428802
0.56722796 -4.9656239 -0.56312907
0.61122477 -5.350781 -0.56152117
0.66407508 -5.8134422 -0.56095636
0.72985864 -6.3893247 -0.56262791
0.80641228 -7.0594902 -0.5621773
0.9006986 -7.8848906 -0.56157851
1.0220287 -8.9470387 -0.56205153
1.1770201 -10.303863 -0.56080103
1.3913127 -12.179822 -0.56076241
1.6980723 -14.865255 -0.55983502
2.1796706 -19.081259 -0.55881774
3.0398545 -26.611479 -0.55660117
5.0231633 -43.973747 -0.55179763
0.2644937 -2.0874701 -0.56380701
0.27374974 -2.1605215 -0.56418091
0.28306225 -2.2340188 -0.56344426
0.2927275 -2.3103001 -0.56215912
0.30490729 -2.4064269 -0.56425697
0.31721917 -2.5035963 -0.56497443
0.32716227 -2.5820706 -0.56000942
0.3413192 -2.6938016 -0.56067157
0.35638133 -2.8126767 -0.5608871
0.37359083 -2.9484997 -0.5623458
0.39311534 -3.1025934 -0.56485403
0.41059247 -3.2405286 -0.56197447
0.43394455 -3.4248307 -0.56443691
0.45744252 -3.6102843 -0.56398863
0.48209447 -3.8048456 -0.5617829
0.51181495 -4.0394092 -0.56189096
0.5462662 -4.3113093 -0.56294829
0.58342159 -4.6045518 -0.56205755
0.62716591 -4.9497967 -0.56216627
0.67793256 -5.3504634 -0.56232017
0.7379185 -5.8238916 -0.56279761
0.80708826 -6.369802 -0.56174022
0.89175034 -7.037982 -0.56129533
0.99623883 -7.8626394 -0.56082386
1.129666 -8.9156895 -0.56091243
1.3035719 -10.288212 -0.56077921
1.5400622 -12.154669 -0.5604338
1.8795098 -14.8337 -0.55947465
2.4121504 -19.037472 -0.55836177
3.3624778 -26.537762 -0.5558821
5.5519624 -43.817883 -0.55065686
0.29126674 -2.0921514 -0.56599593
0.29968032 -2.1525855 -0.56302822
0.31133312 -2.2362869 -0.56493908
0.32440382 -2.330173 -0.56792241
0.33340067 -2.3947966 -0.56244862
0.3469359 -2.4920194 -0.56328201
0.35874411 -2.5768373 -0.55978882
0.37713346 -2.7089267 -0.56474209
0.39368138 -2.8277893 -0.56482345
0.40915838 -2.9389598 -0.56144345
0.43059185 -3.0929151 -0.5640133
0.45216748 -3.2478914 -0.56417292
0.47426984 -3.4066513 -0.56235939
0.50143319 -3.6017642 -0.56357825
0.53046435 -3.8102932 -0.56350774
0.56195617 -4.0364971 -0.56240457
0.59826195 -4.2972794 -0.56203437
0.64136517 -4.6068869 -0.5632627
0.68666321 -4.93226 -0.56109113
0.74142796 -5.3256321 -0.56062621
0.808411 -5.806767 -0.56206089
0.88685322 -6.3702126 -0.56269562
0.97750658 -7.0213704 -0.56088668
1.0916405 -7.841187 -0.5602088
1.2388858 -8.8988409 -0.56076849
1.4310212 -10.278938 -0.56119049
1.6870462 -12.117949 -0.55965495
2.0606146 -14.801269 -0.55916488
2.6413343 -18.972544 -0.55736798
3.682966 -26.454521 -0.55504513
6.0804477 -43.675488 -0.54976541
0.31708726 -2.0891919 -0.56620735
0.32646748 -2.1509955 -0.56361973
0.33985329 -2.2391903 -0.56668544
0.34949613 -2.3027241 -0.56223738
0.36358717 -2.395566 -0.56363672
0.37695226 -2.4836242 -0.56238961
0.39473018 -2.6007576 -0.56599694
0.40878984 -2.6933925 -0.562509
0.42805755 -2.8203416 -0.56434453
0.44606084 -2.9389598 -0.56244874
0.46831357 -3.0855765 -0.56368256
0.48957929 -3.2256896 -0.56131965
0.51556134 -3.3968778 -0.56175005
0.544698 -3.58885 -0.562563
0.57654893 -3.7987063 -0.56280005
0.61182201 -4.0311098 -0.56265962
0.65145528 -4.2922416 -0.56238073
0.70026988 -4.6138663 -0.56512606
0.7482717 -4.9301357 -0.56185371
0.81021667 -5.3382721 -0.56296307
0.87931329 -5.793529 -0.56178367
0.96275467 -6.3432989 -0.56132156
1.06531 -7.0190053 -0.56170171
1.1895318 -7.8374653 -0.56094551
1.349914 -8.8941746 -0.56147796
1.5542414 -10.240426 -0.56008887
1.8362927 -12.098777 -0.55976999
2.2396319 -14.756257 -0.55846262
2.8722961 -18.92469 -0.5569576
4.0033531 -26.376881 -0.55440712
6.6041679 -43.512863 -0.54869908
0.34145188 -2.0772319 -0.56406122
0.35170144 -2.1395853 -0.56172073
0.36275661 -2.2068398 -0.55958486
0.37766004 -2.2975051 -0.56205446
0.39133513 -2.380698 -0.56122833
0.4066526 -2.4738822 -0.56127352
0.42719051 -2.598825 -0.56667668
0.44368142 -2.6991479 -0.56480777
0.45977512 -2.7970545 -0.56077367
0.48240969 -2.9347525 -0.56273621
0.50495499 -3.0719073 -0.56227726
0.5288927 -3.2175331 -0.56098962
0.55810016 -3.3952177 -0.56256789
0.58833903 -3.5791767 -0.56213826
0.62315428 -3.7909763 -0.56274754
0.66122729 -4.0225945 -0.56256342
0.70433438 -4.2848372 -0.5625028
0.75125271 -4.5702662 -0.56087488
0.80853766 -4.9187613 -0.56164801
0.8749125 -5.3225541 -0.56239754
0.9495756 -5.7767692 -0.5612483
1.0410079 -6.3330002 -0.56150049
1.1522537 -7.0097671 -0.5620538
1.2850363 -7.8175535 -0.56060892
1.456058 -8.8579693 -0.56028026
1.6789154 -10.213728 -0.55971551
1.983337 -12.065685 -0.55932498
2.4187057 -14.714262 -0.5579567
3.1061959 -18.896627 -0.55721372
4.3234391 -26.30176 -0.5539037
7.1214314 -43.323421 -0.54737306
0.36617845 -2.0684235 -0.56284952
0.37768608 -2.1334264 -0.56128061
0.39225844 -2.2157409 -0.56302243
0.40580809 -2.2922785 -0.56195408
0.42035243 -2.3744347 -0.56092793
0.43937638 -2.481895 -0.56427455
0.45843312 -2.5895402 -0.56583852
0.4754276 -2.6855366 -0.56314027
0.49461707 -2.7939317 -0.56132454
0.51719302 -2.9214559 -0.56136364
0.54628384 -3.0857806 -0.56600338
0.57035589 -3.221756 -0.56290615
0.60045189 -3.3917584 -0.56317556
0.63307661 -3.576045 -0.56282645
0.66567278 -3.7601702 -0.55934733
0.71154594 -4.0192928 -0.56328273
0.75745243 -4.2786036 -0.5628646
0.80708724 -4.5589747 -0.56066471
0.87065583 -4.9180532 -0.56274706
0.93942881 -5.3065295 -0.56188238
1.0193789 -5.7581415 -0.56061393
1.1178578 -6.3144169 -0.5610292
1.2362381 -6.9831095 -0.56109279
1.3809385 -7.8004746 -0.56055951
1.564175 -8.8355179 -0.56003445
1.8036557 -10.188268 -0.55949336
2.1285975 -12.023758 -0.5585525
2.5978544 -14.674438 -0.55761576
3.3328333 -18.826097 -0.55630034
4.6399846 -26.209772 -0.55312622
7.638586 -43.1479 -0.54630089
0.3905471 -2.0583045 -0.56136036
0.40620252 -2.1408136 -0.5644955
0.42200407 -2.2240925 -0.56642032
0.43473598 -2.2911937 -0.56295609
0.45011064 -2.3722229 -0.56167048
0.46780559 -2.4654808 -0.56180805
0.48832712 -2.5736356 -0.56363267
0.50854248 -2.680177 -0.56328505
0.53029358 -2.7948117 -0.56276888
0.5529604 -2.914273 -0.56124753
0.57839525 -3.0483224 -0.56039482
0.60917228 -3.2105269 -0.56221044
0.64100796 -3.3783109 -0.56220895
0.67703688 -3.5681949 -0.56285864
0.71593606 -3.7732055 -0.56255347
0.75761688 -3.9928763 -0.56084377
0.80925906 -4.2650466 -0.56234771
0.86394674 -4.5532675 -0.5612269
0.92927897 -4.8975887 -0.56167048
1.0031525 -5.2869253 -0.56107032
1.0907297 -5.7484841 -0.56093711
1.1975147 -6.3112741 -0.56201577
1.3211882 -6.9630718 -0.56074578
1.4775959 -7.7873893 -0.56088245
1.6732154 -8.8183641 -0.56020892
1.9271924 -10.156902 -0.55903006
2.2758656 -11.994518 -0.55845201
2.7783637 -14.64284 -0.55767107
3.5609226 -18.767168 -0.55581093
4.9526191 -26.101841 -0.5520919
8.154624 -42.977402 -0.54537052
0.41710567 -2.0596683 -0.56308848
0.43276063 -2.1369724 -0.56484312
0.44679818 -2.2062898 -0.56324303
0.46132088 -2.278003 -0.56106645
0.48092431 -2.3748047 -0.56363934
0.49884593 -2.4633017 -0.56266671
0.51577395 -2.5468924 -0.5591225
0.54152197 -2.674036 -0.56335133
0.56598252 -2.7948222 -0.56412971
0.59129798 -2.9198298 -0.5636754
0.61863869 -3.0548384 -0.56294864
0.65147543 -3.2169862 -0.56470168
0.68650478 -3.3899612 -0.56550986
0.72098273 -3.5602133 -0.56295556
0.75968277 -3.7513142 -0.56063998
0.8060919 -3.9804826 -0.56045288
0.86053318 -4.2493134 -0.56162602
0.91917211 -4.5388727 -0.56080335
0.9924196 -4.900569 -0.56336915
1.0662373 -5.2650809 -0.56010115
1.1628481 -5.7421451 -0.56167138
1.2718127 -6.2802119 -0.56059992
1.4071127 -6.9483242 -0.56090909
1.5702602 -7.7539463 -0.55982214
1.7801148 -8.7902088 -0.5597685
2.0496886 -10.121365 -0.55841905
2.4210985 -11.955386 -0.55797398
2.9537194 -14.585469 -0.55682731
3.7867465 -18.698957 -0.5551278
5.272233 -26.034292 -0.55199265
8.6661692 -42.793549 -0.5443486
0.43929923 -2.0399899 -0.55914325
0.45830175 -2.1282327 -0.56397998
0.47343746 -2.198519 -0.56270289
0.49063599 -2.2783844 -0.56260377
0.51013839 -2.3689485 -0.56369561
0.52980661 -2.4602826 -0.56342262
0.55142802 -2.5606863 -0.56359673
0.56961918 -2.6451614 -0.55870157
0.60014153 -2.7868993 -0.56397742
0.62501496 -2.902405 -0.56175274
0.65554607 -3.0441833 -0.56242806
0.69098449 -3.2087502 -0.56470472
0.7213825 -3.3499105 -0.56026602
0.76601517 -3.5571728 -0.56392157
0.81009513 -3.7618685 -0.56366348
0.8559221 -3.9746771 -0.56107491
0.91441357 -4.2462959 -0.56267083
0.97419125 -4.5238876 -0.56038958
1.0512582 -4.8817668 -0.56265122
1.1340991 -5.2664576 -0.56168866
1.2307522 -5.7152891 -0.56048244
1.3462793 -6.2517667 -0.55949622
1.4914888 -6.9260817 -0.56055164
1.6668819 -7.740561 -0.5602932
1.8901322 -8.777276 -0.56038266
2.1745362 -10.097974 -0.55856156
2.5686574 -11.928169 -0.55813569
3.1331477 -14.549513 -0.55688334
4.014123 -18.640532 -0.55481666
5.5822406 -25.922455 -0.55103517
9.1743755 -42.603386 -0.54332358
0.46506339 -2.0375652 -0.5600037
0.48235857 -2.1133399 -0.56156272
0.50086826 -2.1944358 -0.56319159
0.51944321 -2.2758174 -0.56350458
0.53798509 -2.3570545 -0.562397
0.56117314 -2.4586473 -0.56458569
0.57922077 -2.5377188 -0.56006688
0.60837239 -2.6654396 -0.56452203
0.63076538 -2.7635491 -0.56077933
0.66050202 -2.8938334 -0.56162322
0.69670022 -3.0524273 -0.5654912
0.72389346 -3.1715677 -0.55968529
0.76199722 -3.3385103 -0.55988413
0.8055591 -3.5293665 -0.56104136
0.85601085 -3.7504089 -0.56348097
0.90708017 -3.9741571 -0.5625335
0.96665096 -4.2351522 -0.56272668
1.0299749 -4.5125914 -0.56051677
1.1113195 -4.8689837 -0.56271034
1.2002935 -5.2588024 -0.5624038
1.3009011 -5.6995902 -0.56046921
1.4292712 -6.2620134 -0.56194359
1.5712361 -6.8839993 -0.5586673
1.7576287 -7.700634 -0.55892527
1.9954357 -8.7425289 -0.55968851
2.2994649 -10.074561 -0.5587883
2.7161469 -11.900155 -0.55834544
3.3076065 -14.491494 -0.55617732
4.2414269 -18.582808 -0.554609
5.8951364 -25.828144 -0.55052966
9.6814547 -42.417004 -0.54242384
0.49176908 -2.0386901 -0.56193238
0.50702685 -2.1019433 -0.56014872
0.53026044 -2.198261 -0.56580395
0.54443866 -2.2570384 -0.56047004
0.56534499 -2.3437085 -0.56082892
0.58916485 -2.4424567 -0.56248885
0.61512643 -2.5500836 -0.56442243
0.63777483 -2.6439753 -0.56159461
0.6672526 -2.7661791 -0.56293535
0.69492161 -2.8808844 -0.56072611
0.72998321 -3.0262365 -0.56225955
0.76429814 -3.1684935 -0.56075889
0.80931985 -3.3551366 -0.56429875
0.8518979 -3.5316494 -0.56302685
0.89971203 -3.7298689 -0.56201464
0.95426524 -3.9560258 -0.56158555
1.0187885 -4.223515 -0.56280237
1.0855188 -4.500154 -0.56058753
1.1712132 -4.8554106 -0.56276357
1.2634943 -5.2379732 -0.56179535
1.373428 -5.6937175 -0.56150997
1.5018102 -6.2259421 -0.56032145
1.660323 -6.8830767 -0.56020689
1.8530531 -7.6820636 -0.55918896
2.0977221 -8.6963692 -0.55834252
2.4227455 -10.043795 -0.55869198
2.8575568 -11.84636 -0.55742794
3.483325 -14.440559 -0.55582434
4.4655662 -18.512564 -0.55410951
6.2067857 -25.731007 -0.55004442
10.178651 -42.196869 -0.54116845
0.51408452 -2.0218151 -0.55898118
0.53417277 -2.1008191 -0.56155717
0.55378604 -2.1779552 -0.56228763
0.57558513 -2.2636874 -0.56383604
0.59627938 -2.3450749 -0.56286788
0.61906272 -2.4346781 -0.56240809
0.64378864 -2.5319214 -0.56211215
0.67347652 -2.6486793 -0.56431007
0.69434214 -2.7307403 -0.55741876
0.73231041 -2.8800638 -0.56227654
0.76885098 -3.0237725 -0.5635156
0.81004572 -3.1857848 -0.56553912
0.84683764 -3.3304818 -0.56186098
0.89100665 -3.5041916 -0.56035376
0.94994169 -3.7359743 -0.56465197
1.0036211 -3.947087 -0.56202602
1.0657828 -4.1915593 -0.56024814
1.1411037 -4.4877853 -0.56075221
1.222162 -4.8065743 -0.55880284
1.3270974 -5.2192693 -0.56149703
1.4404465 -5.6650538 -0.56038761
1.5757539 -6.197197 -0.55943602
1.7437984 -6.8580899 -0.55987614
1.950083 -7.6693759 -0.55996853
2.2036235 -8.6665115 -0.55812305
2.5423234 -9.9985647 -0.55787283
3.0020044 -11.80642 -0.55724341
3.660408 -14.39582 -0.55579275
4.6823807 -18.415081 -0.55287325
6.516685 -25.629116 -0.54953778
10.675117 -41.983589 -0.54007578
0.54439127 -2.0358584 -0.56467187
0.56212109 -2.1021626 -0.56372124
0.58285761 -2.1797109 -0.56454861
0.6000281 -2.2439234 -0.56070858
0.62480253 -2.3365722 -0.56262857
0.64913213 -2.4275577 -0.56256455
0.6759336 -2.5277867 -0.56299692
0.70057815 -2.6199501 -0.5599823
0.73346299 -2.7429292 -0.56170541
0.76701182 -2.868392 -0.56179672
0.80298603 -3.0029244 -0.56142807
0.84520251 -3.1608012 -0.5629065
0.88545275 -3.3113248 -0.56042361
0.9379465 -3.5076358 -0.56270629
0.99242651 -3.7113745 -0.56273586
1.051327 -3.9316442 -0.56162542
1.1187637 -4.1838374 -0.56101233
1.1983927 -4.481626 -0.56178141
1.2869904 -4.8129539 -0.56134194
1.3906007 -5.2004251 -0.5612669
1.5081401 -5.639987 -0.55970019
1.653173 -6.1823659 -0.55988991
1.8297889 -6.8428559 -0.56042695
2.0406492 -7.6314096 -0.55898637
2.3124027 -8.6476851 -0.55869961
2.666317 -9.9712181 -0.55813408
3.1411257 -11.746859 -0.5562132
3.8323548 -14.331846 -0.55510026
4.9131856 -18.373827 -0.55340666
6.8211446 -25.509014 -0.54871953
11.171663 -41.778637 -0.53916568
0.56870425 -2.0265954 -0.56399965
0.58720738 -2.0925319 -0.56303239
0.60765815 -2.1654088 -0.56273711
0.62775767 -2.2370341 -0.56087357
0.65410823 -2.330935 -0.56316537
0.67552537 -2.4072559 -0.55974245
0.7068978 -2.5190525 -0.56294501
0.73814225 -2.630393 -0.56411165
0.77039915 -2.7453415 -0.56409669
0.80161881 -2.8565938 -0.56137413
0.84410459 -3.0079932 -0.5642736
0.88168377 -3.1419077 -0.5614301
0.93037373 -3.3154159 -0.56300962
0.97789389 -3.4847555 -0.56092238
1.0347239 -3.6872709 -0.56096792
1.0988487 -3.9157817 -0.56124723
1.1708162 -4.1722403 -0.56134534
1.2531686 -4.4657054 -0.56167489
1.3485162 -4.80548 -0.56236166
1.4529912 -5.1777797 -0.56070876
1.580633 -5.6326356 -0.560857
1.7322493 -6.1729245 -0.56092149
1.9103522 -6.8076 -0.55942106
2.1354733 -7.6098256 -0.55928653
2.4167957 -8.6123276 -0.55829298
2.7847948 -9.9237041 -0.55734915
3.2856464 -11.708504 -0.5562681
4.0103235 -14.290914 -0.55538285
5.1276274 -18.272461 -0.55221093
7.12679 -25.39654 -0.54814374
11.663943 -41.564827 -0.53821665
0.59431994 -2.0219693 -0.56470329
0.61556464 -2.0942471 -0.5654878
0.63140994 -2.1481552 -0.56022865
0.65815115 -2.2391329 -0.56338632
0.6778568 -2.3061748 -0.55915475
0.70509601 -2.3988469 -0.55976087
0.73930448 -2.5152292 -0.56407958
0.76344687 -2.5973656 -0.55899966
0.7962898 -2.7091022 -0.55862015
0.83285099 -2.8334892 -0.55880392
0.87555742 -2.9787831 -0.56077129
0.91981429 -3.1293519 -0.56116509
0.96839279 -3.2946236 -0.56145847
1.0216724 -3.4758892 -0.56147498
1.0803854 -3.6756399 -0.56117713
1.1502662 -3.9133854 -0.56288844
1.2203497 -4.1518202 -0.56057459
1.3065757 -4.4451742 -0.56107092
1.4035534 -4.7751079 -0.5607847
1.5198102 -5.1706314 -0.56191599
1.6497965 -5.6128654 -0.56086606
1.8064357 -6.1457763 -0.56043065
1.9887182 -6.7659297 -0.55796415
2.2304192 -7.5882339 -0.55967301
2.5195441 -8.5718822 -0.55763739
2.9047487 -9.8824091 -0.55699378
3.4252059 -11.653086 -0.55559415
4.1807575 -14.22359 -0.55472243
5.3492064 -18.198837 -0.55193204
7.4320216 -25.284899 -0.54766518
12.147559 -41.327892 -0.53704226
0.61866134 -2.0129638 -0.56427014
0.64029402 -2.0833509 -0.56462896
0.6644128 -2.1618273 -0.56588215
0.68566781 -2.2309854 -0.56341511
0.70608068 -2.2974038 -0.55909091
0.73554814 -2.3932831 -0.56053078
0.76443893 -2.4872863 -0.55987871
0.79576278 -2.589206 -0.55930722
0.8334474 -2.711822 -0.56125176
0.87323302 -2.8412743 -0.56241435
0.91554356 -2.9789417 -0.56287795
0.95596713 -3.1104693 -0.55984467
1.0104841 -3.2878537 -0.56237972
1.0677667 -3.4742362 -0.5632863
1.1219126 -3.650413 -0.55938959
1.1915075 -3.8768568 -0.55969942
1.2710003 -4.1355057 -0.56043959
1.3622906 -4.4325409 -0.56154823
1.4590937 -4.7475128 -0.55960876
1.5739548 -5.1212411 -0.5586096
1.7102003 -5.564549 -0.55809718
1.8770041 -6.1072855 -0.55898315
2.0757442 -6.7539339 -0.55903751
2.3188469 -7.5449276 -0.55853975
2.6277606 -8.5500526 -0.55827707
3.0246012 -9.8412685 -0.5567292
3.5711324 -11.61954 -0.55604643
4.3507571 -14.156238 -0.55414027
5.5704684 -18.124863 -0.5517242
7.7336359 -25.163248 -0.54704869
12.63518 -41.111603 -0.53621
0.64030284 -1.9956608 -0.56158441
0.66658676 -2.0775809 -0.56524384
0.68247163 -2.12709 -0.55894375
0.71091008 -2.2157254 -0.56172651
0.73826796 -2.300993 -0.56213111
0.76690412 -2.3902447 -0.56198525
0.7941618 -2.4751997 -0.55931389
0.83383518 -2.5988517 -0.56356305
0.86764336 -2.7042232 -0.56184471
0.9060334 -2.823875 -0.56113315
0.9486571 -2.9567223 -0.56084132
0.99292827 -3.0947042 -0.55916244
1.053098 -3.282238 -0.56359154
1.1061627 -3.4476268 -0.56113493
1.1726391 -3.6548171 -0.5622316
1.2404667 -3.8662186 -0.56032336
1.3218831 -4.1199727 -0.56049502
1.4136761 -4.4060683 -0.56035435
1.5156691 -4.7239542 -0.55898637
1.6411414 -5.1150193 -0.56008977
1.7836499 -5.5591822 -0.55971634
1.9528848 -6.0866442 -0.55924952
2.1595287 -6.730701 -0.5592702
2.4094031 -7.5094948 -0.5580678
2.7322009 -8.5155735 -0.55817729
3.1477711 -9.8107996 -0.55715311
3.712677 -11.571467 -0.55588859
4.5248156 -14.102696 -0.5541805
5.7869515 -18.036451 -0.55115741
8.0325575 -25.035435 -0.54637605
13.114265 -40.873825 -0.53517157
0.66724944 -1.9949838 -0.5636602
0.68784994 -2.0565765 -0.56178796
0.71313494 -2.1321752 -0.56254178
0.7380802 -2.206758 -0.56171155
0.76739568 -2.2944074 -0.56278503
0.79822069 -2.38657 -0.56338644
0.82653856 -2.4712365 -0.56067258
0.86443692 -2.5845473 -0.56272364
0.90115249 -2.6943219 -0.5620473
0.94140387 -2.8146677 -0.56156141
0.98629737 -2.9488933 -0.56161427
1.03378 -3.0908599 -0.56072223
1.0873654 -3.2510726 -0.56049365
1.1475877 -3.431129 -0.56070411
1.2140149 -3.6297371 -0.56062752
1.2881455 -3.8513777 -0.5604257
1.3731391 -4.1054969 -0.56078035
1.4688051 -4.3915248 -0.56075931
1.5777233 -4.717175 -0.5604375
1.7003406 -5.0837841 -0.55891675
1.8479182 -5.5250211 -0.55852246
2.025893 -6.0571408 -0.55878538
2.2439916 -6.7092257 -0.55973625
2.502506 -7.4821482 -0.55828011
2.8335512 -8.4719276 -0.55755806
3.2660649 -9.7650833 -0.55679554
3.8451207 -11.496381 -0.55451089
4.6935306 -14.03301 -0.55366814
5.9979181 -17.932949 -0.55020672
8.3283062 -24.900488 -0.54562467
13.592806 -40.640617 -0.53426617
0.69519514 -1.9965852 -0.56648511
0.71509355 -2.0537331 -0.56337065
0.73936582 -2.1234426 -0.56259388
0.76599485 -2.1999204 -0.56232607
0.79619926 -2.2866669 -0.5632453
0.82667321 -2.3741875 -0.56282043
0.86076987 -2.4721124 -0.5632301
0.89298767 -2.564641 -0.56073791
0.93639398 -2.6893029 -0.56335968
0.9758606 -2.8026505 -0.56151539
1.0285808 -2.9540617 -0.56496471
1.0723861 -3.0798695 -0.56107825
1.1304401 -3.2465992 -0.56207639
1.1936488 -3.4281335 -0.56257063
1.2614291 -3.6227968 -0.56190878
1.3387671 -3.8449097 -0.56183749
1.4301913 -4.1074781 -0.56341052
1.5230249 -4.3740945 -0.56088263
1.6340277 -4.6928921 -0.5598973
1.7656897 -5.0710225 -0.55985838
1.9226823 -5.5219016 -0.56055474
2.1027162 -6.0389552 -0.55945069
2.3167598 -6.6536837 -0.557437
2.5905395 -7.4399729 -0.55746794
2.9339225 -8.4261618 -0.55687833
3.3827627 -9.7152205 -0.5562821
3.9915857 -11.463747 -0.55526233
4.8593225 -13.955869 -0.55294025
6.2172604 -17.855835 -0.55014479
8.6218071 -24.761642 -0.54486418
14.064391 -40.392624 -0.53323925
0.71167028 -1.9657303 -0.56017125
0.73922461 -2.0418391 -0.56255889
0.7642318 -2.1109126 -0.56172144
0.79173839 -2.1868894 -0.5614413
0.822442 -2.271697 -0.56200647
0.85296106 -2.3559947 -0.56095171
0.88288105 -2.4386377 -0.55803472
0.92425466 -2.5529172 -0.56061709
0.96589369 -2.6679301 -0.56132805
1.0106438 -2.7915361 -0.56173605
1.0577555 -2.9216647 -0.56121385
1.1106602 -3.067795 -0.56132412
1.1669288 -3.2232165 -0.56047004
1.231294 -3.4010019 -0.56056046
1.3111962 -3.6217024 -0.56419718
1.3781539 -3.8066492 -0.55868077
1.476083 -4.0771427 -0.56169671
1.5737274 -4.3468494 -0.5598281
1.6900361 -4.6681099 -0.55937773
1.8274571 -5.0476856 -0.55972052
1.9860792 -5.4858217 -0.55932897
2.1747782 -6.0070338 -0.55892861
2.4026165 -6.6363544 -0.5584181
2.6805875 -7.4041486 -0.55721128
3.042443 -8.4036427 -0.55782032
3.5045485 -9.6800413 -0.55669314
4.1309476 -11.410241 -0.55508906
5.0257649 -13.881847 -0.5524143
6.4354992 -17.775726 -0.55007321
8.9172344 -24.630617 -0.54435265
14.540422 -40.162628 -0.5325231
0.73816043 -1.9631456 -0.56197882
0.76212388 -2.0268767 -0.56097609
0.78523552 -2.0883424 -0.55824268
0.82692969 -2.1992285 -0.56717676
0.8463794 -2.2509551 -0.55940747
0.88720787 -2.359539 -0.56435037
0.92293149 -2.4545462 -0.56422937
0.95497721 -2.5397723 -0.56026679
0.99898291 -2.656806 -0.56152964
1.0462852 -2.7826066 -0.56248552
1.0932598 -2.9075365 -0.56103987
1.1521879 -3.0642562 -0.5632264
1.2085209 -3.2140744 -0.56142199
1.2684406 -3.3734314 -0.55854481
1.3511147 -3.5933042 -0.56231886
1.4274316 -3.7962697 -0.55969119
1.522836 -4.0499988 -0.56049454
1.6277368 -4.3289838 -0.56006259
1.7517244 -4.65873 -0.56079245
1.8884447 -5.0223393 -0.55944258
2.055933 -5.4677758 -0.56002432
2.2508605 -5.9861879 -0.55952191
2.4785929 -6.5918446 -0.55719531
2.7724087 -7.373251 -0.55740947
3.1441886 -8.3620033 -0.55758065
3.6198375 -9.626997 -0.55616039
4.2701659 -11.356552 -0.5549897
5.1971292 -13.821822 -0.55252695
6.6471858 -17.678263 -0.54954493
9.2114687 -24.498001 -0.54388392
14.997501 -39.886017 -0.53126049
0.75985104 -1.9477907 -0.56021565
0.78558815 -2.0137649 -0.55997831
0.81755561 -2.0957098 -0.56285679
0.8463822 -2.1696036 -0.56217808
0.87828439 -2.2513812 -0.56215483
0.91012245 -2.3329942 -0.56063581
0.94858611 -2.4315915 -0.56159151
0.98795098 -2.5324988 -0.56129974
1.0353901 -2.6541035 -0.56360674
1.0791261 -2.7662158 -0.5618121
1.1292492 -2.8947005 -0.56120002
1.189095 -3.0481083 -0.56290334
1.2503976 -3.2052505 -0.56252384
1.3145281 -3.3696418 -0.56055129
1.3965635 -3.5799301 -0.5628708
1.4765173 -3.7848823 -0.56064671
1.5726591 -4.0313311 -0.56054497
1.6804971 -4.3077607 -0.55994803
1.8080943 -4.6348414 -0.56055087
1.9483591 -4.9943948 -0.55895627
2.1204016 -5.4354057 -0.55933714
2.3213677 -5.9505596 -0.55881763
2.5646002 -6.5740576 -0.55831522
2.8625658 -7.3378582 -0.55735272
3.2414367 -8.3090506 -0.55666536
3.7357123 -9.5760689 -0.55582994
4.4037495 -11.288506 -0.55426866
5.3607621 -13.741697 -0.55191731
6.8548574 -17.571638 -0.54880923
9.5024996 -24.358564 -0.5433414
15.458323 -39.625637 -0.53028405
0.78756994 -1.9477659 -0.56295133
0.81535518 -2.0164826 -0.56347942
0.84236372 -2.0832782 -0.56225747
0.87140584 -2.1551032 -0.5611549
0.9081502 -2.2459769 -0.56355119
0.93776339 -2.3192143 -0.56005311
0.97392988 -2.408659 -0.55901879
1.0236592 -2.5316465 -0.56385803
1.0638798 -2.6311173 -0.56146115
1.1097896 -2.7446582 -0.56016308
1.1601331 -2.8691645 -0.55897272
1.2218994 -3.0219209 -0.56079954
1.2910894 -3.193037 -0.56312406
1.3611733 -3.3663638 -0.56274778
1.4397358 -3.5606592 -0.56258184
1.5230222 -3.7666376 -0.56067586
1.6199057 -4.0062437 -0.55978405
1.7353379 -4.2917228 -0.56059462
1.8608277 -4.6020761 -0.55931318
2.0157948 -4.9853301 -0.56067348
2.1887636 -5.4131055 -0.55976957
2.3930926 -5.9184384 -0.55852234
2.6464946 -6.5451355 -0.55858046
2.9505413 -7.2970839 -0.55696929
3.3379815 -8.2552748 -0.55577052
3.8524208 -9.5275526 -0.55572146
4.5323892 -11.209206 -0.55306971
5.5292592 -13.674599 -0.55191141
7.0673814 -17.47858 -0.54857552
9.7844343 -24.198215 -0.54240733
15.915941 -39.362251 -0.52933842
0.81302547 -1.9416757 -0.56403792
0.8382293 -2.0018675 -0.56223321
0.86098933 -2.0562234 -0.55777079
0.8978579 -2.1442733 -0.5611673
0.92893744 -2.2184978 -0.55948001
0.97351021 -2.3249469 -0.56428546
1.0115402 -2.4157703 -0.5635134
1.0519027 -2.5121646 -0.56235731
1.1000929 -2.6272528 -0.56348044
1.1413335 -2.725744 -0.55912483
1.1963725 -2.8571887 -0.55946338
1.2600158 -3.0091825 -0.56126839
1.3216088 -3.1562793 -0.55946523
1.395324 -3.3323269 -0.55988377
1.4723958 -3.5163903 -0.55840582
1.5638919 -3.7349021 -0.55877221
1.6696603 -3.9874995 -0.55999136
1.7839217 -4.2603798 -0.55932355
1.9159918 -4.5757909 -0.5589397
2.0722082 -4.9488683 -0.55939621
2.2495863 -5.3724847 -0.55838734
2.4653969 -5.8878856 -0.55845773
2.729116 -6.5177021 -0.55906093
3.0361989 -7.25108 -0.55626559
3.4418116 -8.2197685 -0.55618733
3.9699879 -9.4811649 -0.55582112
4.6765966 -11.168695 -0.55386639
5.6885972 -13.585565 -0.55109948
7.2731414 -17.369789 -0.54792655
10.073892 -24.058569 -0.54201281
16.367113 -39.0881 -0.52831823
0.83008581 -1.9159473 -0.55948687
0.86471659 -1.9958798 -0.56349522
0.88883477 -2.0515478 -0.55942494
0.92561764 -2.1364474 -0.56205541
0.95654422 -2.20783 -0.55971372
0.99480784 -2.2961476 -0.56022227
1.0366124 -2.392638 -0.56104839
1.0841898 -2.5024526 -0.56312507
1.1228228 -2.5916228 -0.55875772
1.1773103 -2.7173872 -0.56033784
1.2329215 -2.8457451 -0.56014884
1.3001053 -3.0008144 -0.56264693
1.3657653 -3.1523664 -0.56170595
1.4406526 -3.3252158 -0.56162298
1.5191432 -3.5063827 -0.55974066
1.6187878 -3.7363753 -0.56192809
1.7241442 -3.9795518 -0.56181008
1.8362079 -4.2382097 -0.55933493
1.9708352 -4.5489469 -0.55857873
2.1340315 -4.9256258 -0.55969286
2.3172829 -5.3485942 -0.55882359
2.5362101 -5.8539066 -0.55815065
2.8036141 -6.4711103 -0.55797935
3.1309915 -7.2267408 -0.55730975
3.5434811 -8.1788206 -0.55632287
4.0797834 -9.4166775 -0.55493969
4.8122883 -11.107395 -0.5537191
5.8520336 -13.507264 -0.55080062
7.4827504 -17.271173 -0.5476768
10.354606 -23.899792 -0.54126334
16.81912 -38.820744 -0.52746004
0.85423148 -1.9070491 -0.5599134
0.88342178 -1.9722157 -0.55983877
0.92305166 -2.0606883 -0.56496978
0.95140356 -2.1239831 -0.56181163
0.98662341 -2.2026105 -0.56142366
1.0253911 -2.2891583 -0.56155086
1.0700634 -2.3888879 -0.56321186
1.1144392 -2.487956 -0.56290406
1.1671031 -2.6055264 -0.56480682
1.207821 -2.6964283 -0.55903631
1.274634 -2.8455865 -0.56316018
1.3292316 -2.9674742 -0.55941802
1.4001431 -3.1257825 -0.55999452
1.4726014 -3.2875435 -0.55827636
1.5625269 -3.4882998 -0.55987883
1.6525165 -3.689199 -0.55784696
1.7608339 -3.9310148 -0.55797249
1.890551 -4.2206049 -0.56003726
2.0273252 -4.5259495 -0.55877364
2.1924098 -4.8944964 -0.55917668
2.385741 -5.3261032 -0.55949646
2.609853 -5.8264275 -0.55854827
2.8815639 -6.4330149 -0.55770761
3.2175474 -7.1830893 -0.55695248
3.6406362 -8.1276236 -0.55584347
4.1982002 -9.3723707 -0.55532885
4.9460778 -11.041986 -0.5534485
6.0135331 -13.425053 -0.55042189
7.6821961 -17.150299 -0.54679799
10.649796 -23.775385 -0.54137069
17.277294 -38.571098 -0.52691483
0.88362187 -1.9093814 -0.56374568
0.90935671 -1.9649907 -0.56091958
0.9469493 -2.0462229 -0.56415367
0.97745126 -2.1121333 -0.56181395
1.0105639 -2.1836851 -0.55972481
1.0542464 -2.2780769 -0.56197006
1.0996944 -2.3762834 -0.56338567
1.1437649 -2.4715135 -0.56232345
1.1904126 -2.5723128 -0.56073767
1.2487794 -2.6984351 -0.5625934
1.3012455 -2.8118069 -0.55959928
1.3682106 -2.9565089 -0.56048018
1.4462706 -3.1251855 -0.56303114
1.5224425 -3.289782 -0.56179309
1.6094609 -3.4778168 -0.56133032
1.6997259 -3.6728663 -0.55849546
1.8196002 -3.9318976 -0.56123126
1.9394608 -4.1908994 -0.55921781
2.0920165 -4.5205503 -0.56124055
2.2500896 -4.8621244 -0.55859703
2.448302 -5.2904334 -0.55886966
2.6719303 -5.7736621 -0.55659753
2.9574587 -6.3906484 -0.5571453
3.3017468 -7.1346059 -0.55629921
3.7402589 -8.0821686 -0.55583817
4.3069863 -9.3067856 -0.55453897
5.0739365 -10.964057 -0.55262786
6.1800895 -13.354297 -0.55059499
7.8971434 -17.064606 -0.54712057
10.92042 -23.597477 -0.54033643
17.712421 -38.274029 -0.52579224
0.89747673 -1.878374 -0.55780685
0.94085914 -1.9691712 -0.56537271
0.97094244 -2.0321338 -0.56351829
1.0033665 -2.0999959 -0.5618248
1.0413709 -2.1795371 -0.56190133
1.0787591 -2.2577887 -0.56019515
1.1245279 -2.3535807 -0.56123906
1.1707271 -2.4502733 -0.56072384
1.2223266 -2.5582683 -0.56091017
1.2822968 -2.6837828 -0.56278348
1.3425937 -2.8099813 -0.56247908
1.4019088 -2.9341247 -0.55946237
1.4799235 -3.0974059 -0.56126243
1.5619818 -3.2691498 -0.56150723
1.6466951 -3.4464505 -0.5594936
1.7469667 -3.6563139 -0.55920267
1.8621681 -3.8974245 -0.55953676
1.9918689 -4.1688819 -0.55950582
2.1383986 -4.4755611 -0.55887735
2.3186178 -4.8527508 -0.56075329
2.5103204 -5.2539754 -0.55823696
2.7462537 -5.7477717 -0.55731493
3.0374503 -6.3572316 -0.55744606
3.3889079 -7.0928144 -0.55624777
3.8384047 -8.0335894 -0.5557012
4.4179163 -9.2464781 -0.55414057
5.2110448 -10.906456 -0.55291253
6.3443007 -13.278304 -0.55063671
8.0892696 -16.930437 -0.54596674
11.193154 -23.426712 -0.53953707
18.155327 -37.998192 -0.52503002
0.92445636 -1.875213 -0.56020159
0.96210498 -1.9515814 -0.56367654
0.99434918 -2.0169871 -0.56266606
1.0273955 -2.0840199 -0.56088811
1.0674312 -2.1652303 -0.56155437
1.1046183 -2.2406626 -0.55927372
1.1537689 -2.3403618 -0.56142759
1.2016046 -2.4373944 -0.56111544
1.2518952 -2.5394063 -0.56010741
1.3068529 -2.6508851 -0.55921239
1.3724499 -2.7839453 -0.56060314
1.4418046 -2.9246278 -0.56098962
1.51607 -3.0752716 -0.56058729
1.6006414 -3.2468202 -0.56101012
1.6946024 -3.4374154 -0.56136715
1.794367 -3.6397829 -0.56000662
1.9063845 -3.8670046 -0.55849266
2.0431764 -4.1444802 -0.55956042
2.1951485 -4.4527483 -0.55935699
2.3735943 -4.8147163 -0.55968863
2.576046 -5.2253795 -0.55852205
2.8227191 -5.7257428 -0.55850226
3.110256 -6.3089972 -0.55652809
3.4800253 -7.0590558 -0.55691409
3.9297974 -7.971396 -0.55469978
4.5303211 -9.1895275 -0.55402416
5.3436718 -10.839368 -0.55280083
6.498086 -13.181039 -0.54987514
8.298337 -16.832758 -0.54606611
11.478225 -23.282999 -0.53943712
18.590672 -37.710239 -0.52417034
0.94942164 -1.8675963 -0.56137139
0.98614091 -1.9398264 -0.56374103
1.0144433 -1.9954996 -0.56010932
1.0529006 -2.0711484 -0.560866
1.0941484 -2.1522868 -0.56164432
1.1396886 -2.2418683 -0.56303006
1.1750273 -2.3113825 -0.55789965
1.2309115 -2.4213116 -0.56085509
1.2896072 -2.5367713 -0.56298137
1.3427078 -2.6412249 -0.56061506
1.4048167 -2.7633989 -0.55990195
1.4747307 -2.9009259 -0.55987924
1.5524307 -3.0537684 -0.56010497
1.6372761 -3.2206669 -0.55992746
1.7373343 -3.41749 -0.5615595
1.836382 -3.6123259 -0.55921417
1.9579598 -3.8514798 -0.55968541
2.0875754 -4.1064458 -0.55784887
2.2496119 -4.4251852 -0.55932719
2.4230113 -4.7662773 -0.55747914
2.6366303 -5.1864848 -0.55778795
2.8864298 -5.6778626 -0.55725181
3.1838574 -6.262929 -0.55587578
3.5589843 -7.0008368 -0.55573159
4.0265279 -7.9205365 -0.55456412
4.6371741 -9.1217318 -0.55333269
5.4706545 -10.761261 -0.55220634
6.6505203 -13.082162 -0.54912031
8.5016518 -16.723501 -0.54587185
11.739816 -23.093256 -0.53834492
19.019279 -37.412601 -0.52324444
0.97214961 -1.8554697 -0.56127709
1.0045277 -1.9172673 -0.56073242
1.0526806 -2.0091734 -0.56753772
1.0800819 -2.0614722 -0.56179971
1.1164585 -2.1309013 -0.55960399
1.1629142 -2.2195678 -0.56097835
1.2113658 -2.3120439 -0.56161219
1.2589184 -2.4028039 -0.56011146
1.3156669 -2.5111156 -0.5608356
1.3838477 -2.6412473 -0.56418902
1.4423305 -2.7528691 -0.56131947
1.51279 -2.8873498 -0.56080687
1.5951829 -3.0446069 -0.56197983
1.6723996 -3.1919849 -0.558474
1.7711638 -3.3804886 -0.55901587
1.8791015 -3.5865014 -0.55875111
2.0033302 -3.8236077 -0.55917251
2.1442242 -4.0925212 -0.55949676
2.3031991 -4.3959451 -0.5591687
2.4929729 -4.758152 -0.56007189
2.7038252 -5.1605902 -0.55853647
2.9518411 -5.6339598 -0.5564633
3.2688062 -6.2389274 -0.55727094
3.6556597 -6.9772859 -0.55738825
4.1305737 -7.883719 -0.55550051
4.7478642 -9.0618954 -0.55320269
5.6090755 -10.705625 -0.55284888
6.8092031 -12.99622 -0.54898596
8.6983929 -16.601976 -0.54535514
12.018179 -22.938204 -0.53813475
19.446472 -37.116035 -0.52240151
0.99819398 -1.8494978 -0.56314099
1.0262107 -1.9014084 -0.55974245
1.0702614 -1.9830275 -0.56382704
1.1052281 -2.0478153 -0.56173921
1.1455383 -2.122504 -0.56105548
1.1931742 -2.2107658 -0.56241941
1.2366959 -2.2914047 -0.56025028
1.2940745 -2.3977182 -0.56259274
1.3474243 -2.496567 -0.56124431
1.4075561 -2.6079819 -0.56073803
1.4818808 -2.7456942 -0.56352937
1.5451108 -2.8628495 -0.55969614
1.6319544 -3.023757 -0.56179291
1.7199446 -3.186789 -0.56122285
1.8135297 -3.360188 -0.55930424
1.9307343 -3.5773497 -0.56098163
2.0497673 -3.797899 -0.55905664
2.1959157 -4.0686893 -0.55988783
2.3588951 -4.3706646 -0.55960035
2.5387716 -4.703948 -0.55732417
2.7592981 -5.1125493 -0.55696714
3.0262451 -5.6071606 -0.55744964
3.3416603 -6.1915755 -0.55666959
3.7249255 -6.9017062 -0.55496764
4.224896 -7.8280735 -0.55519825
4.8613806 -9.0073805 -0.55348212
5.7335019 -10.623285 -0.55219585
6.9644279 -12.903999 -0.54866636
8.8947668 -16.480616 -0.54492021
12.285411 -22.762951 -0.53752667
19.861174 -36.79966 -0.52134657
1.018195 -1.8322905 -0.56167138
1.0493177 -1.8882973 -0.55963886
1.0950273 -1.9705539 -0.56406629
1.1305553 -2.0344882 -0.56185436
1.1757931 -2.1158957 -0.56308794
1.2171412 -2.1903036 -0.56097883
1.2604756 -2.268286 -0.5583452
1.321696 -2.3784552 -0.56184375
1.376561 -2.4771874 -0.56065053
1.434792 -2.5819767 -0.55889779
1.5097395 -2.7168484 -0.56137681
1.5798775 -2.843065 -0.5595839
1.6661086 -2.9982419 -0.56081635
1.7620128 -3.1708262 -0.56218481
1.853474 -3.3354149 -0.55893213
1.9670805 -3.5398552 -0.55885279
2.0989838 -3.7772212 -0.55976981
2.2449729 -4.0399356 -0.5596875
2.4084885 -4.3341904 -0.55868
2.6045144 -4.6869478 -0.55906218
2.8302174 -5.093111 -0.55859864
3.0946391 -5.5689507 -0.55739194
3.4115696 -6.1392822 -0.55569768
3.8128476 -6.8614011 -0.55545467
4.3129725 -7.7613997 -0.55418897
4.9701886 -8.9440908 -0.5533067
5.8562665 -10.538631 -0.55149698
7.120533 -12.813739 -0.54851002
9.0870352 -16.352554 -0.54433936
12.546419 -22.577879 -0.5367589
20.291611 -36.51572 -0.52081949
1.0417708 -1.8215977 -0.56227785
1.0718061 -1.8741162 -0.55929971
1.1157416 -1.95094 -0.56233656
1.1560519 -2.021425 -0.56213003
1.2042688 -2.1057351 -0.56428212
1.2456802 -2.1781452 -0.56174552
1.288994 -2.2538819 -0.5586589
1.345403 -2.3525164 -0.55958217
1.4024836 -2.4523253 -0.55888444
1.4693202 -2.5691931 -0.55999923
1.5343221 -2.6828527 -0.55820853
1.6150833 -2.8240685 -0.55971158
1.6988201 -2.9704874 -0.55948997
1.7949231 -3.1385291 -0.56032938
1.8947095 -3.3130114 -0.55903977
2.0181913 -3.5289266 -0.56100291
2.1410151 -3.7436912 -0.55866003
2.2869794 -3.9989185 -0.55785882
2.4558499 -4.2941985 -0.55737549
2.6541972 -4.6410203 -0.55743474
2.8824108 -5.0400653 -0.55662596
3.157629 -5.5213008 -0.55646682
3.4898894 -6.1022773 -0.55619043
3.8984873 -6.8167353 -0.55567753
4.410552 -7.7121105 -0.55450016
5.0774083 -8.8781481 -0.55304784
5.984354 -10.463996 -0.55140042
7.2728286 -12.716969 -0.54815435
9.2832537 -16.232317 -0.5440957
12.812508 -22.403425 -0.53631645
20.692814 -36.182606 -0.51965821
1.0667691 -1.8132054 -0.56369382
1.105065 -1.8782974 -0.56456012
1.1341221 -1.9276865 -0.55961138
1.1819099 -2.0089121 -0.56264937
1.2205955 -2.0746667 -0.55993629
1.271148 -2.1605914 -0.56120712
1.315336 -2.2356985 -0.55811864
1.3843098 -2.3529344 -0.56368798
1.4361544 -2.4410558 -0.56029838
1.5015638 -2.5522332 -0.56028467
1.5718263 -2.6716597 -0.5598588
1.6475949 -2.8004446 -0.55900252
1.7409972 -2.9592021 -0.5613541
1.8371356 -3.1226101 -0.56147796
1.9422301 -3.3012412 -0.56104118
2.0534406 -3.4902675 -0.55882901
2.1901052 -3.7225585 -0.55948299
2.3370824 -3.972378 -0.55812317
2.5146508 -4.2741942 -0.55875021
2.7137794 -4.6126561 -0.55799383
2.9441144 -5.0041604 -0.55661672
3.2241013 -5.4800587 -0.55626386
3.5661469 -6.0614395 -0.55642301
3.9791684 -6.7634592 -0.55528128
4.5018935 -7.6519442 -0.55411249
5.1828279 -8.8093395 -0.55268973
6.0941238 -10.358284 -0.5497371
7.4244637 -12.619485 -0.54784614
9.4731102 -16.101604 -0.54357773
13.079012 -22.230616 -0.53598905
21.097853 -35.860371 -0.51871699
1.0859696 -1.7949713 -0.56213403
1.1283321 -1.8649913 -0.56468827
1.1597198 -1.9168711 -0.56056911
1.2021013 -1.9869225 -0.56058818
1.2500467 -2.0661702 -0.56174922
1.2917819 -2.1351531 -0.55868328
1.3512716 -2.2334821 -0.56167084
1.4048532 -2.3220458 -0.56038415
1.4607646 -2.4144604 -0.55827463
1.5337459 -2.5350893 -0.56061894
1.6036476 -2.6506281 -0.55954146
1.6846397 -2.7844977 -0.55991197
1.7762697 -2.9359508 -0.56104434
1.8694035 -3.089889 -0.55968541
1.9903736 -3.2898376 -0.56322002
2.0895798 -3.4538128 -0.55706406
2.2338517 -3.6922762 -0.55901778
2.3893075 -3.9492252 -0.55895585
2.5687819 -4.2458735 -0.55913496
2.7698181 -4.5781612 -0.55789894
3.0160995 -4.9852333 -0.55859447
3.295573 -5.4471679 -0.55699652
3.6302547 -6.0003548 -0.55487144
4.0590258 -6.7090597 -0.55487084
4.5943718 -7.5939193 -0.55395985
5.2928066 -8.7483444 -0.55290437
6.2273417 -10.293013 -0.55029541
7.5758462 -12.521921 -0.54761344
9.6609221 -15.968291 -0.54304653
13.332094 -22.036276 -0.53521556
21.506062 -35.546818 -0.51796752
1.1150539 -1.7928931 -0.56573439
1.1422719 -1.8366567 -0.56031954
1.1807245 -1.8984847 -0.55939579
1.2276083 -1.9738691 -0.56112182
1.2717075 -2.0447762 -0.5601418
1.316931 -2.117491 -0.5582568
1.3745214 -2.2100904 -0.55999643
1.428241 -2.2964661 -0.55840707
1.4976546 -2.4080758 -0.56101412
1.5626664 -2.5126085 -0.55985445
1.6311136 -2.6226647 -0.55783027
1.7197963 -2.7652574 -0.56025308
1.8043381 -2.9011917 -0.55859965
1.9064437 -3.0653672 -0.55944759
2.01788 -3.2445455 -0.55967164
2.1471443 -3.4523892 -0.56105047
2.2850332 -3.6741006 -0.56047767
2.4321914 -3.9107161 -0.55769622
2.6159601 -4.2061973 -0.55810392
2.8269854 -4.5455046 -0.55811322
3.0716801 -4.9389486 -0.55759829
3.3615613 -5.4050479 -0.55687422
3.7061663 -5.9591379 -0.55523223
4.1403809 -6.6573105 -0.55475968
4.6861458 -7.5348449 -0.55381209
5.3948727 -8.6744061 -0.55238223
6.3474665 -10.206079 -0.54977894
7.7229776 -12.417761 -0.54716992
9.8542099 -15.844565 -0.54291862
13.597976 -21.864159 -0.53505588
21.902906 -35.21764 -0.51705635
1.1259745 -1.7617739 -0.56024152
1.1694113 -1.8297379 -0.56255311
1.2148829 -1.9008858 -0.56446236
1.2537512 -1.9617016 -0.56200308
1.2980417 -2.0310016 -0.56069845
1.3507998 -2.1135504 -0.56155449
1.4034256 -2.1958921 -0.56072915
1.4601184 -2.2845974 -0.55984455
1.5201347 -2.3785028 -0.55843699
1.6016467 -2.5060418 -0.56273705
1.6626542 -2.6014984 -0.55763465
1.7517774 -2.7409463 -0.55964947
1.837081 -2.8744178 -0.55775183
1.9409363 -3.0369167 -0.55856884
2.0590141 -3.221669 -0.56005061
2.1901858 -3.426909 -0.56124389
2.3179507 -3.6268187 -0.55757076
2.4811094 -3.8821073 -0.55792499
2.6707907 -4.178895 -0.55879658
2.8775952 -4.5024748 -0.55713242
3.1242816 -4.8884573 -0.55619317
3.4297535 -5.3664184 -0.55719727
3.7836437 -5.9201379 -0.55589139
4.2203674 -6.6034651 -0.5545553
4.7735925 -7.4690776 -0.55325067
5.4976325 -8.6019573 -0.55203187
6.4734268 -10.12875 -0.5498597
7.8780608 -12.326532 -0.54737723
10.048784 -15.72299 -0.54294574
13.847127 -21.666128 -0.53433615
22.305021 -34.899906 -0.51637918
1.1528068 -1.7558006 -0.5628072
1.1817462 -1.7998773 -0.55779791
1.2262774 -1.8677011 -0.55904365
1.2756385 -1.9428813 -0.56106263
1.3244343 -2.0172005 -0.561342
1.3680817 -2.0836785 -0.55804521
1.4237192 -2.1684179 -0.55814171
1.487146 -2.2650213 -0.55948627
1.5551597 -2.3686106 -0.56056184
1.6271851 -2.4783099 -0.56096041
1.7013668 -2.5912936 -0.55988932
1.7816608 -2.7135868 -0.55849421
1.874004 -2.8542316 -0.55826408
1.9852065 -3.0236001 -0.56056702
2.0925438 -3.1870821 -0.55846888
2.2277985 -3.3930836 -0.56014824
2.3639231 -3.6004105 -0.5579375
2.53319 -3.8582151 -0.55892569
2.7173579 -4.1387153 -0.55784965
2.9365008 -4.4724841 -0.55784726
3.1923451 -4.8621516 -0.55762434
3.4914474 -5.3177047 -0.55655491
3.8593493 -5.8780427 -0.55635273
4.3080778 -6.5614858 -0.55543667
4.8739233 -7.4233055 -0.55425763
5.6020484 -8.5322886 -0.55193985
6.5916586 -10.03953 -0.54937488
8.0243549 -12.221621 -0.54705876
10.225942 -15.574783 -0.54212904
14.099129 -21.473902 -0.53383076
22.699265 -34.572475 -0.51562542
1.1706414 -1.7360557 -0.56104988
1.2074726 -1.7906761 -0.55950552
1.2497871 -1.8534284 -0.55932915
1.2977475 -1.9245535 -0.56033581
1.3477787 -1.9987495 -0.56077695
1.402662 -2.0801413 -0.56167471
1.4579196 -2.1620879 -0.56108439
1.5163776 -2.248781 -0.56003815
1.5856012 -2.3514392 -0.56106991
1.6584363 -2.4594533 -0.56126571
1.7405214 -2.5811851 -0.56228703
1.8173814 -2.6951683 -0.55926049
1.9140521 -2.8385303 -0.55975419
2.0208621 -2.9969289 -0.56018692
2.1330137 -3.1632493 -0.55884641
2.2653775 -3.3595443 -0.55916774
2.4139352 -3.5798545 -0.55930954
2.5812416 -3.8279693 -0.55909991
2.7641823 -4.0992694 -0.55707216
2.9945393 -4.4408875 -0.55845684
3.2485864 -4.8176384 -0.55705845
3.5532277 -5.2694197 -0.55603224
3.921165 -5.8150692 -0.55491406
4.3746324 -6.4875593 -0.55369043
4.9605565 -7.3564825 -0.55378079
5.7001495 -8.4532948 -0.55132234
6.7098198 -9.9506311 -0.54898363
8.166811 -12.111343 -0.54657632
10.409117 -15.436672 -0.54173601
14.352651 -21.284914 -0.53347963
23.082878 -34.2318 -0.5147388
1.1882595 -1.7162745 -0.55933684
1.2384034 -1.7887005 -0.5636037
1.2808105 -1.8499514 -0.56299025
1.3292685 -1.9199423 -0.56370962
1.3570057 -1.9600049 -0.5545463
1.4277143 -2.0621338 -0.56151026
1.4788231 -2.1359529 -0.5589788
1.5396559 -2.2238176 -0.55849397
1.615384 -2.3331962 -0.56141406
1.6896423 -2.4404519 -0.56162834
1.7610954 -2.5436559 -0.55878681
1.8556402 -2.6802127 -0.56084955
1.9460115 -2.8107414 -0.55895078
2.0621812 -2.9785323 -0.56144559
2.1777768 -3.1454937 -0.56039822
2.3105836 -3.3373146 -0.56015444
2.4592669 -3.552067 -0.55965048
2.6245358 -3.7907748 -0.55833882
2.8167212 -4.0683594 -0.55753636
3.0435207 -4.3959398 -0.55746859
3.3052514 -4.773973 -0.55666685
3.6220238 -5.2315068 -0.5566892
4.0012541 -5.7792511 -0.55614913
4.4621525 -6.4449549 -0.55469519
5.0516782 -7.296442 -0.55389529
5.8060369 -8.3860083 -0.55154848
6.833642 -9.8702393 -0.54914284
8.3098221 -12.002376 -0.54622883
10.595035 -15.303045 -0.54157764
14.59826 -21.085144 -0.53293151
23.461464 -33.886803 -0.51385033
1.2114229 -1.7045608 -0.56033164
1.2574315 -1.7692983 -0.56231964
1.2959288 -1.8234668 -0.55973744
1.3465655 -1.8947163 -0.56112218
1.4052655 -1.9773114 -0.56428915
1.4515704 -2.0424659 -0.56097269
1.5107383 -2.1257193 -0.56111979
1.5562881 -2.1898115 -0.55471772
1.6418281 -2.3101723 -0.56068951
