# .PCD v0.7 - Point Cloud Data file format
VERSION 0.7
FIELDS x y z
SIZE 4 4 4
TYPE F F F
COUNT 1 1 1
WIDTH 1509
HEIGHT 1
VIEWPOINT 0 0 0 1 0 0 0
POINTS 1509
DATA ascii
4.7662802 3.2353034 -0.55226678
5.2128139 3.5384059 -0.55120373
5.7584586 3.9087842 -0.55065536
6.4206576 4.3582783 -0.5491209
7.2621784 4.9294939 -0.54781938
8.3322353 5.655838 -0.54455769
9.8091059 6.6583228 -0.54230171
11.876648 8.0617495 -0.53710008
15.067339 10.227559 -0.52987492
20.59417 13.979116 -0.51724112
32.55558 22.098402 -0.49055246
1.7318252 1.2069148 -0.56561071
1.7673901 1.2317001 -0.55807883
1.8294662 1.2749611 -0.55794561
1.8991618 1.3235322 -0.55879968
1.9680879 1.371567 -0.55802298
2.0442016 1.424611 -0.55781674
2.1261334 1.4817095 -0.55759788
2.2216687 1.5482885 -0.55914646
2.3146613 1.613095 -0.55814421
2.4204121 1.6867932 -0.55820668
2.5459518 1.7742825 -0.5604862
2.6602304 1.8539234 -0.55785757
2.8041346 1.9542106 -0.55882841
2.94944 2.0554745 -0.55714965
3.110153 2.1674759 -0.55528581
3.3023856 2.3014433 -0.55547601
3.5148888 2.4495375 -0.55497605
3.7632253 2.6226044 -0.5554654
4.040226 2.8156469 -0.55486381
4.3568158 3.0362794 -0.55368757
4.7326751 3.2982171 -0.55303043
5.1771183 3.6079512 -0.55207878
5.7181139 3.9849727 -0.55144149
6.3604465 4.4326162 -0.54859149
7.2053347 5.0214219 -0.54814774
8.2749424 5.7668352 -0.54540652
9.7371521 6.7858534 -0.54289579
11.796885 8.2212887 -0.53802401
14.946895 10.416541 -0.53010362
20.447046 14.249615 -0.51790762
32.330338 22.53112 -0.49129599
1.699221 1.2155033 -0.5598014
1.7505076 1.2521902 -0.55756778
1.8235568 1.3044446 -0.56099284
1.883203 1.3471112 -0.55893576
1.9496595 1.3946495 -0.55761814
2.0288243 1.4512786 -0.55844808
2.1084509 1.5082377 -0.55778217
2.2054513 1.5776249 -0.55990487
2.2961535 1.6425071 -0.55850941
2.4035597 1.7193378 -0.55915362
2.5176194 1.8009281 -0.55908173
2.621702 1.8753816 -0.55457199
2.7747889 1.984889 -0.55780202
2.9259455 2.0930159 -0.55753106
3.0786271 2.2022338 -0.55445009
3.2735252 2.34165 -0.5554229
3.4829526 2.4914596 -0.55472881
3.7252884 2.6648097 -0.55466044
4.0088096 2.8676209 -0.55535001
4.3239293 3.0930355 -0.55429983
4.6927657 3.3568749 -0.55314845
5.1398416 3.6766815 -0.55288291
5.6588411 4.0479374 -0.55048388
6.3155994 4.5177364 -0.54947329
7.1358771 5.1045055 -0.54759741
8.2041321 5.8686604 -0.5454545
9.6321135 6.8901377 -0.54172224
11.673474 8.3503838 -0.53703797
14.817663 10.599516 -0.53010273
20.278643 14.505918 -0.518121
32.077946 22.94631 -0.49171114
1.6860846 1.2377266 -0.56044537
1.743253 1.2796929 -0.5602268
1.7983947 1.3201715 -0.55820382
1.8782661 1.3788037 -0.56246001
1.9371537 1.4220321 -0.55900025
2.017307 1.4808713 -0.56024778
2.0986273 1.5405672 -0.56015241
2.1809435 1.6009942 -0.55863869
2.2838151 1.6765105 -0.56048018
2.3796895 1.7468902 -0.55855548
2.4944029 1.8310995 -0.55888397
2.6199899 1.9232907 -0.55917019
2.7414565 2.0124574 -0.55603397
2.9019849 2.1302986 -0.55791467
3.0614896 2.2473884 -0.55629861
3.2560475 2.3902102 -0.55740213
3.457289 2.5379381 -0.55556989
3.7136698 2.7261429 -0.55787951
3.9644465 2.910234 -0.55411983
4.2837858 3.1446557 -0.5540688
4.6387019 3.4051936 -0.55166972
5.0911412 3.7373219 -0.55254596
5.6112804 4.1191473 -0.55074292
6.2689991 4.6019673 -0.5503006
7.0811186 5.1981306 -0.5482589
8.1282215 5.9667916 -0.5452444
9.5577259 7.0161667 -0.54234976
11.580436 8.5010042 -0.53752607
14.697441 10.789145 -0.53050792
20.111898 14.763808 -0.51845986
31.823811 23.361328 -0.49218175
1.6762577 1.2625211 -0.56229669
1.7298173 1.302861 -0.56101507
1.7743933 1.3364347 -0.55581278
1.8589455 1.4001176 -0.56178749
1.9105321 1.4389716 -0.55638206
2.0006888 1.5068756 -0.56073618
2.0746925 1.5626136 -0.55885029
2.1664724 1.6317402 -0.56002909
2.2457244 1.6914312 -0.55619442
2.3605752 1.7779343 -0.55915827
2.4793742 1.8674111 -0.56061918
2.5921161 1.9523259 -0.5583027
2.7169237 2.0463283 -0.55611968
2.8827 2.1711874 -0.5592975
3.0421629 2.2912915 -0.55786419
3.2253289 2.4292481 -0.55721492
3.4388936 2.5901003 -0.55768961
3.6587956 2.7557259 -0.55468458
3.9280109 2.958493 -0.55407
4.2507958 3.2016077 -0.55485183
4.6260462 3.4842379 -0.55521792
5.0415325 3.7971735 -0.55218762
5.5582266 4.1863365 -0.55054653
6.1969371 4.6673994 -0.54897141
7.016623 5.2847691 -0.54825526
8.0651217 6.0744758 -0.54598093
9.4641123 7.1281652 -0.54197049
11.483656 8.6492414 -0.53792983
14.57746 10.979428 -0.53101015
19.937017 15.016131 -0.51867241
31.580662 23.785872 -0.49290746
1.6456656 1.2714915 -0.55723727
1.7000384 1.3135017 -0.55655336
1.7696995 1.3673239 -0.5595668
1.8362317 1.4187287 -0.56015295
1.9099542 1.4756889 -0.56145567
1.9638714 1.517347 -0.55560458
2.0514402 1.5850053 -0.55779469
2.1414306 1.6545348 -0.55877274
2.2365284 1.7280102 -0.55913717
2.3354115 1.8044103 -0.55841112
2.4548352 1.8966806 -0.56030172
2.5639319 1.9809722 -0.55743665
2.6928732 2.0805962 -0.55639148
2.8498745 2.2019002 -0.5581398
3.0103559 2.3258929 -0.55723405
3.1918352 2.4661093 -0.55662531
3.4076092 2.632823 -0.55782425
3.636553 2.8097119 -0.5565083
3.893749 3.0084295 -0.55441332
4.2043624 3.248419 -0.55396295
4.5699072 3.5308497 -0.55364913
5.0022902 3.8649225 -0.55305302
5.5189409 4.2641025 -0.55180711
6.1458549 4.7484756 -0.54957724
6.9464488 5.3670387 -0.54788733
7.9837618 6.168498 -0.54556668
9.3845558 7.2507949 -0.5424794
11.38176 8.7938957 -0.53818136
14.448321 11.163215 -0.53126615
19.767134 15.272692 -0.51909924
31.325945 24.203382 -0.49353972
1.6370631 1.2973003 -0.55968362
1.6927133 1.3414006 -0.55951291
1.7505649 1.3872454 -0.55886799
1.8055311 1.4308037 -0.55611265
1.8852241 1.4939569 -0.55954391
1.9578477 1.5515079 -0.55925554
2.0364978 1.6138346 -0.55908537
2.1157401 1.6766305 -0.5574066
2.2104738 1.7517028 -0.55796623
2.3053074 1.8268543 -0.55654222
2.4407787 1.9342093 -0.56247944
2.5411406 2.0137417 -0.55782288
2.6639376 2.1110528 -0.55573434
2.8180523 2.2331822 -0.55724341
2.9914308 2.3705769 -0.55908436
3.168159 2.5106261 -0.55783796
3.3631043 2.6651118 -0.55586147
3.5947728 2.8486989 -0.55543315
3.8618026 3.060308 -0.55518079
4.1788092 3.311522 -0.55591929
4.5298328 3.5896926 -0.55409992
4.9474716 3.9206529 -0.5522806
5.459259 4.3262219 -0.55111706
6.0936513 4.8289499 -0.55017728
6.8864284 5.4571905 -0.54840457
7.9236889 6.2791734 -0.54669654
9.3131695 7.3802757 -0.54355764
11.272563 8.9330091 -0.53817135
14.312702 11.342185 -0.53136754
19.59894 15.531295 -0.51965833
31.0529 24.608051 -0.49396789
1.6254408 1.3209492 -0.56122088
1.6695092 1.3567623 -0.55731541
1.7337277 1.4089508 -0.55898154
1.80536 1.4671643 -0.56157416
1.8760554 1.5246164 -0.56234437
1.9439473 1.5797902 -0.56079149
2.0228493 1.6439116 -0.56084543
2.1033201 1.7093079 -0.55962968
2.1927056 1.781949 -0.55896991
2.2979617 1.8674877 -0.56027031
2.388078 1.9407226 -0.55579203
2.5194447 2.0474806 -0.55854481
2.6454313 2.1498661 -0.5573464
2.7876513 2.2654443 -0.5566982
2.9599564 2.4054718 -0.55868787
3.1356671 2.5482669 -0.55759209
3.3428309 2.7166228 -0.55798966
3.5651755 2.8973157 -0.55632269
3.8316085 3.1138384 -0.55630249
4.1268678 3.3537872 -0.55445367
4.47997 3.640743 -0.55343491
4.9025116 3.9841306 -0.55268878
5.4195766 4.4043345 -0.55253661
6.0415254 4.9097743 -0.55088019
6.8238177 5.5455208 -0.54880744
7.8347068 6.3670416 -0.54591775
9.2127104 7.4869061 -0.54302657
11.172649 9.0796919 -0.53869081
14.188148 11.5303 -0.53196687
19.420151 15.782199 -0.52002406
30.777443 25.011946 -0.49444115
1.614355 1.3452338 -0.56306207
1.6647539 1.387231 -0.56137991
1.7207096 1.4338585 -0.56042653
1.7791488 1.4825556 -0.55904931
1.8491586 1.5408945 -0.5599193
1.9106704 1.592152 -0.5567975
1.9862794 1.6551565 -0.55630708
2.0750902 1.7291622 -0.55773371
2.1782761 1.8151463 -0.56093895
2.2683585 1.8902116 -0.55867738
2.3730104 1.9774175 -0.5579021
2.4923391 2.0768535 -0.55815506
2.6226809 2.1854668 -0.55817288
2.7668531 2.3056047 -0.5581643
2.9151642 2.4291916 -0.55582941
3.1007917 2.583874 -0.55699819
3.3035064 2.7527952 -0.55703372
3.5217257 2.9346361 -0.55513161
3.7767875 3.1471777 -0.55391991
4.091557 3.4094734 -0.55530024
4.4448085 3.7038362 -0.55467558
4.8513727 4.042624 -0.55248594
5.3498216 4.4579792 -0.55097204
5.9758053 4.9796081 -0.55042934
6.7477818 5.6228919 -0.54821151
7.7689505 6.4738269 -0.54684138
9.134449 7.6116896 -0.54388934
11.070127 9.2246809 -0.53917605
14.057986 11.714449 -0.53244722
19.239279 16.031992 -0.52042025
30.506182 25.420647 -0.4950676
1.5963764 1.363857 -0.56259823
1.6481169 1.4080613 -0.56156576
1.6995484 1.4520015 -0.55930728
1.7582071 1.5021163 -0.5582307
1.8318138 1.5650018 -0.56045198
1.8995779 1.6228957 -0.55933809
1.9830576 1.6942164 -0.5611971
2.0499656 1.751379 -0.55672705
2.1473432 1.834573 -0.55874026
2.2490425 1.9214592 -0.55969679
2.3539135 2.0110555 -0.55918396
2.4752007 2.1146765 -0.56009793
2.5907578 2.2134023 -0.5571292
2.7276142 2.3303249 -0.55598706
2.8927104 2.471374 -0.55730027
3.066258 2.6196437 -0.55653912
3.2655625 2.7899187 -0.55637825
3.4904165 2.9820216 -0.55593437
3.7459047 3.2002969 -0.55512017
4.0481653 3.4585321 -0.55514109
4.3902817 3.7508173 -0.55358481
4.8114471 4.1106381 -0.5536536
5.3076329 4.5345521 -0.55232787
5.9102721 5.0494146 -0.55007058
6.6868052 5.712842 -0.54892325
7.6911073 6.5708628 -0.54700804
9.0184212 7.7048473 -0.54258096
10.959357 9.3630781 -0.53934777
13.901659 11.876821 -0.53201747
19.057428 16.281628 -0.52087742
30.224741 25.822372 -0.49561572
1.5755386 1.3799245 -0.5611921
1.6243943 1.4227145 -0.55940133
1.6729933 1.4652796 -0.55645567
1.7533736 1.5356802 -0.56264901
1.8102254 1.5854734 -0.55976939
1.8904382 1.6557271 -0.5625993
1.9522485 1.7098633 -0.55838609
2.0386767 1.785561 -0.55958176
2.1241186 1.8603946 -0.55860734
2.216553 1.9413526 -0.55751008
2.3205841 2.0324676 -0.55716127
2.4397635 2.1368501 -0.55798268
2.5778213 2.257767 -0.56027514
2.6947246 2.3601558 -0.55515671
2.8686352 2.5124743 -0.55857182
3.0375342 2.6604033 -0.55722117
3.218199 2.8186374 -0.55417186
3.4537244 3.0249207 -0.55597258
3.7245407 3.2621133 -0.55785638
3.9925559 3.4968524 -0.55336988
4.3438621 3.8045416 -0.55358875
4.7479372 4.1584482 -0.5521878
5.2477431 4.5961995 -0.55193514
5.8577833 5.1304989 -0.55101532
6.6200867 5.7981572 -0.54925758
7.6119361 6.6668615 -0.54716635
8.9407892 7.8307281 -0.54366237
10.841474 9.49543 -0.53925169
13.772274 12.06235 -0.53270203
18.8605 16.518839 -0.52100736
29.945122 26.227228 -0.49628136
1.5613315 1.4017771 -0.56222874
1.6051415 1.4411101 -0.55883139
1.6680984 1.4976333 -0.5609104
1.720755 1.5449089 -0.5582357
1.791584 1.6084999 -0.5600788
1.857371 1.6675639 -0.55881858
1.9345472 1.7368534 -0.55938947
2.013263 1.8075252 -0.55866456
2.0986962 1.8842279 -0.55797267
2.203757 1.9785525 -0.5603686
2.3059232 2.0702779 -0.5597111
2.404891 2.1591322 -0.55603719
2.5352933 2.2762086 -0.55707312
2.6880891 2.4133899 -0.55986112
2.8333983 2.5438499 -0.55775934
2.9953365 2.6892395 -0.55550444
3.2119913 2.883754 -0.55916679
3.4170797 3.067884 -0.5561043
3.6659343 3.2913079 -0.55509818
3.9647505 3.5595877 -0.55554062
4.2975931 3.8584168 -0.55369675
4.7005973 4.2202373 -0.55267566
5.1872454 4.6571546 -0.55155367
5.7915745 5.1997261 -0.55076009
6.5362768 5.8683267 -0.54824954
7.529305 6.7598763 -0.54716033
8.8527775 7.948101 -0.5442124
10.729718 9.633235 -0.53954417
13.62692 12.234368 -0.53285843
18.674982 16.766563 -0.52153844
29.655436 26.62491 -0.49686873
1.5381538 1.4155089 -0.56010795
1.5945793 1.4674352 -0.56139386
1.6457268 1.5145046 -0.55960763
1.6985842 1.5631473 -0.55723667
1.7751516 1.6336095 -0.56117904
1.8364953 1.690062 -0.55874813
1.9202148 1.7671061 -0.56148583
1.984004 1.8258091 -0.55673331
2.075212 1.9097447 -0.55793023
2.1710348 1.9979271 -0.55825281
2.2692859 2.0883441 -0.55700916
2.39554 2.2045312 -0.56010044
2.5134773 2.3130648 -0.55848694
2.6540844 2.4424608 -0.55899179
2.7970006 2.5739813 -0.55678278
2.9751036 2.7378833 -0.55795354
3.1453605 2.8945646 -0.55372161
3.3814034 3.1117866 -0.55648333
3.6257341 3.3366356 -0.55518168
3.9204378 3.607841 -0.55550575
4.2483644 3.9096203 -0.5535062
4.6558681 4.2846317 -0.55356932
5.1268554 4.7180648 -0.55125946
5.7377687 5.2802668 -0.55177611
6.4755626 5.9592328 -0.54926181
7.437191 6.8441854 -0.54654092
8.7578325 8.0595255 -0.54442692
10.61399 9.7676811 -0.53972358
13.492488 12.416662 -0.53353173
18.494431 17.019773 -0.52230132
29.374552 27.032368 -0.49769428
1.5207126 1.4343892 -0.56013727
1.5785007 1.4888971 -0.56213635
1.622087 1.5300092 -0.55792439
1.686637 1.5908951 -0.55969262
1.7437806 1.6447948 -0.55761337
1.8225989 1.7191391 -0.56090933
1.8841848 1.7772291 -0.55729848
1.961869 1.8505034 -0.5568651
2.0544307 1.9378108 -0.55870712
2.1544034 2.0321088 -0.56035918
2.2518067 2.1239827 -0.55908716
2.3728576 2.2381623 -0.56118941
2.4845893 2.3435516 -0.558429
2.6247635 2.4757686 -0.55918586
2.7641022 2.6071978 -0.55657369
2.9357276 2.7690809 -0.5569126
3.1227467 2.9454839 -0.55607468
3.3473315 3.1573203 -0.55722326
3.5888457 3.3851249 -0.55586499
3.8686712 3.649066 -0.55448675
4.2124739 3.9733524 -0.55515373
4.5937247 4.332962 -0.55247372
5.0727067 4.7847543 -0.55172175
5.6658468 5.3442249 -0.55113757
6.4020114 6.0386009 -0.54927981
7.3595219 6.9417582 -0.54706466
8.6562977 8.1649227 -0.54431522
10.497897 9.9019833 -0.53997087
13.348714 12.590974 -0.53392833
18.290018 17.251785 -0.52247995
29.074219 27.42382 -0.49828154
1.5034906 1.4534907 -0.56033462
1.5490208 1.4975069 -0.55815333
1.6039369 1.5505967 -0.5581975
1.6754615 1.6197426 -0.5625509
1.7201902 1.6629839 -0.55656672
1.7960689 1.7363391 -0.55927312
1.8698086 1.8076266 -0.55957836
1.9524077 1.8874787 -0.56072497
2.0461223 1.9780769 -0.56301993
2.1252325 2.0545561 -0.5593006
2.2245855 2.150605 -0.5588522
2.3298745 2.2523928 -0.55753195
2.4588275 2.3770573 -0.55916613
2.5846827 2.4987271 -0.55715072
2.7424953 2.6512914 -0.55874532
2.8978014 2.8014326 -0.5562107
3.0976591 2.9946439 -0.5581224
3.3018436 3.1920381 -0.55614293
3.5487683 3.4307511 -0.55614954
3.831028 3.703624 -0.55557674
4.1573548 4.0190983 -0.55436087
4.5517135 4.4003425 -0.55388677
5.019341 4.8524184 -0.55236536
5.6005654 5.4143138 -0.55122191
6.3335581 6.1229305 -0.54982489
7.2746668 7.032742 -0.547144
8.5526733 8.2682476 -0.54415125
10.385078 10.039715 -0.54047704
13.191408 12.752718 -0.53386825
18.102547 17.500532 -0.52323234
28.765392 27.808775 -0.49881148
1.4906543 1.4769688 -0.56227678
1.532992 1.5189177 -0.5590654
1.5871634 1.5725918 -0.55904752
1.6426708 1.6275895 -0.55821866
1.7092597 1.6935672 -0.55972576
1.772698 1.756423 -0.55867881
1.8439342 1.8270051 -0.55851597
1.9335067 1.9157553 -0.56201971
2.0131226 1.9946402 -0.56064612
2.1003993 2.0811157 -0.5594576
2.189209 2.1691101 -0.55662352
2.305856 2.2846859 -0.55846483
2.4291909 2.4068885 -0.55911463
2.5552585 2.5317988 -0.5574767
2.69943 2.6746469 -0.5566299
2.8692589 2.8429163 -0.55739987
3.0557909 3.0277357 -0.5572446
3.253849 3.2239757 -0.55469441
3.501651 3.4695027 -0.55540943
3.7721474 3.7375157 -0.55366093
4.1072431 4.0695343 -0.55430949
4.5047531 4.4633951 -0.55480903
4.9571042 4.9115934 -0.55212098
5.5460801 5.495162 -0.55246812
6.2646136 6.207099 -0.55042404
7.1825423 7.1166 -0.54675549
8.4574814 8.3798332 -0.54460949
10.266817 10.172558 -0.54079133
13.044436 12.924677 -0.53431177
17.895384 17.731087 -0.52350682
28.454165 28.192928 -0.4993884
1.4690312 1.4917833 -0.56099737
1.5249507 1.5485688 -0.56303471
1.5673229 1.5915972 -0.55891031
1.6303011 1.655551 -0.56089067
1.6874508 1.7135857 -0.5594418
1.7486517 1.7757345 -0.55793983
1.8290706 1.8573989 -0.56088942
1.9034187 1.9328984 -0.56014025
1.99295 2.0238163 -0.56191623
2.0736592 2.1057756 -0.55918986
2.1661963 2.1997461 -0.55760765
2.2765052 2.3117633 -0.55819881
2.4003019 2.4374774 -0.5593217
2.5305438 2.5697365 -0.55893636
2.6556726 2.6968031 -0.55440295
2.8415418 2.885551 -0.55886614
3.0147607 3.0614526 -0.55658525
3.2240968 3.2740309 -0.55644345
3.4629135 3.5165465 -0.55608171
3.7293761 3.7871358 -0.55417633
4.0527406 4.1155086 -0.55374181
4.4411254 4.5099087 -0.55376077
4.8969493 4.9727921 -0.55218983
5.46067 5.5452437 -0.5507108
6.1856298 6.2814317 -0.55022913
7.1050248 7.215066 -0.54756683
8.361414 8.4909143 -0.5451054
10.145045 10.302169 -0.54100895
12.897979 13.09774 -0.53486925
17.685152 17.959055 -0.52377737
28.156965 28.593056 -0.50030524
1.4475548 1.5065868 -0.55982822
1.4952044 1.5561795 -0.55907476
1.5558482 1.6192964 -0.56187648
1.6151893 1.6810573 -0.56276077
1.6724098 1.7406114 -0.56150866
1.7354096 1.8061804 -0.56075865
1.8123344 1.8862422 -0.56282723
1.8784424 1.9550461 -0.55982244
1.954648 2.0343595 -0.55812794
2.0399127 2.1231012 -0.55708754
2.1432104 2.2306113 -0.55870903
2.2502141 2.3419788 -0.55877131
2.3711364 2.4678323 -0.55955446
2.4943027 2.5960214 -0.55794019
2.6351316 2.7425933 -0.55711305
2.7931347 2.9070399 -0.55633396
2.9837925 3.1054728 -0.55787569
3.1833198 3.3131371 -0.55639499
3.4113178 3.5504327 -0.55476511
3.6844275 3.8346798 -0.55446202
4.017096 4.1809149 -0.55585396
4.3847718 4.5635848 -0.5536893
4.8404937 5.0378909 -0.5527674
5.3991179 5.6192966 -0.55143011
6.1047082 6.3536606 -0.54993904
7.0218239 7.308177 -0.54803902
8.256566 8.5932722 -0.54511756
10.026417 10.435298 -0.54148477
12.737493 13.256932 -0.53493363
17.473309 18.185877 -0.52408659
27.832994 28.968035 -0.50084007
1.4296467 1.5250453 -0.56011248
1.4842278 1.5832685 -0.56220752
1.5303923 1.6325135 -0.55989063
1.5856775 1.6914879 -0.55968291
1.635089 1.7441965 -0.5561372
1.7066705 1.8205546 -0.55866373
1.7813227 1.9001882 -0.56041032
1.8515602 1.9751127 -0.55900675
1.9365901 2.0658164 -0.56018263
2.0216544 2.1565568 -0.55930096
2.1133027 2.2543209 -0.55809653
2.2211375 2.3693514 -0.55874354
2.3372798 2.4932437 -0.55875736
2.4609618 2.6251788 -0.55766076
2.6006615 2.7742004 -0.55699539
2.7580194 2.9420588 -0.55650336
2.9448166 3.1413207 -0.55776829
3.1410811 3.3506815 -0.55617166
3.3713415 3.596307 -0.55541354
3.6437995 3.886946 -0.55549866
3.965591 4.2302103 -0.55588275
4.3347359 4.6239872 -0.55450886
4.772027 5.0904584 -0.55205512
5.3371572 5.6932993 -0.55221015
6.0344229 6.4370928 -0.55069631
6.9377418 7.4006891 -0.54853761
8.1515818 8.6955271 -0.5452044
9.9020071 10.562757 -0.54173946
12.595467 13.435947 -0.53586698
17.264744 18.4168 -0.52458376
27.52129 29.357754 -0.50168914
1.4142514 1.5462958 -0.56148779
1.4628292 1.5994091 -0.56150919
1.5087717 1.6496412 -0.55935961
1.5677041 1.7140759 -0.56073594
1.6265997 1.7784703 -0.56064552
1.6864197 1.8438756 -0.55941439
1.7556009 1.9195161 -0.55970156
1.8290486 1.9998214 -0.55959219
1.9039472 2.081713 -0.55810255
1.9962622 2.182647 -0.55965889
2.086019 2.2807844 -0.55825561
2.2004116 2.4058573 -0.5609293
2.308068 2.5235653 -0.55914998
2.4318824 2.6589398 -0.558438
2.5724106 2.8125887 -0.55830979
2.7221174 2.9762733 -0.5566017
2.8957915 3.1661627 -0.55581468
3.1059239 3.3959146 -0.55729824
3.3310285 3.6420367 -0.55610812
3.598238 3.9341946 -0.55588585
3.9172869 4.2830319 -0.55645216
4.2718339 4.670682 -0.55376738
4.7086821 5.1483173 -0.55200893
5.258328 5.7492819 -0.55132693
5.9511499 6.5067906 -0.55035698
6.8405995 7.4792857 -0.54808718
8.0444365 8.7955208 -0.54523063
9.7729692 10.685442 -0.54182738
12.428767 13.589203 -0.53584349
17.052435 18.644569 -0.52505916
27.193537 29.732515 -0.50234121
1.3913449 1.5593235 -0.55996358
1.435801 1.609147 -0.55868733
1.4874195 1.6669974 -0.55900073
1.5448092 1.7313159 -0.56011927
1.6077272 1.8018299 -0.56173486
1.6700735 1.8717034 -0.56158417
1.7344824 1.9438884 -0.56054688
1.811656 2.0303793 -0.56186688
1.8848312 2.1123891 -0.56007075
1.9742813 2.2126386 -0.56108177
2.0617974 2.3107204 -0.55933517
2.1619158 2.4229262 -0.55866861
2.2765408 2.5513902 -0.55907041
2.4009616 2.6908326 -0.55889338
2.5408294 2.8475869 -0.55901283
2.6835032 3.0074856 -0.55622578
2.8689072 3.2152736 -0.55820096
3.0497887 3.4179931 -0.55472529
3.2917175 3.6891303 -0.55707639
3.558537 3.9881632 -0.5572865
3.8564186 4.3220086 -0.55531311
4.2170663 4.7261977 -0.55415952
4.6534204 5.2152333 -0.55300659
5.202044 5.8300929 -0.55290043
5.8663683 6.5746217 -0.54995131
6.7554288 7.5710192 -0.54868072
7.9390445 8.8975344 -0.54546165
9.6446447 10.809054 -0.54204082
12.260337 13.740541 -0.53582579
16.842976 18.876448 -0.52571696
26.861515 30.104538 -0.50300807
1.3715454 1.5757139 -0.55975074
1.4237388 1.6356769 -0.56177759
1.4718256 1.6909217 -0.56091201
1.5284148 1.7559348 -0.56196123
1.5779241 1.8128142 -0.55906802
1.6417618 1.8861547 -0.55982059
1.7049067 1.9586993 -0.55873019
1.7932701 2.0602164 -0.56397897
1.8513386 2.126929 -0.55784786
1.9357851 2.2239463 -0.55787098
2.0314641 2.333868 -0.55884939
2.1301632 2.4472594 -0.5581975
2.2415276 2.5752017 -0.5582062
2.3645451 2.7165315 -0.55814987
2.497529 2.8693113 -0.55720663
2.6540148 3.0490918 -0.55784279
2.8260219 3.2467041 -0.5575825
3.0224316 3.4723513 -0.55747348
3.242223 3.7248609 -0.5564096
3.4976022 4.0182557 -0.55543977
3.7931981 4.3578544 -0.55388397
4.1666737 4.7869248 -0.5552305
4.592113 5.2756958 -0.55338848
5.1211667 5.8835044 -0.551952
5.7912936 6.6533866 -0.5505414
6.6598277 7.6512108 -0.54851598
7.8309159 8.9966269 -0.54559201
9.5131969 10.929332 -0.54216528
12.104693 13.9066 -0.53645653
16.611837 19.084677 -0.52578759
26.530237 30.479532 -0.50378478
1.3501029 1.5901448 -0.55893743
1.4004258 1.6494148 -0.56053919
1.4452655 1.7022269 -0.5587247
1.5081111 1.7762462 -0.5624842
1.5539984 1.8302919 -0.55852276
1.6156708 1.9029294 -0.55886054
1.6807772 1.9796113 -0.55875766
1.753932 2.0657728 -0.55955368
1.839993 2.167135 -0.56241632
1.9166129 2.2573774 -0.56030285
2.0100465 2.3674233 -0.5609234
2.0996823 2.4729958 -0.55813646
2.2079587 2.6005232 -0.55776763
2.3257978 2.7393134 -0.55691248
2.4702594 2.9094596 -0.55906218
2.6169002 3.0821724 -0.55796564
2.7879074 3.2835839 -0.55798656
2.9725699 3.5010786 -0.55617517
3.1999242 3.7688553 -0.55706161
3.4545586 4.0687628 -0.55650735
3.7471333 4.4133558 -0.55503988
4.1037769 4.8334088 -0.55472714
4.5278072 5.3328295 -0.55349952
5.0565405 5.9555693 -0.55283773
5.7074394 6.7221947 -0.55038619
6.5797067 7.749547 -0.54972392
7.7293758 9.1036215 -0.5462755
9.3909636 11.060632 -0.5429092
11.939555 14.06235 -0.53676063
16.398092 19.313595 -0.52649933
26.196276 30.853848 -0.50460935
1.3406456 1.6189378 -0.5632211
1.3775249 1.6634724 -0.5595178
1.434882 1.732736 -0.56290489
1.4833422 1.7912555 -0.56141871
1.5328714 1.8510659 -0.55906796
1.6003693 1.9325752 -0.56174523
1.6553 1.9989085 -0.55841702
1.7326561 2.0923221 -0.56093168
1.8049266 2.1795948 -0.55984765
1.8814304 2.2719791 -0.5581426
1.9816805 2.3930392 -0.56117678
2.0755203 2.5063584 -0.55986381
2.1731808 2.6242914 -0.55709189
2.2958555 2.7724309 -0.55786377
2.4394825 2.9458721 -0.56025261
2.5775445 3.1125929 -0.55769283
2.7456734 3.3156223 -0.55765152
2.9337196 3.5427034 -0.55701482
3.1495066 3.8032835 -0.55638397
3.4067335 4.1139059 -0.5569101
3.6961784 4.4634342 -0.55558002
4.0404654 4.8791881 -0.55423719
4.4573321 5.3825889 -0.55293357
4.9843311 6.0189824 -0.55299306
5.6313071 6.8002577 -0.55106652
6.483232 7.8290262 -0.54966521
7.6195364 9.2012053 -0.5464676
9.2505865 11.170831 -0.54269385
11.768572 14.2115 -0.53688943
16.16679 19.522705 -0.52674073
25.845203 31.210171 -0.5052011
1.3114773 1.6239554 -0.55931407
1.3598646 1.6838716 -0.5607124
1.4069339 1.7421559 -0.56030244
1.4523479 1.7983903 -0.55801541
1.5072597 1.8663857 -0.55805504
1.5760245 1.9515347 -0.56158066
1.6381443 2.0284553 -0.5610016
1.6986271 2.1033492 -0.55824608
1.7777487 2.2013226 -0.55977142
1.8551708 2.2971916 -0.55869007
1.9538902 2.4194322 -0.56168938
2.050983 2.5396585 -0.56162632
2.141129 2.6512833 -0.55719066
2.2589841 2.797219 -0.55722016
2.3963397 2.9673016 -0.55868185
2.5387266 3.1436141 -0.55761546
2.6996574 3.3428893 -0.55661213
2.8880279 3.5761414 -0.55664653
3.1061728 3.8462627 -0.55704176
3.3525989 4.1514034 -0.5563634
3.6341252 4.5000072 -0.55452812
3.9885647 4.9388967 -0.55540645
4.4026742 5.451674 -0.55442715
4.90416 6.0726457 -0.55234122
5.5449262 6.8660836 -0.55083382
6.3794823 7.8994842 -0.54906297
7.513763 9.3040237 -0.54704541
9.1192713 11.292067 -0.54309499
11.613041 14.380013 -0.53782016
15.951059 19.751625 -0.52758521
25.499666 31.575323 -0.50599808
1.2881455 1.6358113 -0.55789983
1.3372285 1.6981418 -0.55994648
1.3885828 1.7633564 -0.56158692
1.4297268 1.815605 -0.55785972
1.4828644 1.8830842 -0.55755377
1.5470754 1.9646256 -0.55983114
1.6091036 2.0433948 -0.55961883
1.6709628 2.1219497 -0.55768734
1.7481236 2.2199359 -0.5589962
1.8266655 2.3196762 -0.55865341
1.9199127 2.4380903 -0.56049782
2.0127585 2.555995 -0.55972344
2.111985 2.6820023 -0.55814648
2.2396944 2.8441801 -0.56104642
2.3614182 2.9987566 -0.55909485
2.5063365 3.1827879 -0.55905515
2.6659753 3.3855126 -0.55820858
2.8547995 3.6252997 -0.55879194
3.0518827 3.8755751 -0.55581003
3.3061604 4.1984816 -0.55718225
3.579478 4.5455666 -0.55467647
3.9287758 4.9891386 -0.55558169
4.3292475 5.4976964 -0.55365187
4.828588 6.1318069 -0.55228007
5.4657578 6.9409466 -0.55140615
6.286931 7.9837518 -0.54950517
7.4059315 9.4047661 -0.54757291
8.986659 11.412127 -0.54351348
11.440314 14.528015 -0.53805357
15.711752 19.952297 -0.52774495
25.145 31.931547 -0.50671339
1.267354 1.6507696 -0.55764425
1.3137511 1.7112032 -0.55888432
1.3596298 1.7709616 -0.55864233
1.4213822 1.8513962 -0.56344402
1.4633205 1.9060222 -0.55897546
1.529934 1.9927884 -0.56245297
1.5865266 2.0665021 -0.56056201
1.6521786 2.1520159 -0.56020755
1.7207993 2.2413967 -0.55902976
1.7959597 2.3392956 -0.55801773
1.8865527 2.4572959 -0.55953771
1.9767977 2.5748429 -0.55848563
2.0848475 2.7155812 -0.55975711
2.1994901 2.8649068 -0.55975759
2.3174429 3.0185442 -0.55742902
2.4669356 3.2132633 -0.55903763
2.6179972 3.4100258 -0.55690038
2.7995896 3.6465559 -0.55672002
3.0067737 3.91642 -0.55632329
3.2520027 4.2358384 -0.55679095
3.5337334 4.6028018 -0.55631632
3.8658452 5.0353885 -0.55539644
4.2583566 5.5466471 -0.55326647
4.7674637 6.2097754 -0.55398059
5.3783488 7.0054727 -0.55123669
6.1855254 8.0568466 -0.5492596
7.2912846 9.4971342 -0.54768938
8.8489542 11.526049 -0.54371578
11.257086 14.662718 -0.53787512
15.482321 20.166224 -0.52832782
24.792025 32.292412 -0.50756383
1.2605731 1.6844164 -0.56373161
1.2974005 1.7336261 -0.56095487
1.3444434 1.7964864 -0.56143659
1.3865054 1.8526908 -0.55860716
1.4426037 1.927651 -0.56007391
1.5034473 2.0089521 -0.56175476
1.5638739 2.0896962 -0.56159478
1.6310266 2.1794276 -0.56207985
1.6953069 2.2653208 -0.55975509
1.7684872 2.3631067 -0.55846804
1.8641529 2.4909382 -0.56193614
1.9536034 2.6104646 -0.5609591
2.043972 2.7312179 -0.55775732
2.1551385 2.8797619 -0.55744004
2.2836437 3.0514746 -0.55828238
2.4229138 3.2375715 -0.55804116
2.577575 3.4442346 -0.55726874
2.7658086 3.6957581 -0.55899721
2.9596641 3.9547937 -0.55656248
3.2016935 4.2782006 -0.55714226
3.4790292 4.6487851 -0.55666143
3.8056014 5.0851607 -0.55568278
4.2015119 5.6141887 -0.55480826
4.6851616 6.2604561 -0.55332047
5.2939386 7.0739226 -0.55145884
6.0990429 8.1497278 -0.55043715
7.1754937 9.5881138 -0.54780638
8.7219248 11.654503 -0.54467493
11.08384 14.810566 -0.53825831
15.259292 20.389931 -0.52923292
24.43317 32.64835 -0.50839764
1.2312615 1.6881269 -0.55986404
1.2729597 1.7452974 -0.5596242
1.3166639 1.8052182 -0.55906337
1.3783126 1.889742 -0.56462568
1.4160858 1.9415312 -0.5590052
1.4753083 2.0227284 -0.56049186
1.5332093 2.102114 -0.55982304
1.5966184 2.1890514 -0.55945623
1.6691666 2.2885187 -0.56037319
1.7458475 2.3936524 -0.56057107
1.817639 2.4920824 -0.55711007
1.9155804 2.6263654 -0.55927211
2.0196123 2.7689991 -0.56035894
2.1272004 2.916508 -0.55944753
2.2456288 3.0788798 -0.55820209
2.3850267 3.2700021 -0.55853379
2.5375667 3.4791429 -0.5578261
2.7072749 3.711822 -0.55634969
2.907387 3.9861867 -0.55590725
3.1493487 4.3179297 -0.55723071
3.4165618 4.6842933 -0.55584067
3.7389975 5.12637 -0.55511987
4.1276431 5.6592245 -0.55420119
4.605299 6.3141174 -0.55301636
5.207972 7.1404147 -0.55160832
6.0027885 8.2301512 -0.55084205
7.0578132 9.6766481 -0.54786479
8.5662317 11.744773 -0.54392976
10.923731 14.977033 -0.53938574
15.013669 20.584562 -0.5294528
24.067043 32.997234 -0.50918359
1.2140248 1.7082218 -0.56153512
1.2550406 1.765934 -0.56125045
1.2958459 1.8233501 -0.55970162
1.3466005 1.8947656 -0.56113684
1.3962743 1.9646603 -0.56067878
1.4499241 2.0401495 -0.56033641
1.5050173 2.1176696 -0.55899495
1.5743641 2.2152455 -0.56116062
1.6363701 2.3024926 -0.55882561
1.7193414 2.4192393 -0.56156963
1.7898878 2.5185032 -0.55805409
1.8828417 2.649296 -0.55918258
1.9800146 2.7860255 -0.55883521
2.0921628 2.9438264 -0.55971062
2.2082968 3.1072352 -0.55837762
2.3399494 3.29248 -0.55741644
2.4950857 3.5107684 -0.55793542
2.6604998 3.7435179 -0.55615491
2.8605227 4.0249648 -0.55636775
3.0929604 4.3520217 -0.55668014
3.3612258 4.7294908 -0.55625737
3.6718025 5.1664948 -0.55453378
4.0626121 5.7163925 -0.55486548
4.5355539 6.3818564 -0.55402267
5.1308513 7.2194834 -0.55280083
5.8974948 8.2982063 -0.5505017
6.9466538 9.7744503 -0.54852444
8.432107 11.864593 -0.54463577
10.735837 15.106109 -0.53923923
14.779644 20.796041 -0.53017777
23.695314 33.341042 -0.50995427
1.1943167 1.7250234 -0.56218809
1.2332957 1.7813231 -0.56127912
1.2725749 1.8380563 -0.55937022
1.3279781 1.9180787 -0.56316245
1.3762933 1.9878631 -0.56242824
1.4249579 2.0581522 -0.56042618
1.488269 2.1495962 -0.56254923
1.5500855 2.2388816 -0.5622772
1.6099445 2.3253396 -0.55952364
1.6843789 2.4328496 -0.55987883
1.7691059 2.5552261 -0.56132853
1.851742 2.6745822 -0.5596714
1.9532589 2.821209 -0.56103241
2.0542786 2.967118 -0.55929404
2.1780474 3.1458848 -0.56046784
2.3096259 3.3359315 -0.55992228
2.4451191 3.5316324 -0.55643088
2.6235139 3.7892988 -0.55812144
2.8168805 4.0685897 -0.55756783
3.0409596 4.3922405 -0.5569995
3.3031654 4.7709603 -0.55631554
3.6150777 5.2214737 -0.55562156
3.9877062 5.7596836 -0.5542661
4.4510088 6.4288592 -0.55330992
5.0363908 7.2743621 -0.55221915
5.8006644 8.3782482 -0.55103809
6.8274546 9.8613033 -0.54864562
8.292119 11.976806 -0.5450651
10.569053 15.265518 -0.54024953
14.534507 20.993061 -0.53060406
23.323631 33.687721 -0.51083153
1.1762447 1.7443655 -0.56373531
1.2109267 1.7957987 -0.56110609
1.251132 1.8554229 -0.5599311
1.2986932 1.925956 -0.56074417
1.3468503 1.9973727 -0.56039071
1.4042399 2.0824811 -0.56230652
1.455912 2.1591108 -0.56031173
1.5209923 2.2556245 -0.56174248
1.5812285 2.3449545 -0.55952263
1.65347 2.4520884 -0.55958498
1.7364535 2.5751526 -0.56097287
1.8129514 2.6885986 -0.55789727
1.9101856 2.8327963 -0.55862349
2.0125055 2.9845362 -0.55787045
2.1151297 3.1367273 -0.55416083
2.2587891 3.3497734 -0.55754149
2.4145648 3.5807886 -0.55945551
2.5740402 3.8172894 -0.55754006
2.7706044 4.1087933 -0.55836642
2.9943933 4.4406714 -0.5584296
3.2422898 4.8083005 -0.55597866
3.5488706 5.2629585 -0.55535042
3.9222529 5.8166828 -0.55506802
4.3754334 6.4887471 -0.55379182
4.9512382 7.3426628 -0.55274051
5.7066917 8.4629965 -0.5519551
6.7014594 9.9382334 -0.54829961
8.1428823 12.075856 -0.5449748
10.38049 15.394217 -0.54024607
14.308401 21.219292 -0.5318349
22.93947 34.019127 -0.51154089
1.1543795 1.758196 -0.56357503
1.1924062 1.8161131 -0.56282955
1.2346729 1.8804882 -0.5628711
1.2672166 1.9300542 -0.55735844
1.3304038 2.0262926 -0.5638721
1.3652029 2.079294 -0.556871
1.4353491 2.1861312 -0.56270105
1.4858732 2.2630827 -0.55900741
1.551998 2.3637953 -0.55942225
1.6220256 2.4704516 -0.55918169
1.7030843 2.5939095 -0.56045455
1.7821773 2.7143734 -0.5586561
1.881788 2.866087 -0.56058294
1.9793668 3.0147059 -0.558918
2.0960419 3.19241 -0.55940241
2.2192876 3.3801212 -0.55800837
2.3729722 3.614193 -0.56007326
2.5238714 3.8440225 -0.55686969
2.7052484 4.1202712 -0.55536371
2.9321203 4.4658122 -0.55701506
3.1891706 4.857317 -0.55706984
3.4890001 5.3139768 -0.55616474
3.8610511 5.8806353 -0.55659807
4.2949848 6.5415449 -0.55374861
4.8645525 7.4090338 -0.55319208
5.5900993 8.5140896 -0.55076259
6.5769076 10.017063 -0.54814553
8.0050001 12.192142 -0.54573923
10.201775 15.537973 -0.54084778
14.043118 21.388594 -0.53171003
22.564716 34.36755 -0.51256913
1.1266811 1.7628795 -0.56059307
1.169261 1.8295027 -0.56248081
1.2077479 1.889722 -0.56114733
1.2551991 1.9639672 -0.56265211
1.3024316 2.0378702 -0.56259471
1.3474817 2.1083586 -0.56017512
1.4100358 2.2062352 -0.56337023
1.458238 2.2816553 -0.55912358
1.5239453 2.3844652 -0.55983692
1.5964416 2.4978979 -0.56090832
1.6667427 2.6078954 -0.55900586
1.7508781 2.7395394 -0.55936217
1.848269 2.8919234 -0.56114864
1.9495196 3.0503469 -0.56103897
2.0501904 3.2078631 -0.55765057
2.1826239 3.415077 -0.55930609
2.3197067 3.629566 -0.55799311
2.4815226 3.8827538 -0.55801791
2.669086 4.176228 -0.55843997
2.8756111 4.4993706 -0.55674827
3.1303806 4.8979998 -0.55727887
3.4308879 5.3681931 -0.55738151
3.7793396 5.913404 -0.55525905
4.2181849 6.60005 -0.55426848
4.7785892 7.4768953 -0.55382973
5.4907074 8.5911226 -0.55133653
6.4607401 10.1089 -0.54878211
7.8630171 12.302995 -0.546332
10.008515 15.659983 -0.54076999
13.805031 21.600262 -0.53271174
22.183802 34.710236 -0.51357287
1.1125214 1.7888211 -0.56444949
1.1413335 1.8351479 -0.55985922
1.1874723 1.9093347 -0.56259274
1.2236377 1.9674848 -0.55930698
1.2742035 2.0487893 -0.56124115
1.3170948 2.1177542 -0.55832618
1.3818865 2.2219326 -0.56299704
1.4393722 2.3143637 -0.5627591
1.4950435 2.4038777 -0.56003606
1.5641122 2.5149331 -0.56037241
1.6318728 2.6238852 -0.55808985
1.7197098 2.7651181 -0.56022489
1.8108031 2.9115868 -0.56060112
1.9092537 3.0698855 -0.56027222
2.0171008 3.2432926 -0.55945557
2.1400604 3.440999 -0.55919945
2.2738628 3.6561399 -0.55773783
2.4333298 3.9125462 -0.55795723
2.6133378 4.2019806 -0.55754441
2.8200092 4.5342875 -0.55673599
3.0673668 4.9320135 -0.55681533
3.3572044 5.3980427 -0.55615246
3.708329 5.962615 -0.55555618
4.1337805 6.6466975 -0.55387533
4.6849895 7.5329862 -0.55367541
5.3821034 8.6538734 -0.5510748
6.3444409 10.201215 -0.54951692
7.7070036 12.392076 -0.54603821
9.8242292 15.796359 -0.54126686
13.547261 21.782616 -0.53306037
21.780844 35.021378 -0.51417488
1.0846486 1.7927878 -0.56145024
1.1180457 1.8479891 -0.55954027
1.1675664 1.9298404 -0.56436187
1.2075626 1.9959491 -0.56313497
1.2499484 2.0660076 -0.56170505
1.2939452 2.1387289 -0.55961889
1.3438398 2.2211981 -0.55858171
1.4025936 2.318311 -0.55948281
1.4663187 2.4236407 -0.56039733
1.529825 2.5286086 -0.55918574
1.6042886 2.6516874 -0.55976516
1.6816686 2.7795868 -0.5589245
1.771625 2.9282737 -0.55957729
1.8722098 3.0945275 -0.5605256
1.9682068 3.2531984 -0.55694741
2.1008611 3.4724596 -0.56007159
2.236119 3.6960239 -0.55958521
2.3842711 3.9409008 -0.55777764
2.5682251 4.2449536 -0.55901378
2.7696688 4.5779147 -0.55786884
3.0145972 4.9827504 -0.55831623
3.2863381 5.4319038 -0.55543578
3.6351817 6.0084987 -0.55562449
4.0564995 6.7048841 -0.55452555
4.585113 7.5786157 -0.55284345
5.2794013 8.7261868 -0.55150402
6.2200284 10.280925 -0.54964912
7.5610404 12.49745 -0.54654324
9.6456556 15.943057 -0.54218835
13.290291 21.96718 -0.53353739
21.383015 35.343437 -0.51500398
1.0684741 1.8161032 -0.56459469
1.102896 1.8746108 -0.56345201
1.135211 1.9295372 -0.56014866
1.1802752 2.0061336 -0.56187117
1.2250108 2.0821714 -0.56196171
1.2757527 2.1684182 -0.56324005
1.325527 2.2530205 -0.56244284
1.3762481 2.339232 -0.56040531
1.4333326 2.4362593 -0.55919749
1.503475 2.5554814 -0.56099778
1.5731791 2.6739588 -0.56034064
1.6530987 2.8097997 -0.56086987
1.7362415 2.9511187 -0.55982071
1.8205838 3.0944767 -0.55641931
1.9352447 3.2893677 -0.55902332
2.0548518 3.492666 -0.55921304
2.1880009 3.718982 -0.55894542
2.3388362 3.975359 -0.55854195
2.5134401 4.2721362 -0.55848116
2.7086768 4.6039834 -0.55694467
2.945045 5.0057421 -0.55679268
3.2316155 5.4928308 -0.55756032
3.5578356 6.0473127 -0.55512619
3.9804881 6.7657022 -0.5554654
4.4975128 7.6444979 -0.55357331
5.1767964 8.7990875 -0.55204654
6.0951343 10.360002 -0.54982829
7.4087701 12.592811 -0.54668814
9.4511471 16.064274 -0.54231739
13.03098 22.148975 -0.53402066
20.980608 35.661091 -0.51583439
1.0441837 1.8258169 -0.56358021
1.0754445 1.8804781 -0.56119835
1.1122539 1.9448416 -0.56057882
1.1516012 2.0136428 -0.55996591
1.1891997 2.0793858 -0.55722117
1.2412151 2.1703379 -0.55973196
1.2959695 2.2660789 -0.56168211
1.3482989 2.3575802 -0.56078666
1.4061992 2.4588223 -0.56036508
1.4717333 2.5734127 -0.56091893
1.5425587 2.6972547 -0.56120515
1.613009 2.8204415 -0.55899268
1.7059668 2.9829836 -0.56184363
1.7960653 3.1405261 -0.56068593
1.8907552 3.306097 -0.55787307
2.013917 3.5214527 -0.55981475
2.1389256 3.7400377 -0.55811483
2.2907639 4.0055356 -0.55878192
2.457417 4.2969384 -0.55773115
2.6511717 4.6357303 -0.55679935
2.8845544 5.0438137 -0.55703992
3.1592295 5.5240989 -0.55674887
3.4834108 6.0909491 -0.5551579
3.8920462 6.8054724 -0.55475944
4.4101129 7.7113423 -0.55444491
5.0697055 8.8646793 -0.55220878
5.9732437 10.444569 -0.55037665
7.2679 12.708352 -0.5477829
9.2579956 16.18815 -0.54261523
12.775258 22.338293 -0.53475726
20.582247 35.989273 -0.51688153
1.0102402 1.8179755 -0.55728322
1.0519658 1.8930627 -0.56105119
1.0961918 1.9726495 -0.56466615
1.1225078 2.0200064 -0.55785501
1.1720976 2.1092455 -0.56131816
1.2208982 2.1970644 -0.56271046
1.2668988 2.2798448 -0.56119043
1.3227311 2.3803177 -0.56228381
1.3753819 2.4750655 -0.56017023
1.4370149 2.5859771 -0.55976373
1.5024067 2.7036526 -0.5586502
1.5779077 2.8395202 -0.55888623
1.6611627 2.9893417 -0.55915159
1.7553351 3.1588092 -0.56005418
1.8565487 3.3409479 -0.55985934
1.967222 3.5401099 -0.55889297
2.0894387 3.7600443 -0.55722421
2.2356815 4.0232158 -0.55737114
2.4034882 4.325192 -0.55752009
2.6060734 4.6897535 -0.5593968
2.8172066 5.0696979 -0.55603069
3.0985923 5.5760651 -0.55810398
3.4087944 6.1342878 -0.55524564
3.8012633 6.8405547 -0.55376709
4.3139863 7.7632241 -0.55431926
4.9647861 8.93437 -0.55270529
5.8430314 10.514813 -0.55025059
7.1133718 12.800853 -0.54795837
9.0625267 16.308451 -0.54287124
12.508462 22.509575 -0.53513509
20.167406 36.29221 -0.51763159
0.99251115 1.8389685 -0.55993497
1.023464 1.8963193 -0.55824429
1.0644991 1.9723508 -0.56079143
1.1048501 2.0471148 -0.56154704
1.1486921 2.1283474 -0.56260014
1.1861315 2.1977167 -0.55909973
1.232071 2.2828357 -0.55815518
1.2899055 2.3899939 -0.56078035
1.3394023 2.4817038 -0.55790293
1.4042275 2.6018147 -0.559412
1.4686352 2.7211521 -0.55849236
1.5467148 2.8658214 -0.5602771
1.6315522 3.0230119 -0.56165445
1.7156451 3.1788228 -0.55981988
1.8158402 3.3644688 -0.56001681
1.9262797 3.5690958 -0.55968732
2.0533175 3.8044772 -0.56002492
2.1905332 4.0587163 -0.55851549
2.3516045 4.3571563 -0.55787081
2.5361681 4.6991243 -0.55675262
2.758431 5.1109424 -0.55679208
3.0233691 5.6018314 -0.55691987
3.3385634 6.1858377 -0.55615371
3.7380617 6.9260459 -0.55692476
4.2188311 7.8168364 -0.55440128
4.8556528 8.996767 -0.55282998
5.7154555 10.589849 -0.55045778
6.9550014 12.886533 -0.54792374
8.8761253 16.446077 -0.54377824
12.252017 22.701078 -0.53606558
19.760754 36.613598 -0.51871055
0.97309083 1.8572661 -0.56182051
1.0016743 1.9118214 -0.55913967
1.0483284 2.0008664 -0.56519127
1.079626 2.0606017 -0.56156254
1.1173481 2.1325994 -0.56004989
1.1597248 2.2134807 -0.55943984
1.2027004 2.2955048 -0.55759472
1.2630996 2.4107842 -0.56197172
1.312237 2.5045693 -0.5593735
1.3817811 2.6373026 -0.56334645
1.4402316 2.7488627 -0.56050259
1.5121467 2.886122 -0.56056839
1.5904397 3.0355539 -0.56030881
1.678853 3.2043018 -0.56062901
1.7748307 3.3874874 -0.56017327
1.8818918 3.5918272 -0.5595808
2.0022287 3.8215051 -0.55886507
2.1490717 4.1017733 -0.56076163
2.3043616 4.3981638 -0.55945092
2.4903746 4.7531929 -0.55948818
2.7032843 5.1595573 -0.55842471
2.9517345 5.6337562 -0.55644321
3.2646866 6.2310643 -0.55656862
3.64733 6.9613876 -0.55611825
4.1206503 7.864779 -0.55416596
4.736577 9.0403528 -0.55188751
5.5862336 10.662028 -0.55059755
6.8029027 12.984195 -0.54847795
8.679513 16.565941 -0.54417145
11.986306 22.877371 -0.53670758
19.337336 36.907734 -0.51946968
0.94983065 1.8684009 -0.56161326
0.98415977 1.9359292 -0.56260854
1.0130548 1.9927685 -0.55934274
1.051932 2.0692432 -0.56035012
1.0966324 2.1571729 -0.56291944
1.138938 2.2403915 -0.5626592
1.1835561 2.3281596 -0.56194913
1.2395507 2.4383059 -0.5647915
1.2855061 2.5287042 -0.56119102
1.3458865 2.6474776 -0.56194228
1.4113653 2.7762802 -0.56251186
1.4732211 2.8979561 -0.55930614
1.5465268 3.0421548 -0.55797487
1.6359394 3.2180374 -0.55947036
1.734805 3.4125149 -0.56074196
1.8367995 3.613147 -0.55934125
1.9519511 3.8396606 -0.55796784
2.0884216 4.10811 -0.55807489
2.2481644 4.422338 -0.55896729
2.424058 4.7683363 -0.55771995
2.6309311 5.1752744 -0.55658227
2.8844438 5.6739559 -0.55686837
3.1882999 6.2716675 -0.55665141
3.5577984 6.9985037 -0.5555464
4.0221186 7.9118629 -0.55395681
4.6307831 9.1091595 -0.5525701
5.456625 10.733664 -0.55079019
6.6368132 13.055199 -0.54798853
8.4850225 16.69079 -0.5448041
11.709574 23.033768 -0.5369581
18.916422 37.210274 -0.52041471
0.92549276 1.8773153 -0.56082964
0.96362442 1.9546634 -0.56456673
0.99502748 2.018363 -0.56304991
1.0293764 2.088038 -0.56196952
1.0651078 2.1605172 -0.56033206
1.1074122 2.2463298 -0.56068832
1.1547071 2.3422651 -0.56188416
1.2012501 2.4366751 -0.56094986
1.2573404 2.5504518 -0.56254369
1.3083106 2.6538422 -0.55983615
1.3676029 2.7741134 -0.55862337
1.4363499 2.9135633 -0.55886728
1.5141441 3.0713649 -0.55987513
1.6038982 3.2534263 -0.56215155
1.6902268 3.4285398 -0.55991769
1.792329 3.6356487 -0.55937058
1.9128981 3.8802171 -0.5604009
2.0402362 4.1385159 -0.55875516
2.1974092 4.4573336 -0.55993295
2.3676398 4.8026381 -0.55828452
2.5715494 5.216258 -0.55754709
2.8167312 5.7135973 -0.55731755
3.1108336 6.3101687 -0.55663145
3.4727187 7.0442348 -0.55574483
3.9364624 7.9849153 -0.55564058
4.5184679 9.1654835 -0.55257457
5.3288584 10.809319 -0.55126834
6.4852805 13.155064 -0.54879153
8.2815609 16.798727 -0.54496217
11.435102 23.195528 -0.5374105
18.491919 37.509926 -0.52138597
0.90997648 1.9045353 -0.56557584
0.93920851 1.9657165 -0.56438082
0.96472323 2.0191174 -0.55990875
1.0008688 2.0947683 -0.56042624
1.0460589 2.1893489 -0.56443089
1.0771886 2.2545018 -0.55937964
1.1254429 2.3554957 -0.56169575
1.1714253 2.4517345 -0.56105822
1.2250639 2.5639975 -0.56216633
1.2794609 2.6778476 -0.56153888
1.3395112 2.8035297 -0.56118762
1.3983244 2.9266229 -0.55803192
1.4798059 3.0971599 -0.56121784
1.5610173 3.2671311 -0.5611605
1.6533593 3.4603982 -0.5617578
1.7427745 3.6475399 -0.55786079
1.8539498 3.880224 -0.55706733
1.9906647 4.1663613 -0.55916756
2.1406548 4.4802837 -0.55946708
2.3081458 4.8308334 -0.55822068
2.5050178 5.242877 -0.55705774
2.7456384 5.7464838 -0.55719006
3.0348389 6.3517661 -0.55696684
3.3849995 7.0846343 -0.55560625
3.8349686 8.0263977 -0.55520374
4.4087801 9.227356 -0.55299455
5.1994243 10.882134 -0.55167955
6.3306427 13.249718 -0.54945123
8.0761938 16.90307 -0.54508424
11.159242 23.355736 -0.53790241
18.062244 37.803371 -0.52233815
0.88095963 1.9036287 -0.56204718
0.90878612 1.9637579 -0.56056768
0.94562829 2.0433683 -0.56336659
0.97835326 2.1140826 -0.56233239
1.0186399 2.2011364 -0.5641979
1.0567224 2.283427 -0.56328988
1.0947158 2.3655255 -0.56083512
1.142223 2.4681818 -0.56156546
1.1917522 2.5752075 -0.5613687
1.250217 2.7015412 -0.563241
1.3079411 2.8262749 -0.56247872
1.3667839 2.9534261 -0.55989569
1.4418602 3.1156552 -0.56131411
1.518298 3.2808266 -0.56026375
1.6046414 3.4674022 -0.55964941
1.7015874 3.6768889 -0.55910712
1.8113542 3.9140792 -0.55868787
1.941071 4.1943789 -0.55968207
2.0806167 4.4959173 -0.5581823
2.2492428 4.8602943 -0.5583868
2.4456348 5.2846699 -0.55826086
2.6789935 5.7889247 -0.55806887
2.9546261 6.3845272 -0.55661172
3.2992616 7.1292362 -0.55588049
3.734652 8.0700531 -0.55500489
4.3026342 9.2973824 -0.55397862
5.0730672 10.962178 -0.55253321
6.1688027 13.329907 -0.54958946
7.8790951 17.025606 -0.54587013
10.893809 23.539976 -0.53901982
17.631786 38.099789 -0.52339852
0.85689259 1.91299 -0.56165767
0.88318878 1.9716954 -0.55969107
0.9223547 2.0591323 -0.56454313
0.95738697 2.137341 -0.56534487
0.9853006 2.1996574 -0.56067097
1.0200043 2.2771323 -0.55860078
1.0669214 2.3818736 -0.56155813
1.1067712 2.4708374 -0.55903095
1.1549416 2.5783763 -0.5589214
1.2109236 2.7033548 -0.56047231
1.2673308 2.8292823 -0.55993342
1.3274288 2.9634495 -0.55865932
1.408901 3.145334 -0.5634973
1.4780033 3.299603 -0.56032419
1.5580348 3.4782712 -0.55826926
1.6584587 3.7024651 -0.5598529
1.767258 3.9453566 -0.56000811
1.8928095 4.225647 -0.56070626
2.0273042 4.5259027 -0.55876786
2.1899891 4.8890924 -0.5585593
2.384717 5.3238173 -0.55925632
2.601238 5.8071947 -0.55670452
2.8779659 6.4249825 -0.55701131
3.2202394 7.1890988 -0.55741847
3.6443248 8.1358585 -0.55640662
4.1853657 9.3437176 -0.55363107
4.9365478 11.020711 -0.55238211
6.0077944 13.412241 -0.54989666
7.6710029 17.125309 -0.54600126
10.613125 23.69352 -0.53950655
17.192295 38.38134 -0.52432257
0.83187509 1.9200772 -0.56069285
0.86380249 1.9937699 -0.56289953
0.89120966 2.0570292 -0.56091964
0.92032987 2.1242425 -0.55884457
0.9571557 2.2092414 -0.56007153
0.99415052 2.2946303 -0.55985206
1.0362128 2.3917155 -0.56083208
1.0816061 2.4964893 -0.56178313
1.1307782 2.6099849 -0.5627166
1.1840481 2.7329388 -0.56354469
1.2333966 2.8468418 -0.56036466
1.2945515 2.9879954 -0.56024337
1.3579377 3.134299 -0.55848664
1.43917 3.3217938 -0.56104499
1.5238277 3.517195 -0.56146669
1.6227731 3.745574 -0.56331152
1.7195026 3.9688382 -0.56029761
1.8382982 4.2430344 -0.55997163
1.9743216 4.5569944 -0.55956686
2.1329143 4.9230471 -0.55939984
2.3175087 5.3491149 -0.55887794
2.5309169 5.8416896 -0.5569858
2.7999814 6.4627256 -0.5572564
3.1258473 7.2148676 -0.55639416
3.5427468 8.1771259 -0.5562076
4.0718904 9.3984585 -0.55386603
4.8072042 11.09566 -0.55313408
5.8474703 13.496732 -0.55037111
7.4701834 17.242167 -0.54675698
10.332139 23.847937 -0.54008895
16.750471 38.662292 -0.52530712
0.81020176 1.934932 -0.56207895
0.83716142 1.9993173 -0.56151694
0.8704254 2.0787585 -0.56388372
0.89935637 2.1478519 -0.56210387
0.9318015 2.2253377 -0.56120497
0.96324456 2.3004303 -0.55833507
1.0078241 2.4068956 -0.56144327
1.047318 2.5012152 -0.5599063
1.0997163 2.6263535 -0.56328762
1.1431655 2.730119 -0.56002229
1.2036035 2.8744578 -0.56284481
1.2561698 2.9999971 -0.55955523
1.3256927 3.1660323 -0.56119394
1.3921335 3.3247073 -0.55860358
1.4799569 3.5344477 -0.56127334
1.5636022 3.7342105 -0.55866867
1.6755799 4.001637 -0.56197673
1.780004 4.2510233 -0.55809522
1.9215401 4.5890412 -0.56055826
2.0746598 4.9547238 -0.56005806
2.2498829 5.3731933 -0.55846095
2.4602325 5.8755517 -0.55728787
2.729223 6.5179577 -0.55908281
3.044776 7.2715645 -0.55783701
3.438554 8.2119894 -0.5556609
3.9594045 9.4558897 -0.55433941
4.6702995 11.153656 -0.55312061
5.6838417 13.574207 -0.55063879
7.2645049 17.349163 -0.54727596
10.048428 23.997755 -0.54064274
16.303379 38.93589 -0.52626091
0.78828865 1.9495434 -0.563465
0.81782383 2.0225878 -0.56518549
0.83870137 2.0742207 -0.5598129
0.87022018 2.1521709 -0.56039143
0.90448809 2.2369201 -0.5612787
0.94103831 2.3273137 -0.56200898
0.98303115 2.4311676 -0.56424272
1.0130749 2.5054698 -0.55802792
1.0698222 2.6458137 -0.56459719
1.1107386 2.7470055 -0.56064212
1.1601372 2.8691745 -0.55897468
1.2270153 3.0345728 -0.56314749
1.2875825 3.1843641 -0.56159443
1.3551939 3.3515759 -0.56027573
1.4345797 3.5479076 -0.56056714
1.5234795 3.7677686 -0.56084424
1.622508 4.0126796 -0.56068331
1.7336631 4.287581 -0.56005359
1.8648942 4.612133 -0.56053543
2.0121179 4.9762368 -0.55965084
2.1856396 5.4053798 -0.55897063
2.3928938 5.9179468 -0.55847597
2.6442673 6.5396271 -0.55811036
2.9535565 7.3045406 -0.55753845
3.3393137 8.2585697 -0.55599231
3.8482041 9.5171242 -0.55511326
4.5333304 11.211534 -0.55318457
5.5154386 13.640419 -0.55053186
7.056294 17.45116 -0.54771495
9.7624493 24.143845 -0.5411886
15.854742 39.210899 -0.52730304
0.7602576 1.948833 -0.5605154
0.78230214 2.0053415 -0.55763602
0.81434393 2.087477 -0.5606457
0.84333843 2.1618011 -0.56015635
0.87662995 2.2471399 -0.56109583
0.90818214 2.3280206 -0.55944061
0.94973987 2.4345491 -0.56227458
0.98783064 2.5321903 -0.56123137
1.0253409 2.6283436 -0.55813658
1.0714792 2.7466137 -0.55783099
