# .PCD v0.7 - Point Cloud Data file format
VERSION 0.7
FIELDS x y z
SIZE 4 4 4
TYPE F F F
COUNT 1 1 1
WIDTH 1464
HEIGHT 1
VIEWPOINT 0 0 0 1 0 0 0
POINTS 1464
DATA ascii
-4.5129356 8.0049839 -0.57355112
-5.2297006 9.276372 -0.57583982
-6.2052622 11.006809 -0.57798183
-7.6256671 13.526304 -0.58100736
-9.878356 17.522093 -0.58528042
-14.041052 24.905827 -0.59414285
-24.284538 43.075584 -0.61649895
-1.0618565 1.8305234 -0.56703657
-1.0946277 1.8870173 -0.56514668
-1.1425236 1.9695846 -0.56972373
-1.1751801 2.0258808 -0.56536674
-1.2186408 2.1008022 -0.56495637
-1.2666491 2.1835632 -0.56513965
-1.3204548 2.2763183 -0.56622076
-1.3707106 2.3629537 -0.56405789
-1.4382542 2.4793916 -0.56705648
-1.5092725 2.601819 -0.56912148
-1.5762427 2.7172685 -0.56737399
-1.6526161 2.8489277 -0.56664062
-1.7463505 3.0105155 -0.56903982
-1.8342042 3.1619654 -0.56651521
-1.9498732 3.361366 -0.56921041
-2.0730274 3.5736704 -0.57013041
-2.2001722 3.7928541 -0.56800342
-2.3610837 4.0702477 -0.56982279
-2.5316243 4.3642406 -0.56847537
-2.7380099 4.720027 -0.5689345
-2.9873304 5.1498275 -0.57076484
-3.2680001 5.6336718 -0.5698055
-3.6184249 6.2377648 -0.57055533
-4.0669236 7.0109272 -0.57353389
-4.61307 7.9524236 -0.57380611
-5.3458881 9.2157211 -0.57611191
-6.3307619 10.913535 -0.57712805
-7.7902851 13.429591 -0.58092397
-10.102661 17.415873 -0.58583754
-14.372808 24.777134 -0.59524399
-24.86216 42.859619 -0.61773676
-1.0811491 1.8120755 -0.56539738
-1.1175939 1.8731593 -0.56506938
-1.1597655 1.9438415 -0.56635958
-1.2042964 2.0184782 -0.56739062
-1.2458562 2.088135 -0.56562698
-1.2979412 2.1754329 -0.56712329
-1.3552967 2.2715645 -0.56914067
-1.4086223 2.3609416 -0.56766933
-1.465086 2.4555783 -0.56568766
-1.5303925 2.5650363 -0.56514925
-1.6141983 2.7055001 -0.56901824
-1.6891594 2.8311398 -0.56719095
-1.7777343 2.9795969 -0.5672847
-1.8826802 3.155493 -0.56946027
-1.9874551 3.3311026 -0.56818104
-2.1145384 3.5441024 -0.56951839
-2.2491555 3.7697294 -0.56863916
-2.403533 4.0284758 -0.56806952
-2.5847008 4.3321252 -0.568389
-2.7972403 4.6883545 -0.56921977
-3.0382359 5.092279 -0.56848425
-3.3471534 5.6100445 -0.57153547
-3.7059896 6.2114768 -0.57227582
-4.1514654 6.9581232 -0.57334697
-4.711556 7.8968711 -0.57393467
-5.4559612 9.1445417 -0.5758127
-6.4708233 10.845515 -0.57769507
-7.9536057 13.330754 -0.58083522
-10.325038 17.305428 -0.58634883
-14.692196 24.625065 -0.59588581
-25.443102 42.644276 -0.6190955
-1.1056627 1.8024187 -0.56658357
-1.1330395 1.8470477 -0.56135285
-1.1788009 1.9216466 -0.5640735
-1.2363323 2.0154326 -0.57076484
-1.2750622 2.0785687 -0.56723982
-1.3195498 2.1510911 -0.56496477
-1.3827803 2.2541676 -0.56899905
-1.43135 2.3333447 -0.56522304
-1.4998513 2.4450135 -0.56745964
-1.564342 2.5501442 -0.56606352
-1.6448559 2.6813955 -0.56815952
-1.7256864 2.8131633 -0.56779784
-1.8140221 2.9571652 -0.56721789
-1.9086188 3.1113741 -0.56569099
-2.0329909 3.3141217 -0.56950563
-2.1575637 3.5171969 -0.56941503
-2.2896676 3.7325487 -0.56723475
-2.4549053 4.0019145 -0.56853771
-2.6435826 4.3094902 -0.56964123
-2.8599296 4.6621733 -0.57026762
-3.1130137 5.0747433 -0.57075685
-3.4190047 5.5735607 -0.57205838
-3.7804718 6.1628137 -0.57203203
-4.2345042 6.9029641 -0.57304907
-4.813992 7.8476281 -0.57461452
-5.56464 9.071312 -0.57546669
-6.609467 10.774558 -0.57820088
-8.1275663 13.24932 -0.58159757
-10.546191 17.192091 -0.58685821
-15.006052 24.462425 -0.59637022
-26.019951 42.416958 -0.62039346
-1.1291777 1.7909667 -0.56730545
-1.1612278 1.8418008 -0.56405526
-1.2046515 1.9106742 -0.56515813
-1.2479271 1.9793128 -0.56483877
-1.300074 2.062022 -0.56704402
-1.346047 2.134939 -0.56502694
-1.4062996 2.2305043 -0.567348
-1.4721262 2.3349106 -0.56994432
-1.5394281 2.4416571 -0.5710308
-1.5876079 2.518074 -0.56323552
-1.6793352 2.6635609 -0.56871307
-1.7595425 2.790776 -0.56760335
-1.8483051 2.9315608 -0.56662327
-1.9560245 3.1024125 -0.56839162
-2.0699742 3.2831457 -0.56851363
-2.1980102 3.4862211 -0.56873292
-2.3367712 3.7063076 -0.56757069
-2.5113444 3.9831946 -0.57022226
-2.6953676 4.2750702 -0.5694294
-2.9233747 4.6367078 -0.5715065
-3.1747823 5.0354605 -0.57068622
-3.4818914 5.5225601 -0.5711751
-3.8522444 6.1099701 -0.57148069
-4.3139772 6.8423157 -0.5723747
-4.9062347 7.7816834 -0.57415998
-5.6904297 9.0254793 -0.57695442
-6.7511001 10.707788 -0.57902884
-8.2938595 13.15473 -0.58187819
-10.762392 17.070021 -0.5871644
-15.329345 24.313576 -0.59729165
-26.598778 42.187801 -0.62177861
-1.1317532 1.747062 -0.55776423
-1.1845679 1.8285908 -0.56442785
-1.2367072 1.909077 -0.56914079
-1.2680224 1.9574176 -0.56299752
-1.3254273 2.0460322 -0.56708592
-1.3732237 2.1198144 -0.56545031
-1.4377553 2.2194304 -0.5689851
-1.4910535 2.3017056 -0.56627166
-1.5564053 2.4025877 -0.56632668
-1.6284355 2.5137792 -0.56671101
-1.7134861 2.6450698 -0.56922066
-1.7892349 2.7620015 -0.56618291
-1.8863788 2.9119604 -0.56727529
-1.9906377 3.0729024 -0.5674268
-2.1116345 3.2596824 -0.56890392
-2.2461345 3.4673071 -0.57010996
-2.3834279 3.6792438 -0.56787145
-2.5628309 3.9561841 -0.57082379
-2.7480998 4.2421794 -0.56950641
-2.9689295 4.5830693 -0.56935197
-3.2430909 5.0062861 -0.57185614
-3.5491931 5.4788094 -0.57112074
-3.9324086 6.0703702 -0.57225627
-4.4078717 6.8043323 -0.57368797
-5.017437 7.7453046 -0.57598448
-5.7948313 8.9453506 -0.57634366
-6.8802729 10.620922 -0.57886273
-8.4562988 13.053799 -0.5819692
-10.980056 16.949663 -0.58762419
-15.642911 24.147608 -0.59789461
-27.17094 41.943169 -0.62305015
-1.1743389 1.76486 -0.56801367
-1.2153872 1.8265496 -0.5683679
-1.255193 1.886372 -0.56693035
-1.2932992 1.9436401 -0.56356627
-1.3457155 2.0224142 -0.5650835
-1.3966676 2.0989876 -0.56443334
-1.465129 2.2018752 -0.56906021
-1.5269935 2.2948484 -0.56916112
-1.5883985 2.3871312 -0.56724441
-1.6670066 2.5052676 -0.56937027
-1.7416191 2.6173995 -0.5678317
-1.8282909 2.7476547 -0.56780756
-1.9233477 2.890511 -0.56766117
-2.0272222 3.0466192 -0.56713361
-2.1566663 3.2411549 -0.57025558
-2.2854481 3.4346952 -0.56932557
-2.4334426 3.6571093 -0.56903046
-2.6077158 3.9190166 -0.57004458
-2.8072698 4.2189169 -0.57097447
-3.0351098 4.561327 -0.57124418
-3.3033772 4.9644942 -0.571679
-3.6166224 5.435256 -0.57117325
-4.0102539 6.0268264 -0.57275677
-4.4869957 6.7432995 -0.57315075
-5.1105719 7.6804442 -0.57579082
-5.9036417 8.8723116 -0.57627141
-7.0225472 10.553864 -0.57987046
-8.6259327 12.963519 -0.58262902
-11.19157 16.819298 -0.58783114
-15.950648 23.971497 -0.59834522
-27.741358 41.691212 -0.62432748
-1.1905483 1.7423819 -0.56544811
-1.2406088 1.8156462 -0.56967896
-1.2752242 1.8663062 -0.56556976
-1.3211716 1.933551 -0.56530869
-1.3742601 2.0112464 -0.56664187
-1.4287976 2.0910628 -0.56698388
-1.4834206 2.1710041 -0.56575328
-1.5583785 2.2807059 -0.57036304
-1.6204659 2.3715715 -0.56823903
-1.6913761 2.4753494 -0.5672546
-1.7769994 2.6006601 -0.56889766
-1.8570549 2.7178226 -0.56631881
-1.9598424 2.8682535 -0.56797987
-2.0695164 3.0287626 -0.56850374
-2.1811416 3.1921275 -0.56630564
-2.3187661 3.3935425 -0.56718749
-2.4728317 3.6190195 -0.56779218
-2.6587684 3.89114 -0.57070208
-2.8426638 4.1602731 -0.56772554
-3.0843725 4.5140171 -0.57002592
-3.3542151 4.9089351 -0.5699876
-3.6869352 5.395875 -0.57175583
-4.0861979 5.9802003 -0.57305741
-4.5729132 6.6925139 -0.57357019
-5.2037807 7.615797 -0.5756979
-6.0121117 8.7987986 -0.57625479
-7.1434817 10.454573 -0.57919747
-8.7900143 12.864293 -0.5829832
-11.420533 16.71409 -0.58901769
-16.267733 23.808025 -0.59921259
-28.309525 41.431335 -0.62560141
-1.2116034 1.7272149 -0.56531823
-1.2550309 1.7891234 -0.56615645
-1.2955343 1.8468636 -0.56446278
-1.3488556 1.9228764 -0.56699419
-1.4014006 1.9977825 -0.56766069
-1.4592278 2.0802188 -0.56886584
-1.5149108 2.1595981 -0.56759238
-1.5769463 2.2480335 -0.56699872
-1.6495582 2.3515463 -0.56825799
-1.7262666 2.4608989 -0.56876451
-1.8017097 2.5684476 -0.56665462
-1.8963987 2.7034326 -0.56813645
-1.9929645 2.8410931 -0.56741142
-2.1083694 3.00561 -0.56898123
-2.2365346 3.1883171 -0.57046545
-2.3743594 3.3847947 -0.57056206
-2.5239105 3.5979893 -0.56931883
-2.7018838 3.851701 -0.56974739
-2.912524 4.1519814 -0.57143813
-3.1320314 4.4649029 -0.56864423
-3.418514 4.873301 -0.57068783
-3.7559216 5.3542967 -0.57220072
-4.1549664 5.9231591 -0.57244402
-4.658062 6.6403532 -0.57396531
-5.2903271 7.5416851 -0.57496959
-6.1200833 8.7245541 -0.57627743
-7.275763 10.372046 -0.57953811
-8.9575691 12.769565 -0.58363777
-11.63529 16.586821 -0.58953005
-16.575058 23.628761 -0.59978515
-28.860561 41.142498 -0.62655133
-1.2366663 1.7176281 -0.56711471
-1.2709185 1.7652014 -0.5634892
-1.3118458 1.8220462 -0.56176543
-1.3763301 1.9116096 -0.56861931
-1.4331727 1.9905592 -0.57057256
-1.4743749 2.0477858 -0.56491166
-1.546204 2.1475503 -0.56937993
-1.6130136 2.2403436 -0.57001865
-1.6862261 2.3420298 -0.57092571
-1.7544085 2.4367294 -0.56812149
-1.8318806 2.5443318 -0.56626099
-1.9289652 2.6791744 -0.56798029
-2.0355415 2.8272002 -0.56959265
-2.1456187 2.9800885 -0.56910139
-2.2700133 3.1528625 -0.56907308
-2.4058902 3.3415842 -0.56822217
-2.5671458 3.5655549 -0.56913853
-2.7415278 3.8077571 -0.56819081
-2.9556742 4.1051888 -0.56995702
-3.1978617 4.4415674 -0.57063717
-3.4871726 4.8433967 -0.57216406
-3.8192701 5.3046527 -0.57187104
-4.2336421 5.8801813 -0.57327831
-4.7451134 6.5905728 -0.57466245
-5.395009 7.4932251 -0.57628912
-6.2317796 8.6554308 -0.5767296
-7.4125638 10.295444 -0.58030701
-9.1193972 12.666095 -0.58398974
-11.842148 16.447773 -0.58971894
-16.888418 23.456627 -0.60064173
-29.431309 40.877674 -0.62798226
-1.2551682 1.6988767 -0.56597668
-1.3079486 1.7703154 -0.57021266
-1.3453164 1.8208928 -0.5664674
-1.3933325 1.8858829 -0.56602031
-1.4450705 1.9559104 -0.56569147
-1.5010798 2.0317194 -0.56552869
-1.5544559 2.1039643 -0.56284916
-1.6301527 2.2064202 -0.56644475
-1.7033609 2.3055079 -0.56708568
-1.7817824 2.4116518 -0.56733996
-1.864457 2.5235524 -0.56669593
-1.9592899 2.6519094 -0.56726474
-2.0598745 2.7880509 -0.56676549
-2.1761672 2.9454536 -0.56755447
-2.3048048 3.1195652 -0.56813556
-2.4512131 3.3177299 -0.5692482
-2.614239 3.5383861 -0.5698899
-2.7985425 3.7878418 -0.57031095
-3.0049183 4.067173 -0.56976593
-3.2589068 4.4109473 -0.57180846
-3.5452843 4.7985611 -0.57197416
-3.8918884 5.2676916 -0.57300228
-4.3078275 5.830667 -0.57357198
-4.8218484 6.5263972 -0.57419318
-5.4785662 7.4152679 -0.57543117
-6.348269 8.5924158 -0.57768846
-7.5358696 10.199839 -0.58009744
-9.2736282 12.551905 -0.58393836
-12.042741 16.299913 -0.5896824
-17.198845 23.278727 -0.60145622
-29.992977 40.595654 -0.62926793
-1.2799414 1.6885654 -0.56774187
-1.3180676 1.7388633 -0.5652597
-1.3706745 1.8082652 -0.56773943
-1.4152828 1.8671147 -0.56556779
-1.4704995 1.9399595 -0.56626499
-1.5275939 2.0152812 -0.56613886
-1.5905929 2.0983927 -0.56654817
-1.6618521 2.1924019 -0.56804913
-1.7336949 2.2871807 -0.56777847
-1.8094541 2.387126 -0.56676173
-1.8934202 2.4978983 -0.56612056
-2.0019529 2.6410804 -0.570171
-2.098552 2.7685189 -0.56799769
-2.2143266 2.9212549 -0.56809533
-2.3393688 3.0862172 -0.56725818
-2.4969089 3.2940521 -0.57041049
-2.6603377 3.509656 -0.57048815
-2.8446202 3.7527711 -0.57025397
-3.0617585 4.0392313 -0.57108259
-3.3036947 4.3584061 -0.57022041
-3.6077049 4.7594719 -0.57255942
-3.9540012 5.2163243 -0.57266015
-4.3733382 5.7695351 -0.57280511
-4.9140224 6.4828339 -0.57563317
-5.5772805 7.3578386 -0.576253
-6.4602757 8.5227318 -0.5783006
-7.6672707 10.115063 -0.58059406
-9.4271536 12.436791 -0.5839318
-12.251564 16.162901 -0.59013116
-17.486881 23.069605 -0.60156333
-30.546106 40.298012 -0.63042885
-1.2936174 1.6637114 -0.56469095
-1.3361844 1.7184566 -0.56392449
-1.394537 1.7935033 -0.56844556
-1.44462 1.8579149 -0.56811893
-1.5011801 1.9306562 -0.56889457
-1.5472741 1.9899375 -0.5643214
-1.6160132 2.0783422 -0.56645697
-1.6901088 2.173636 -0.56852859
-1.7573202 2.260076 -0.56637138
-1.8446476 2.3723874 -0.56860483
-1.931299 2.4838288 -0.56827116
-2.0263529 2.6060772 -0.56795061
-2.1393025 2.7513406 -0.56982732
-2.2502441 2.8940217 -0.56813735
-2.3893275 3.072896 -0.57016677
-2.5338509 3.2587664 -0.5696525
-2.7051105 3.479022 -0.57087243
-2.8953938 3.7237439 -0.57121003
-3.121695 4.0147882 -0.57301056
-3.3537264 4.3132019 -0.56965858
-3.6592157 4.7060895 -0.57150728
-4.0171633 5.1664433 -0.57256377
-4.449666 5.722682 -0.5735423
-4.9810719 6.4061184 -0.57421649
-5.6573105 7.2758236 -0.57523447
-6.5579977 8.4341908 -0.57772082
-7.7903552 10.019116 -0.58054143
-9.5916882 12.335797 -0.58468342
-12.46487 16.030975 -0.59086597
-17.805161 22.89908 -0.60278028
-31.107733 40.00742 -0.63181913
-1.327226 1.6642953 -0.57038534
-1.3627018 1.7087805 -0.56620514
-1.4141345 1.7732755 -0.56750286
-1.4678937 1.8406876 -0.56832755
-1.5141217 1.8986559 -0.56490868
-1.5743903 1.9742306 -0.56531447
-1.6361481 2.0516729 -0.5646289
-1.7217125 2.1589675 -0.57018632
-1.7777662 2.2292569 -0.56408364
-1.8676941 2.3420234 -0.56678891
-1.9615722 2.4597433 -0.56823617
-2.0544224 2.5761743 -0.56689638
-2.1644106 2.7140956 -0.56758267
-2.2816944 2.8611653 -0.5671522
-2.425174 3.0410838 -0.5697543
-2.573571 3.2271686 -0.56961781
-2.7448356 3.4419281 -0.57028091
-2.9343736 3.6796024 -0.56993073
-3.1695454 3.9744995 -0.57277972
-3.4131732 4.2800002 -0.57077348
-3.716083 4.6598392 -0.57139659
-4.0816598 5.1182594 -0.57274276
-4.5209384 5.6690998 -0.57370031
-5.0678358 6.3548899 -0.57516688
-5.7578592 7.2201548 -0.57638729
-6.6632314 8.3554602 -0.57789654
-7.9177566 9.9285908 -0.58089358
-9.7586708 12.237033 -0.5856455
-12.667124 15.884132 -0.59114999
-18.109722 22.708961 -0.60359192
-31.652084 39.690613 -0.63291466
-1.3416553 1.6405945 -0.56787372
-1.387712 1.6969132 -0.56788415
-1.4355323 1.7553886 -0.56738484
-1.4830328 1.8134729 -0.56551254
-1.5411263 1.8845104 -0.56629544
-1.5971515 1.9530188 -0.56482148
-1.6741803 2.0472107 -0.56902331
-1.7393301 2.1268766 -0.56731665
-1.8171858 2.2220798 -0.56787872
-1.8980364 2.320945 -0.56729311
-1.9949665 2.4394724 -0.56917733
-2.0922091 2.558382 -0.56859946
-2.2012229 2.6916854 -0.56851363
-2.3195851 2.8364208 -0.56785816
-2.4632018 3.0120368 -0.56994385
-2.6132479 3.1955154 -0.56965959
-2.784935 3.4054568 -0.56986892
-2.984158 3.6490695 -0.57084197
-3.2074878 3.9221601 -0.57087767
-3.4744623 4.24862 -0.57224298
-3.7755742 4.6168242 -0.57177162
-4.1374059 5.0592771 -0.57179236
-4.5948935 5.6186991 -0.57427424
-5.1459999 6.2925997 -0.57521278
-5.8490562 7.1523061 -0.57666892
-6.7768784 8.2868605 -0.57887167
-8.0373993 9.8282423 -0.5807609
-9.9064665 12.113764 -0.58553165
-12.878942 15.748547 -0.59195304
-18.406847 22.508146 -0.60422462
-32.194439 39.367802 -0.63403189
-1.3597746 1.621647 -0.56705999
-1.4128749 1.6849738 -0.56965959
-1.4578669 1.7386305 -0.56771958
-1.5078048 1.7981856 -0.56648427
-1.5667514 1.8684845 -0.56722605
-1.6316881 1.9459271 -0.56853014
-1.6959389 2.0225518 -0.56792283
-1.7641209 2.1038647 -0.56692177
-1.8503608 2.206713 -0.56972325
-1.9326799 2.3048854 -0.56913352
-2.0237906 2.4135427 -0.56889069
-2.1164536 2.5240514 -0.56671065
-2.2409184 2.6724861 -0.57023543
-2.3564065 2.8102155 -0.56836981
-2.5046136 2.9869652 -0.57098424
-2.6559968 3.1675026 -0.57044482
-2.825249 3.3693502 -0.5695973
-3.025969 3.6087258 -0.57030839
-3.2486129 3.8742476 -0.56967515
-3.5347919 4.2155409 -0.5735985
-3.8361232 4.574904 -0.57237864
-4.1966915 5.0049119 -0.57143718
-4.6744523 5.5746827 -0.57560676
-5.2211609 6.2266793 -0.57501221
-5.9351029 7.0781159 -0.57652777
-6.8724184 8.1959448 -0.57838029
-8.168169 9.7412376 -0.58151084
-10.050226 11.985751 -0.58527327
-13.084725 15.60465 -0.59254718
-18.708172 22.311089 -0.60506439
-32.750435 39.057686 -0.63547522
-1.383911 1.6098075 -0.56882751
-1.4221472 1.654285 -0.56515366
-1.4824946 1.7244829 -0.56900942
-1.522794 1.7713603 -0.5638898
-1.6001698 1.8613663 -0.57099527
-1.6569901 1.9274613 -0.56904501
-1.7131058 1.9927368 -0.56542319
-1.7868534 2.0785222 -0.56597084
-1.8737253 2.1795743 -0.56862217
-1.9584063 2.2780778 -0.56841743
-2.0497458 2.3843267 -0.56790221
-2.1539261 2.5055125 -0.56845194
-2.2673604 2.6374629 -0.56866837
-2.3954756 2.7864902 -0.56948578
-2.5322573 2.9455988 -0.56898594
-2.7028768 3.1440687 -0.5721668
-2.8687532 3.3370211 -0.57005233
-3.0756097 3.5776429 -0.57132977
-3.3006771 3.8394482 -0.57048297
-3.574441 4.1578984 -0.57169265
-3.8950398 4.530829 -0.57281327
-4.2728481 4.9703069 -0.57344168
-4.7355747 5.5085645 -0.57474887
-5.2924047 6.1562862 -0.57447797
-6.0283604 7.0123725 -0.57716709
-6.9768071 8.1156349 -0.57872325
-8.2867136 9.6393576 -0.58146787
-10.216812 11.884507 -0.5864197
-13.29024 15.459612 -0.59320045
-19.006908 22.109415 -0.60588759
-33.296391 38.731377 -0.63677937
-1.407479 1.5970715 -0.57039958
-1.4445906 1.6391821 -0.56601977
-1.4899701 1.6906744 -0.56385666
-1.5618379 1.7722231 -0.57023501
-1.6123098 1.8294938 -0.56725693
-1.6788999 1.9050537 -0.5684815
-1.7428888 1.9776622 -0.56718403
-1.827009 2.0731137 -0.57057226
-1.9077466 2.164727 -0.57082552
-1.9903295 2.2584341 -0.56957954
-2.0739803 2.353353 -0.56655627
-2.1786921 2.4721699 -0.56692243
-2.2960467 2.6053324 -0.5677852
-2.4243569 2.7509265 -0.56826717
-2.5744102 2.9211926 -0.57034326
-2.7288165 3.0963979 -0.56955487
-2.9011202 3.2919114 -0.5683974
-3.1083589 3.527066 -0.5693137
-3.3406363 3.790632 -0.56929016
-3.6195071 4.1070676 -0.57077998
-3.9398189 4.4705267 -0.57127112
-4.3376102 4.9219022 -0.57396734
-4.8000727 5.4466596 -0.5744049
-5.3764658 6.1006951 -0.57541615
-6.1178207 6.9419131 -0.5775159
-7.0844064 8.0387011 -0.57940537
-8.4087 9.5413818 -0.58175099
-10.36629 11.762667 -0.58665311
-13.476213 15.291507 -0.59306371
-19.280928 21.878138 -0.60600108
-33.822689 38.378727 -0.63777113
-1.413764 1.5649828 -0.56510514
-1.467217 1.6241531 -0.5670172
-1.5300967 1.6937586 -0.57111704
-1.5678092 1.735505 -0.56458092
-1.6304905 1.8048909 -0.56580222
-1.701071 1.8830206 -0.56810558
-1.7727568 1.9623741 -0.56900823
-1.8405306 2.0373971 -0.56692827
-1.9206358 2.1260705 -0.56681693
-2.0086305 2.2234774 -0.56694967
-2.1118958 2.3377881 -0.56901795
-2.2124805 2.4491315 -0.56783521
-2.3326559 2.5821612 -0.56894344
-2.4586201 2.7215986 -0.56841105
-2.6044533 2.8830304 -0.56910211
-2.7611961 3.0565388 -0.56842554
-2.9576244 3.2739773 -0.57153714
-3.1648719 3.5033925 -0.57173097
-3.3899858 3.7525849 -0.5697934
-3.6753664 4.0684905 -0.57165635
-3.9912901 4.4182057 -0.57081372
-4.3918929 4.8616576 -0.57319641
-4.8643923 5.3846965 -0.57413495
-5.4625492 6.0468335 -0.57662779
-6.1964078 6.8591871 -0.57692885
-7.1861029 7.9547415 -0.57967901
-8.5397758 9.4532061 -0.58273327
-10.510674 11.634914 -0.58668315
-13.69012 15.15444 -0.59423167
-19.57917 21.673393 -0.60695261
-34.356937 38.031822 -0.63897848
-1.430325 1.5447013 -0.56408989
-1.4815083 1.5999773 -0.56489426
-1.5413386 1.6645919 -0.56763017
-1.5966561 1.724333 -0.5672906
-1.6634133 1.7964284 -0.56951839
-1.7210577 1.8586824 -0.5671047
-1.7889122 1.9319628 -0.5665257
-1.8694803 2.0189736 -0.56815541
-1.9498024 2.1057189 -0.56774014
-2.0419016 2.2051826 -0.56864405
-2.1443236 2.3157947 -0.57003957
-2.2389829 2.4180236 -0.5669632
-2.3677273 2.5570631 -0.56978536
-2.5013654 2.7013876 -0.57057065
-2.6356261 2.8463845 -0.56822276
-2.7975619 3.0212696 -0.56822091
-2.9968123 3.2364528 -0.57137626
-3.2045143 3.4607639 -0.57116157
-3.4504526 3.7263687 -0.5722118
-3.7373631 4.036222 -0.57353628
-4.0629654 4.3878608 -0.57330459
-4.4528146 4.8088846 -0.57338661
-4.926115 5.3200326 -0.57365549
-5.5278521 5.9698877 -0.57572871
-6.290761 6.7938032 -0.57789195
-7.2857475 7.8683538 -0.57986844
-8.6655607 9.3585033 -0.58341986
-10.664038 11.516789 -0.58729452
-13.875135 14.984663 -0.59421962
-19.855537 21.443289 -0.6073001
-34.900127 37.690922 -0.64041281
-1.4532223 1.5312257 -0.56565166
-1.5092074 1.5902158 -0.56795704
-1.553795 1.6371968 -0.56476092
-1.6164883 1.7032553 -0.56685275
-1.6838101 1.7741907 -0.5689894
-1.7560967 1.8503572 -0.57110989
-1.813929 1.9112937 -0.56696248
-1.8959033 1.9976683 -0.56867731
-1.9900292 2.0968463 -0.57190239
-2.0753696 2.1867676 -0.57043296
-2.1574454 2.2732489 -0.56605417
-2.2752211 2.3973463 -0.56863177
-2.4038484 2.5328777 -0.5709396
-2.5356636 2.6717682 -0.57085705
-2.6826088 2.826601 -0.57081532
-2.8449345 2.9976397 -0.57031304
-3.0299101 3.192544 -0.57015884
-3.2449226 3.4190977 -0.57082713
-3.4965525 3.6842339 -0.57230073
-3.7682796 3.9705465 -0.57074511
-4.1157517 4.3366694 -0.57318515
-4.5118809 4.7540612 -0.57342154
-5.0073996 5.2761779 -0.57552254
-5.5978885 5.8983617 -0.57542557
-6.3782048 6.7205625 -0.57828963
-7.381979 7.7782154 -0.5798713
-8.7686806 9.2393494 -0.58266944
-10.808028 11.388162 -0.58746797
-14.061273 14.816028 -0.59434402
-20.138264 21.219208 -0.60792112
-35.411999 37.312778 -0.64133781
-1.4746118 1.5159888 -0.56667852
-1.5289123 1.571813 -0.56805605
-1.5742583 1.6184314 -0.56492263
-1.634153 1.6800067 -0.56576025
-1.6948084 1.742364 -0.56542325
-1.7660764 1.815632 -0.56705189
-1.8448945 1.8966615 -0.56930846
-1.9205203 1.9744093 -0.5687359
-2.0029643 2.0591667 -0.56830001
-2.095506 2.154305 -0.56864351
-2.1893456 2.2507777 -0.56711936
-2.3129694 2.3778703 -0.57071519
-2.4272325 2.4953396 -0.56916279
-2.5568967 2.6286423 -0.56831741
-2.7139571 2.7901099 -0.57014233
-2.8765645 2.9572799 -0.56932092
-3.0644333 3.1504202 -0.56932247
-3.2972722 3.3897924 -0.57266033
-3.5367873 3.6360283 -0.57152498
-3.8346779 3.9422774 -0.57341623
-4.1773543 4.2945695 -0.57436651
-4.5723987 4.7006989 -0.57372338
-5.0650969 5.2072215 -0.57475114
-5.6753078 5.8345547 -0.57596534
-6.4637952 6.6451674 -0.57859749
-7.4831519 7.6931262 -0.58034384
-8.8990364 9.1487398 -0.583812
-10.958993 11.266499 -0.588099
-14.258934 14.659035 -0.59503478
-20.422329 20.995371 -0.60865682
-35.947369 36.956039 -0.64275521
-1.500821 1.5054475 -0.56959355
-1.5400645 1.544812 -0.56509912
-1.5988595 1.6037884 -0.56663108
-1.6592832 1.6643982 -0.56733203
-1.7169142 1.722207 -0.56569034
-1.7974596 1.8030006 -0.56996679
-1.8718913 1.8776617 -0.57047129
-1.948525 1.9545316 -0.56986874
-2.0260253 2.0322707 -0.56770986
-2.1228375 2.1293817 -0.56891197
-2.2253428 2.232203 -0.56929088
-2.344198 2.3514242 -0.57124305
-2.4550135 2.4625816 -0.5685336
-2.5974755 2.6054828 -0.57017261
-2.7443674 2.7528274 -0.56937671
-2.9165061 2.9254968 -0.57006323
-3.1025813 3.1121457 -0.56925702
-3.3286223 3.3388836 -0.57093138
-3.5823169 3.5933602 -0.57169896
-3.8732867 3.885227 -0.57200241
-4.2194748 4.2324824 -0.57295871
-4.6316738 4.6459517 -0.57394922
-5.1346083 5.1504369 -0.57540882
-5.7468567 5.7645721 -0.57598931
-6.5361686 6.5563173 -0.57781565
-7.57304 7.5963855 -0.58002698
-9.0042763 9.0320339 -0.58338594
-11.101379 11.135601 -0.58834738
-14.441681 14.4862 -0.59518248
-20.698393 20.762199 -0.60922956
-36.459999 36.572395 -0.64383155
-1.5106648 1.4785093 -0.56638682
-1.5565889 1.523456 -0.564246
-1.6227021 1.5881619 -0.5681169
-1.6818988 1.6460986 -0.56810093
-1.7409511 1.7038939 -0.56666398
-1.8145409 1.7759173 -0.56841564
-1.8873851 1.847211 -0.56822795
-1.9674927 1.9256134 -0.56844813
-2.0439925 2.0004847 -0.56580883
-2.1518729 2.1060688 -0.5697099
-2.2587616 2.2106826 -0.5708428
-2.3655076 2.3151562 -0.56945556
-2.500262 2.4470425 -0.57200074
-2.6332331 2.577183 -0.57102221
-2.7802079 2.7210295 -0.56982768
-2.9510014 2.8881876 -0.56982094
-3.1542404 3.0871005 -0.57172722
-3.376472 3.3046017 -0.57212555
-3.6300132 3.5527463 -0.57229561
-3.92275 3.8392518 -0.57229203
-4.2709408 4.1800313 -0.57292438
-4.6910625 4.5912104 -0.57426929
-5.181798 5.0714998 -0.5736652
-5.8207974 5.696898 -0.57633549
-6.6102276 6.4695249 -0.57728642
-7.6763783 7.5129819 -0.58082211
-9.1181259 8.9240408 -0.58360845
-11.227369 10.988388 -0.58781922
-14.632958 14.321487 -0.59576279
-20.969097 20.522757 -0.60972345
-36.970814 36.183868 -0.64494616
-1.5350214 1.4658313 -0.56871784
-1.5762821 1.5052322 -0.56463259
-1.6328857 1.5592844 -0.56492668
-1.6972556 1.6207529 -0.56651354
-1.7592322 1.6799359 -0.56584775
-1.8355796 1.7528421 -0.56821138
-1.9151201 1.8287973 -0.56976461
-1.9847264 1.8952662 -0.56665117
-2.0718267 1.9784405 -0.56673664
-2.1615367 2.0641069 -0.56550598
-2.2758837 2.1732998 -0.56837326
-2.4006631 2.292455 -0.57108951
-2.5116935 2.3984804 -0.56782579
-2.6610677 2.5411217 -0.57023919
-2.8189335 2.6918719 -0.5709374
-2.9774714 2.8432636 -0.56813818
-3.1710315 3.0280993 -0.56797868
-3.4011509 3.2478464 -0.56949717
-3.6706226 3.5051715 -0.57185954
-3.9659274 3.7871659 -0.57175404
-4.3304996 4.1353054 -0.57404929
-4.7509875 4.53684 -0.57473242
-5.2653985 5.0280638 -0.5760321
-5.8927546 5.6271424 -0.5765655
-6.7070999 6.4047818 -0.57882476
-7.7670317 7.4169378 -0.5807367
-9.2372942 8.8209286 -0.58424926
-11.382008 10.868971 -0.58887351
-14.816453 14.148611 -0.59610516
-21.243601 20.286058 -0.61040586
-37.473949 35.784836 -0.64599818
-1.5494742 1.4436282 -0.56745285
-1.5983446 1.4891601 -0.56593341
-1.6650038 1.5512658 -0.56939614
-1.7157464 1.5985421 -0.5660817
-1.7910496 1.6687014 -0.56943876
-1.8523303 1.7257959 -0.56678462
-1.9275074 1.7958376 -0.56683737
-2.0198369 1.8818601 -0.57002568
-2.1028295 1.9591833 -0.56858432
-2.1984777 2.0482979 -0.56853813
-2.2959764 2.1391361 -0.56677926
-2.4155142 2.2505083 -0.56799626
-2.558624 2.383842 -0.57176542
-2.6896484 2.5059159 -0.56971753
-2.8522439 2.6574044 -0.57102263
-3.0322483 2.8251126 -0.57191843
-3.2152891 2.9956498 -0.56926501
-3.4566939 3.2205639 -0.57212311
-3.716898 3.4629934 -0.57239157
-4.0217767 3.7470453 -0.5731197
-4.3775349 4.0785017 -0.5735929
-4.8026175 4.4745464 -0.57427877
-5.3253784 4.9615965 -0.57587588
-5.9656816 5.5581603 -0.57697016
-6.7839184 6.3205023 -0.57870322
-7.8687501 7.3312283 -0.58155781
-9.3514509 8.7126446 -0.58464921
-11.522861 10.735723 -0.58928639
-15.010067 13.984715 -0.59693116
-21.513514 20.043905 -0.61103332
-37.994099 35.398685 -0.6474123
-1.5619516 1.4197811 -0.56558591
-1.6280785 1.4798889 -0.56997514
-1.6857349 1.5322975 -0.5699991
-1.7400987 1.5817131 -0.5676564
-1.8067665 1.6423126 -0.56797218
-1.8780564 1.7071136 -0.5681904
-1.9435303 1.766628 -0.56511825
-2.0282943 1.8436768 -0.56597167
-2.133846 1.9396211 -0.5704788
-2.2284467 2.0256109 -0.56980389
-2.3307598 2.1186116 -0.56889176
-2.4461801 2.223526 -0.568735
-2.5895813 2.3538747 -0.57217199
-2.7180905 2.4706869 -0.56926388
-2.8826964 2.6203103 -0.57062548
-3.0546625 2.7766237 -0.56966329
-3.2693226 2.9717453 -0.57231861
-3.4857321 3.1684568 -0.57043767
-3.7569749 3.4150109 -0.57205331
-4.0637445 3.6938579 -0.57258433
-4.4307814 4.0274868 -0.57403725
-4.8609185 4.4184723 -0.57470995
-5.3867869 4.8964758 -0.57596201
-6.0349422 5.4856353 -0.57710123
-6.8804193 6.2541561 -0.58033109
-7.9663148 7.2412119 -0.58214378
-9.4650755 8.6035538 -0.58509457
-11.650077 10.589674 -0.58908844
-15.202376 13.818639 -0.59777629
-21.778021 19.795761 -0.61158603
-38.482723 34.97998 -0.64836001
-1.5893816 1.4094172 -0.5691998
-1.6352848 1.4501227 -0.56621253
-1.6988137 1.5064584 -0.56811494
-1.7621537 1.5626265 -0.56853998
-1.8281468 1.6211472 -0.56838375
-1.8896394 1.6756769 -0.56541812
-1.9768609 1.7530224 -0.56849897
-2.058758 1.8256464 -0.56816506
-2.1429701 1.9003233 -0.5666281
-2.2403882 1.9867108 -0.5665679
-2.3518381 2.0855412 -0.56773424
-2.4812057 2.2002609 -0.5705449
-2.6059785 2.3109057 -0.56947345
-2.7664344 2.4531932 -0.57302779
-2.9187372 2.5882509 -0.5714165
-3.0898392 2.739979 -0.56989706
-3.2895427 2.9170702 -0.56953597
-3.5384781 3.1378191 -0.572712
-3.8029728 3.3723652 -0.57269973
-4.1122141 3.6465914 -0.57305235
-4.474771 3.968096 -0.57337153
-4.90698 4.3513665 -0.57378632
-5.451323 4.834074 -0.5764631
-6.1071563 5.4156475 -0.57759506
-6.9471679 6.1605453 -0.5795278
-8.0488701 7.1375031 -0.58171904
-9.5701838 8.4865589 -0.5850969
-11.784297 10.44997 -0.58933324
-15.368171 13.628045 -0.59766102
-22.047394 19.550983 -0.61235321
-38.962418 34.550735 -0.64923495
-1.6058506 1.3891277 -0.56893748
-1.6506981 1.4279227 -0.56542706
-1.7142181 1.4828702 -0.56712574
-1.7842166 1.5434219 -0.56949198
-1.8499713 1.6003025 -0.56900805
-1.9239928 1.6643341 -0.56953067
-1.9953866 1.7260928 -0.56767988
-2.0762057 1.7960047 -0.56684262
-2.1764922 1.8827566 -0.56932724
-2.2799733 1.9722722 -0.57040238
-2.4012752 2.0772033 -0.57345915
-2.508352 2.1698294 -0.57060874
-2.6399591 2.283675 -0.57071942
-2.7749305 2.4004307 -0.56863064
-2.9349692 2.538871 -0.56843948
-3.1263454 2.7044194 -0.57045364
-3.3407826 2.8899164 -0.57221168
-3.5626702 3.0818586 -0.5704509
-3.8433933 3.3246956 -0.57258695
-4.1487045 3.5888028 -0.57194459
-4.5243731 3.9137714 -0.57351732
-4.9620671 4.2923956 -0.57401258
-5.5069356 4.7637291 -0.57610607
-6.1722641 5.3392663 -0.57749975
-7.0175714 6.0704927 -0.57913011
-8.1340647 7.0363054 -0.58157915
-9.6783619 8.3721867 -0.58537239
-11.929754 10.319736 -0.59021688
-15.552741 13.453771 -0.59836
-22.307602 19.297007 -0.61294353
-39.466637 34.140289 -0.65059239
-1.6213318 1.3680314 -0.56841952
-1.6771557 1.415134 -0.56848633
-1.7420716 1.469908 -0.57031786
-1.7888008 1.5093368 -0.56498861
-1.8735287 1.5808276 -0.5702318
-1.9504704 1.6457487 -0.57133484
-2.0134315 1.6988734 -0.56682754
-2.0998983 1.7718314 -0.56731987
-2.1889639 1.8469824 -0.56660587
-2.2998712 1.9405627 -0.56936759
-2.4265163 2.0474219 -0.57343131
-2.5313864 2.1359081 -0.56983089
-2.6616688 2.2458365 -0.56939954
-2.8098338 2.3708539 -0.56976581
-2.9721589 2.5078189 -0.56962675
-3.1542401 2.6614537 -0.56952894
-3.3757057 2.8483198 -0.57215112
-3.6052485 3.042001 -0.5712359
-3.881484 3.2750804 -0.57221872
-4.1962209 3.5406458 -0.57244986
-4.5696592 3.8557422 -0.57320458
-5.022337 4.2376981 -0.5749132
-5.5671425 4.6973886 -0.57631832
-6.2419796 5.2667961 -0.57791942
-7.088675 5.9812126 -0.57888466
-8.2144232 6.9310846 -0.58118701
-9.7731714 8.2463102 -0.58492953
-12.049268 10.166812 -0.58990008
-15.725043 13.268322 -0.59866673
-22.558475 19.034168 -0.61335933
-39.949104 33.707863 -0.65166372
-1.6397898 1.3494411 -0.56903023
-1.6986276 1.3978608 -0.56989503
-1.7591224 1.4476441 -0.57002914
-1.8173499 1.4955616 -0.56815434
-1.8853468 1.5515186 -0.56797916
-1.9531763 1.607338 -0.56629515
-2.0445142 1.6825031 -0.56971061
-2.1281633 1.751341 -0.56909502
-2.2227337 1.8291662 -0.56948197
-2.315284 1.9053292 -0.5673402
-2.4384704 2.0067036 -0.57038194
-2.5681727 2.1134403 -0.57221842
-2.6952562 2.2180216 -0.57070702
-2.8482504 2.343926 -0.57166815
-3.0043106 2.4723535 -0.56991911
-3.2022483 2.6352437 -0.57230312
-3.3975308 2.7959485 -0.56998003
-3.6492021 3.0030575 -0.57230592
-3.9172127 3.223613 -0.57159907
-4.2470226 3.4950254 -0.57347405
-4.6283875 3.8088641 -0.57465291
-5.0796819 4.1802502 -0.5755499
-5.6270227 4.6306763 -0.57657903
-6.3005252 5.1849251 -0.57739335
-7.1758838 5.9052887 -0.58003265
-8.3153772 6.8430181 -0.58233225
-9.8864069 8.1358747 -0.58567488
-12.182783 10.025643 -0.59035653
-15.898546 13.083477 -0.59910202
-22.819414 18.778904 -0.61412925
-40.429958 33.271244 -0.65278447
-1.6520126 1.32577 -0.56757164
-1.7058634 1.3689862 -0.56663203
-1.7764467 1.4256306 -0.56991935
-1.8419518 1.4781996 -0.57011998
-1.9037526 1.5277959 -0.56782156
-1.9815089 1.5901967 -0.56879741
-2.0624611 1.6551623 -0.5689972
-2.1521957 1.727176 -0.56979913
-2.2429142 1.7999793 -0.56893867
-2.3611474 1.8948636 -0.57282585
-2.4608262 1.9748576 -0.56988788
-2.584168 2.0738413 -0.57005739
-2.7260451 2.1877005 -0.57148707
-2.8604755 2.2955832 -0.56841338
-3.0394611 2.4392226 -0.57085419
-3.2208261 2.5847714 -0.56989992
-3.448348 2.7673616 -0.57275319
-3.6862397 2.9582739 -0.57236636
-3.9585197 3.1767836 -0.5718832
-4.2767639 3.4321804 -0.57174802
-4.6769652 3.7533493 -0.57491052
-5.1334286 4.1196694 -0.57585645
-5.6845345 4.5619416 -0.57668048
-6.3782368 5.1186504 -0.57870317
-7.2465482 5.815486 -0.57992041
-8.3947678 6.7369533 -0.58204669
-9.9851408 8.0132561 -0.5856424
-12.313304 9.881649 -0.59074855
-16.053534 12.883252 -0.59892744
-23.06354 18.508907 -0.6145277
-40.890194 32.815121 -0.653651
-1.6674137 1.3047509 -0.56730795
-1.7235514 1.3486786 -0.56695592
-1.7941302 1.4039066 -0.57001114
-1.8475051 1.4456723 -0.56629378
-1.9268516 1.507761 -0.56913829
-2.0059571 1.569661 -0.57023174
-2.0833437 1.630216 -0.56918496
-2.1726332 1.7000849 -0.56963229
-2.2469347 1.7582258 -0.56443161
-2.3772547 1.8602014 -0.571141
-2.4821084 1.9422493 -0.5692426
-2.6037731 2.037452 -0.56881249
-2.7460191 2.1487594 -0.5700922
-2.8929563 2.2637377 -0.56929332
-3.0739889 2.4053955 -0.57174063
-3.2579639 2.5493562 -0.57088119
-3.4708073 2.7159061 -0.57089347
-3.7213578 2.9119618 -0.57221621
-3.99283 3.1243887 -0.57124645
-4.3272576 3.3860784 -0.57288879
-4.7164588 3.6906281 -0.57414329
-5.1808085 4.0539818 -0.57553589
-5.734767 4.4874539 -0.57613504
-6.440721 5.0398631 -0.57870585
-7.3160772 5.7248287 -0.57980728
-8.4845629 6.6391687 -0.58256817
-10.084669 7.8912516 -0.58574438
-12.452197 9.7438412 -0.59161913
-16.232103 12.701617 -0.5997172
-23.314577 18.243652 -0.61519277
-41.365932 32.368835 -0.65484381
-1.6840463 1.2846967 -0.56754923
-1.7402787 1.3275943 -0.56704545
-1.8028172 1.3753027 -0.56735533
-1.8581805 1.4175372 -0.56418049
-1.9398712 1.4798561 -0.5675661
-2.0070102 1.531074 -0.56513655
-2.1066296 1.6070698 -0.57010484
-2.1893141 1.6701468 -0.5685783
-2.2870646 1.744717 -0.56908005
-2.3816874 1.8169013 -0.56679553
-2.5009906 1.9079134 -0.56814963
-2.6319234 2.0077972 -0.56952566
-2.7669697 2.1108191 -0.56901014
-2.9215143 2.2287152 -0.56947708
-3.0930929 2.3596063 -0.5698542
-3.2716167 2.4957955 -0.56785297
-3.5115542 2.6788352 -0.57213432
-3.7684979 2.8748479 -0.57398564
-4.049211 3.0889935 -0.57383519
-4.3764129 3.3386037 -0.57391798
-4.7556472 3.6279075 -0.5734399
-5.2312617 3.9907362 -0.5756458
-5.791225 4.4179115 -0.57630581
-6.4927139 4.9530516 -0.57786137
-7.3957162 5.6419187 -0.58057678
-8.578846 6.5444846 -0.58347219
-10.196154 7.7782693 -0.58662003
-12.568111 9.5877485 -0.59148031
-16.385843 12.500154 -0.59967303
-23.549887 17.965338 -0.61552614
-41.818516 31.9018 -0.65574884
-1.7024062 1.2658945 -0.56844789
-1.7639509 1.3116586 -0.56946033
-1.822603 1.3552717 -0.56829447
-1.8995838 1.4125141 -0.57143462
-1.9596711 1.4571944 -0.56807369
-2.0365636 1.5143712 -0.56817186
-2.1239331 1.5793382 -0.56948894
-2.2033279 1.6383755 -0.56694281
-2.3142393 1.7208482 -0.57053345
-2.4069812 1.7898103 -0.56753451
-2.5446105 1.8921502 -0.57272995
-2.6621642 1.9795622 -0.570759
-2.7960265 2.0791011 -0.56968498
-2.9589345 2.200238 -0.57145429
-3.1207969 2.3205974 -0.56965798
-3.3139305 2.46421 -0.56989497
-3.5479927 2.6382565 -0.57274228
-3.7911687 2.8190801 -0.57211554
-4.0763164 3.0311136 -0.5723511
-4.4209986 3.287416 -0.57442039
-4.8220167 3.5856097 -0.57608277
-5.2796173 3.9258776 -0.57561123
-5.8611646 4.3583112 -0.57788897
-6.5508871 4.8711829 -0.5776642
-7.4762044 5.5592408 -0.58148503
-8.6602468 6.4396844 -0.58357882
-10.288754 7.6506276 -0.58649075
-12.690977 9.4369001 -0.59175676
-16.542688 12.301 -0.59983218
-23.79528 17.693964 -0.61620671
-42.281944 31.440487 -0.65690386
-1.7091415 1.2385615 -0.56556869
-1.7755458 1.2866826 -0.56805289
-1.8320445 1.3276255 -0.56610531
-1.9151592 1.3878561 -0.57094312
-1.9723698 1.4293149 -0.56661707
-2.056673 1.4904068 -0.56862617
-2.1500421 1.5580684 -0.57130933
-2.2191472 1.6081467 -0.56588233
-2.3308322 1.6890813 -0.56946069
-2.4413404 1.7691631 -0.57046342
-2.5434139 1.8431327 -0.56731659
-2.6823988 1.9438508 -0.56992954
-2.8231001 2.0458126 -0.57003254
-2.9799433 2.159472 -0.57034028
-3.1477144 2.2810504 -0.56940842
-3.3549342 2.4312162 -0.57176203
-3.5764709 2.5917568 -0.5721516
-3.8196599 2.7679884 -0.57123554
-4.1217175 2.9868801 -0.57352555
-4.4618459 3.2333605 -0.57451838
-4.8416705 3.5086076 -0.57323319
-5.3160214 3.8523548 -0.57437217
-5.8995895 4.2752485 -0.57645065
-6.6184487 4.7961836 -0.57837754
-7.5225887 5.451385 -0.57983512
-8.7314844 6.3274345 -0.58309215
-10.386324 7.5266452 -0.58673257
-12.810458 9.2833395 -0.59196049
-16.708805 12.10835 -0.60041142
-24.041874 17.422396 -0.61699808
-42.723431 30.960337 -0.65779847
-1.7337997 1.2242022 -0.56870395
-1.7844075 1.2599354 -0.56588858
-1.8548251 1.3096559 -0.56812543
-1.9315149 1.3638051 -0.57077646
-1.9868571 1.4028811 -0.56578052
-2.0664661 1.4590915 -0.56633043
-2.178679 1.5383228 -0.57384896
-2.2544744 1.5918406 -0.56985635
-2.3458974 1.6563925 -0.56812221
-2.4509814 1.7305902 -0.56770074
-2.5705462 1.8150126 -0.56834739
-2.716418 1.9180099 -0.57210332
-2.8481324 2.0110109 -0.57005084
-3.0118654 2.1266196 -0.57140183
-3.183892 2.2480841 -0.57090902
-3.3788249 2.3857224 -0.57079083
-3.6032276 2.5441689 -0.57138407
-3.855581 2.7223508 -0.57155812
-4.1471267 2.9282053 -0.57200766
-4.5009766 3.1780519 -0.57448161
-4.9014802 3.46084 -0.57523245
-5.383944 3.8014982 -0.57661676
-5.9596167 4.2079692 -0.57721645
-6.690927 4.7243333 -0.57959086
-7.5895653 5.3588443 -0.57987469
-8.8028126 6.2154946 -0.58270746
-10.479382 7.3992877 -0.58680528
-12.924935 9.1260452 -0.59202015
-16.876539 11.916196 -0.60112798
-24.26515 17.13315 -0.6172747
-43.17485 30.484921 -0.65892744
-1.7450606 1.2002741 -0.56751364
-1.8107059 1.2454257 -0.56932896
-1.8663503 1.2836987 -0.56677777
-1.9339724 1.3302099 -0.56662625
-2.0011001 1.3763812 -0.56497419
-2.0801823 1.4307749 -0.56522506
-2.1834877 1.5018296 -0.57020831
-2.2664318 1.5588796 -0.5679906
-2.382906 1.638992 -0.57216078
-2.4698484 1.6987921 -0.56718951
-2.6055706 1.7921435 -0.57117575
-2.7384126 1.8835139 -0.57181454
-2.8735926 1.9764924 -0.57023919
-3.0343108 2.0870361 -0.57074821
-3.2290518 2.2209814 -0.57406628
-3.416676 2.3500316 -0.5722602
-3.6345093 2.49986 -0.57142687
-3.8951752 2.6791494 -0.57250065
-4.184021 2.877821 -0.57217228
-4.5360723 3.1199663 -0.57402098
-4.9273825 3.3891139 -0.57333809
-5.4169145 3.7258203 -0.5751977
-6.0118337 4.1350131 -0.57730561
-6.727911 4.6275396 -0.57782179
-7.6608987 5.2692604 -0.58033049
-8.8914614 6.1156559 -0.58355349
-10.566889 7.2680359 -0.58665651
-13.059855 8.982729 -0.59309584
-17.022367 11.708194 -0.60114878
-24.496622 16.849077 -0.61784589
-43.617855 30.000896 -0.66000843
-1.7647281 1.1821039 -0.56913954
-1.8300811 1.2258806 -0.57063818
-1.8913904 1.2669487 -0.56960791
-1.9560505 1.3102612 -0.56833136
-2.0252831 1.3566368 -0.56704915
-2.112067 1.4147691 -0.56911874
-2.2055757 1.4774059 -0.57118911
-2.2854099 1.5308828 -0.56798619
-2.3840415 1.5969512 -0.56767553
-2.4909413 1.6685581 -0.5672788
-2.6145985 1.75139 -0.56839085
-2.7559264 1.8460585 -0.57068843
-2.8959367 1.9398445 -0.56989664
-3.0612082 2.0505517 -0.57102162
-3.2306309 2.1640394 -0.56957316
-3.4360948 2.3016696 -0.57072914
-3.6689925 2.4576762 -0.57205379
-3.9268055 2.6303723 -0.57235241
-4.2217345 2.8279305 -0.57253104
-4.5739179 3.0638409 -0.57399929
-4.9805908 3.336251 -0.5747124
-5.4679475 3.6627069 -0.57579064
-6.0545216 4.055624 -0.57657236
-6.79702 4.5529866 -0.57890511
-7.7329149 5.1798964 -0.580917
-8.9609232 6.0024786 -0.58322412
-10.667282 7.1454835 -0.58730769
-13.160284 8.8154221 -0.5926891
-17.162552 11.496343 -0.60106164
-24.705605 16.549059 -0.61793756
-44.043755 29.502729 -0.66091365
-1.7705977 1.154752 -0.5664103
-1.8434446 1.2022614 -0.57015228
-1.9093667 1.2452548 -0.5703671
-1.9639082 1.2808257 -0.56599563
-2.0429084 1.3323482 -0.56735402
-2.1276562 1.3876193 -0.56867868
-2.2072427 1.4395242 -0.56699383
-2.3036435 1.502395 -0.56788343
-2.4098537 1.5716634 -0.56917697
-2.5211942 1.6442776 -0.56952089
-2.6326258 1.7169514 -0.56767726
-2.7742276 1.8093015 -0.56982803
-2.9264648 1.9085879 -0.57124263
-3.0886629 2.0143704 -0.5714792
-3.2678003 2.1312008 -0.57146287
-3.4670496 2.2611477 -0.57120931
-3.7014856 2.4140425 -0.57244843
-3.9578817 2.5812595 -0.57221234
-4.2779617 2.79001 -0.57546026
-4.6107655 3.0070586 -0.57393974
-5.0155239 3.2710347 -0.57405871
-5.5201163 3.600121 -0.57657897
-6.1128349 3.9866812 -0.5774135
-6.8494291 4.4670749 -0.57864672
-7.7974792 5.0853763 -0.58102572
-9.0406961 5.8961802 -0.58365321
-10.763491 7.0197558 -0.58780777
-13.267076 8.6525488 -0.59266216
-17.330519 11.302654 -0.60203123
-24.930273 16.259077 -0.61850959
-44.463085 28.998028 -0.66180533
-1.784789 1.1329747 -0.56645054
-1.8534739 1.1765757 -0.56873655
-1.9135588 1.2147173 -0.56711459
-1.9857088 1.2605177 -0.56776851
-2.0650883 1.3109074 -0.56899405
-2.1422844 1.3599111 -0.56807607
-2.2336218 1.4178916 -0.56924832
-2.3210356 1.4733815 -0.56766176
-2.4248965 1.5393118 -0.56821638
-2.5378518 1.6110152 -0.56876582
-2.6642938 1.6912799 -0.56997836
-2.8035464 1.7796768 -0.57131201
-2.9369595 1.8643667 -0.56877315
-3.101383 1.9687419 -0.56931055
-3.2890544 2.0878749 -0.57064688
-3.5055728 2.2253196 -0.57300454
-3.7309895 2.368413 -0.57246405
-3.9888949 2.5321298 -0.5721513
-4.2931652 2.7252791 -0.57295424
-4.6440525 2.9480205 -0.57352751
-5.0632467 3.214123 -0.57495385
-5.5579057 3.5281298 -0.57595116
-6.1569443 3.9083965 -0.57699674
-6.895874 4.3774652 -0.57797933
-7.8520999 4.9844723 -0.58048475
-9.1267757 5.7936301 -0.58456701
-10.850244 6.8876786 -0.58787578
-13.387263 8.4981661 -0.59331816
-17.48201 11.097489 -0.60250783
-25.160475 15.971739 -0.61930144
-44.884945 28.492731 -0.66281945
-1.7978711 1.1105036 -0.56622583
-1.8670986 1.1532638 -0.56852287
-1.9367518 1.1962869 -0.56958556
-2.0053897 1.238683 -0.56899774
-2.0741775 1.2811717 -0.56711489
-2.1594946 1.3338701 -0.56824744
-2.2400625 1.3836349 -0.56651092
-2.3403351 1.4455709 -0.5679915
-2.4598224 1.5193756 -0.57197922
-2.546963 1.5732003 -0.56642956
-2.6845703 1.6581973 -0.569911
-2.829236 1.7475538 -0.57212484
-2.9590003 1.8277063 -0.56864625
-3.1422937 1.9409224 -0.57239598
-3.3202083 2.0508163 -0.57163358
-3.5266626 2.1783381 -0.57203025
-3.7512174 2.3170404 -0.57115293
-4.0241842 2.485646 -0.57278574
-4.3244805 2.6711321 -0.5727067
-4.6853156 2.8940115 -0.57418519
-5.0817566 3.1388838 -0.57262951
-5.5918212 3.4539392 -0.57502109
-6.2210584 3.8426044 -0.57853341
-6.9647627 4.3019733 -0.57927573
-7.927062 4.8963637 -0.58153158
-9.1909313 5.6770263 -0.5841608
-10.939174 6.7568755 -0.588148
-13.50134 8.3394661 -0.59378433
-17.628614 10.888788 -0.60290033
-25.36141 15.665159 -0.61945915
-45.291592 27.975571 -0.66369432
-1.8106434 1.0878656 -0.56599259
-1.8957764 1.1390148 -0.57294708
-1.9350654 1.1626204 -0.56484252
-2.0264254 1.2175111 -0.57067537
-2.0854542 1.2529765 -0.56594276
-2.1770668 1.308019 -0.56859607
-2.2610142 1.358456 -0.5675422
-2.3491936 1.4114357 -0.5658865
-2.4716754 1.4850248 -0.57044619
-2.5774758 1.5485916 -0.56893748
-2.7048213 1.625103 -0.56992483
-2.828608 1.6994761 -0.56772906
-2.9909596 1.7970198 -0.57049847
-3.1564898 1.8964732 -0.57069093
-3.3449452 2.0097003 -0.5715946
-3.552273 2.1342664 -0.57188427
-3.7858374 2.274596 -0.57212228
-4.0561218 2.4369876 -0.57302302
-4.3647995 2.6224463 -0.57373238
-4.7171988 2.8341737 -0.57377821
-5.1444674 3.0908842 -0.57536978
-5.6417503 3.3896601 -0.57582575
-6.2575326 3.7596328 -0.57758248
-7.015645 4.2151198 -0.579153
-7.9806976 4.7949395 -0.58109695
-9.2568293 5.5616617 -0.58395833
-11.025022 6.624022 -0.58833987
-13.604441 8.1737804 -0.59385341
-17.765612 10.673883 -0.60305125
-25.589502 15.374611 -0.6203658
-45.698929 27.456697 -0.6646657
-1.8359227 1.0725545 -0.56972897
-1.8860387 1.1018324 -0.56586659
-1.9592129 1.1445812 -0.5677399
-2.0301669 1.1860328 -0.56757897
-2.1101274 1.2327461 -0.56848186
-2.1918015 1.2804605 -0.56828922
-2.2764449 1.3299096 -0.56726772
-2.3709149 1.3850994 -0.56697327
-2.48721 1.4530395 -0.56986475
-2.5960536 1.5166264 -0.56887871
-2.7155352 1.586428 -0.56802899
-2.8587675 1.6701051 -0.56961745
-3.0232849 1.7662169 -0.57247829
-3.1766348 1.8558047 -0.5701642
-3.371558 1.9696797 -0.57196021
-3.5658293 2.0831738 -0.56989974
-3.7966764 2.2180357 -0.56959558
-4.0883889 2.3884554 -0.57338893
-4.3841295 2.5612285 -0.57209021
-4.7538099 2.7771976 -0.57403421
-5.1748829 3.0231903 -0.57457036
-5.6877975 3.3228374 -0.57631165
-6.290731 3.6750739 -0.57643199
-7.0740724 4.1327057 -0.57973737
-8.0443878 4.6995683 -0.58148271
-9.3393021 5.4560628 -0.58488446
-11.114551 6.4931712 -0.58881223
-13.697356 8.002058 -0.59356928
-17.903755 10.459455 -0.60332906
-25.790787 15.067096 -0.62070704
-46.100452 26.932095 -0.66563863
-1.840789 1.0452534 -0.56720763
-1.9123459 1.0858855 -0.56971031
-1.9740378 1.1209159 -0.56799883
-2.0457041 1.1616101 -0.56788647
-2.1424928 1.2165695 -0.57312775
-2.2136297 1.2569633 -0.56989825
-2.3046055 1.3086219 -0.57023215
-2.4024444 1.3641777 -0.57045859
-2.5067091 1.4233822 -0.57027906
-2.6163576 1.4856437 -0.56928182
-2.7459936 1.5592549 -0.57034642
-2.8878551 1.6398079 -0.5713523
-3.0391526 1.7257191 -0.57142156
-3.2006042 1.817396 -0.57041216
-3.3887055 1.9242053 -0.57081211
-3.6101918 2.0499718 -0.57291782
-3.8489814 2.1855633 -0.57336742
-4.1186562 2.3386927 -0.57355738
-4.4323654 2.5168257 -0.57430267
-4.7846107 2.7168407 -0.57367605
-5.2315998 2.9706542 -0.57676828
-5.7244883 3.2505305 -0.57593584
-6.3527651 3.6072845 -0.57800812
-7.1201367 4.0430202 -0.5793944
-8.0907812 4.5941806 -0.58070886
-9.4185963 5.3481522 -0.58568758
-11.188199 6.352984 -0.58853084
-13.820743 7.8478189 -0.59468943
-18.049053 10.248776 -0.60393292
-25.997961 14.762397 -0.62127739
-46.490376 26.398586 -0.66653132
-1.8696139 1.0314296 -0.57213831
-1.9215589 1.0600866 -0.56852859
-1.9739777 1.0890051 -0.56408584
-2.0592186 1.1360309 -0.56771737
-2.1526642 1.187583 -0.57189906
-2.2291083 1.2297556 -0.569947
-2.3078575 1.2732002 -0.56712019
-2.4150274 1.3323237 -0.56951326
-2.5338013 1.3978488 -0.5724889
-2.6417396 1.4573964 -0.57086211
-2.7804651 1.5339286 -0.57354522
-2.9080081 1.6042916 -0.57139337
-3.0538673 1.6847593 -0.57025003
-3.2168207 1.7746575 -0.56937009
-3.4179146 1.8855971 -0.57178342
-3.6346738 2.0051789 -0.57284683
-3.8443272 2.1208405 -0.56874621
-4.1461592 2.2873554 -0.57342714
-4.4553967 2.4579558 -0.57332736
-4.8270597 2.6629951 -0.57479608
-5.2604613 2.9020941 -0.57597238
-5.7774248 3.1872928 -0.57727498
-6.4049993 3.5335135 -0.5787636
-7.1587949 3.949368 -0.57854468
-8.1448669 4.4933648 -0.58058119
-9.4736843 5.2264476 -0.58507264
-11.277102 6.2213578 -0.58913869
-13.900721 7.6687574 -0.59402829
-18.169968 10.024017 -0.60380882
-26.187969 14.447393 -0.62152565
-46.861752 25.852716 -0.66724759
-1.8656987 0.99954754 -0.56713599
-1.9204477 1.0288793 -0.56441396
-2.0041337 1.0737141 -0.56888741
-2.0868983 1.1180552 -0.57151502
-2.1634722 1.1590797 -0.57094079
-2.2372594 1.198611 -0.56821972
-2.3224752 1.2442653 -0.56690961
-2.4274077 1.300483 -0.56861871
-2.5334976 1.3573207 -0.56860632
-2.6496456 1.419547 -0.56875557
-2.7826085 1.4907817 -0.57016289
-2.9203327 1.5645674 -0.56999177
-3.0709634 1.6452677 -0.56962156
-3.2433324 1.7376144 -0.57023764
-3.4248137 1.8348429 -0.56912011
-3.6541662 1.9577185 -0.57208163
-3.8900933 2.0841165 -0.57168239
-4.1757374 2.2371502 -0.57366997
-4.4833488 2.401953 -0.5730803
-4.8640838 2.6059315 -0.57534564
-5.2993383 2.839119 -0.57636303
-5.8031492 3.1090355 -0.57598186
-6.4482207 3.4546323 -0.57878685
-7.2202749 3.8682604 -0.57962531
-8.2152166 4.4013 -0.58169407
-9.537014 5.1094527 -0.5850594
-11.34422 6.0776625 -0.58869636
-14.006413 7.503932 -0.59455687
-18.307896 9.8084507 -0.60433871
-26.399044 14.14328 -0.62236059
-47.234447 25.305841 -0.66807312
-1.8847772 0.98013574 -0.56922883
-1.9578259 1.0181231 -0.57167673
-2.0256886 1.0534136 -0.5712859
-2.0817266 1.0825548 -0.56641036
-2.1783304 1.1327914 -0.57114267
-2.2538674 1.1720728 -0.56873441
-2.3539648 1.2241262 -0.57087874
-2.4443533 1.2711307 -0.56888378
-2.5470233 1.3245218 -0.56794357
-2.6726997 1.3898771 -0.5699926
-2.8060989 1.4592483 -0.57125628
-2.9420886 1.5299667 -0.57052296
-3.0880201 1.6058551 -0.56907964
-3.2632308 1.6969694 -0.57002431
-3.4517505 1.7950048 -0.56988543
-3.6831398 1.9153335 -0.57288712
-3.9135225 2.0351388 -0.5714047
-4.208035 2.1882935 -0.57436699
-4.5112433 2.3459699 -0.5729152
-4.882021 2.5387847 -0.57373136
-5.3275437 2.7704687 -0.57568198
-5.8568482 3.0457215 -0.57755083
-6.485075 3.3724167 -0.57832897
-7.2813711 3.7865124 -0.58074832
-8.2773371 4.3044419 -0.58230084
-9.6165876 5.0008888 -0.58612418
-11.410353 5.9336963 -0.58829743
-14.094255 7.3293991 -0.59441501
-18.424885 9.5814447 -0.60426563
-26.565653 13.814867 -0.62223655
-47.603493 24.755121 -0.66893685
