# .PCD v0.7 - Point Cloud Data file format
VERSION 0.7
FIELDS x y z
SIZE 4 4 4
TYPE F F F
COUNT 1 1 1
WIDTH 1476
HEIGHT 1
VIEWPOINT 0 0 0 1 0 0 0
POINTS 1476
DATA ascii
-9.795126 5.247736 0.046177872
-9.7924738 5.246315 0.13850248
-12.458942 6.6748753 0.29372105
-12.519743 6.7074485 0.4132733
-12.558325 6.7281189 0.53308707
-12.583513 6.7416134 0.65300816
-12.59335 6.7468839 0.77255392
-12.571699 6.7352843 0.89016318
-12.515903 6.7053909 1.0047449
-12.455494 6.6730275 1.1179947
-12.375744 6.630301 1.2283338
-12.285495 6.5819507 1.3361868
-12.149716 6.5092068 1.4371228
-11.999975 6.4289832 1.5338868
-11.816598 6.3307385 1.6233845
-9.7200994 5.2075405 1.4284515
-9.6966076 5.1949549 1.518062
-9.8180761 5.2600312 1.6315236
-11.062998 5.9269977 1.9450791
-10.635012 5.6977043 1.9726486
-1.8767986 0.97598666 -0.56681919
-1.9505076 1.0143174 -0.56953984
-2.0207472 1.050844 -0.56989229
-2.1018951 1.093043 -0.57189798
-2.1663589 1.1265659 -0.56800389
-2.2593389 1.1749181 -0.57011503
-2.3397439 1.216731 -0.5674299
-2.4423993 1.2701145 -0.56842899
-2.5508406 1.326507 -0.56879479
-2.643599 1.3747439 -0.56378645
-2.799588 1.4558624 -0.56993079
-2.9291265 1.523226 -0.56800944
-3.0968201 1.6104312 -0.57070136
-3.256552 1.6934962 -0.56885767
-3.4549375 1.7966622 -0.57041156
-3.6675172 1.9072094 -0.57045716
-3.9271538 2.0422275 -0.57339495
-4.1905384 2.1791947 -0.57197875
-4.5136461 2.3472197 -0.57322037
-4.8750157 2.5351417 -0.57290804
-5.3231273 2.7681718 -0.57520479
-5.8434205 3.0387387 -0.57622671
-6.4626184 3.3607385 -0.57632631
-7.2428451 3.7664778 -0.57767552
-8.2524662 4.2915087 -0.58055121
-9.570241 4.9767871 -0.5832994
-11.37652 5.9161019 -0.58655304
-14.055722 7.3093605 -0.59278989
-18.319315 9.5265455 -0.60080332
-10.63936 5.5327592 -0.24920146
-10.194556 5.3014483 -0.14325659
-9.9942999 5.1973095 -0.046812024
-9.8714323 5.1334152 0.04623653
-9.7928724 5.0925617 0.13761203
-9.7584772 5.0746756 0.2285689
-9.8013306 5.0969605 0.32144609
-12.897091 6.7068405 0.54392546
-12.910294 6.7137065 0.66563171
-12.915064 6.716187 0.78716403
-12.892922 6.7046728 0.90700179
-12.840754 6.6775436 1.0241541
-12.774139 6.6429024 1.1391779
-12.677359 6.5925736 1.2501296
-12.573154 6.5383849 1.3586259
-12.430453 6.4641762 1.4608173
-12.270634 6.3810658 1.5583359
-9.6898899 5.0390081 1.3226012
-9.7216988 5.0555496 1.4194436
-9.8163996 5.1047969 1.5268736
-10.021951 5.211689 1.6546282
-10.672497 5.5499907 1.8642821
-10.805411 5.6191101 1.9912888
-1.8948739 0.95597303 -0.568685
-1.9504927 0.98403311 -0.56595951
-2.0185845 1.0183858 -0.56570798
-2.0938523 1.0563587 -0.56613261
-2.1735461 1.0965645 -0.56631011
-2.2719102 1.1461897 -0.56968772
-2.3595443 1.1904016 -0.56863892
-2.4617801 1.24198 -0.5693422
-2.5606275 1.291849 -0.56739211
-2.6857181 1.3549578 -0.56917262
-2.8051133 1.4151933 -0.56747013
-2.9554415 1.4910346 -0.56951392
-3.1254749 1.5768173 -0.57236564
-3.2866995 1.6581559 -0.57051909
-3.4720488 1.7516655 -0.56963748
-3.7067921 1.8700947 -0.57294595
-3.9392929 1.9873924 -0.57155603
-4.2286496 2.1333745 -0.57355672
-4.5533967 2.2972109 -0.57463777
-4.9094734 2.4768531 -0.57333493
-5.35778 2.7030261 -0.57531416
-5.8677592 2.9603131 -0.57499373
-6.510828 3.2847445 -0.57697994
-7.3075514 3.6866953 -0.5791769
-8.305089 4.1899576 -0.58058476
-9.6314821 4.8591294 -0.58334619
-11.460186 5.7817197 -0.58715677
-14.140833 7.134119 -0.59263486
-18.449373 9.3077984 -0.60126966
-10.855104 5.4764533 -0.25265834
-10.355905 5.2246041 -0.1446102
-10.148617 5.1200266 -0.047236364
-10.019241 5.0547562 0.046634194
-9.9181547 5.0037575 0.13849744
-9.8550091 4.9719 0.22938058
-9.7967701 4.9425182 0.31927916
-9.7578735 4.9228945 0.40894732
-9.7492304 4.9185343 0.49949688
-9.7538204 4.9208503 0.59075582
-13.203194 6.6610751 0.92299712
-13.151684 6.6350884 1.0423672
-13.071009 6.5943871 1.1583334
-9.7548285 4.9213586 0.9558956
-9.7133226 4.9004188 1.0430089
-9.7167568 4.9021511 1.1347359
-9.7389431 4.9133444 1.2290527
-9.800931 4.9446173 1.3293581
-9.8922548 4.9906907 1.4352773
-10.045616 5.0680623 1.5527159
-10.327137 5.2100911 1.6943092
-10.971617 5.535234 1.9044992
-11.068512 5.5841179 2.0269673
-1.8882693 0.92369175 -0.5632515
-1.9748782 0.96605855 -0.56954533
-2.026135 0.99113202 -0.56436574
-2.1156871 1.0349386 -0.56855237
-2.1843135 1.0685087 -0.56564951
-2.2871706 1.1188238 -0.57002145
-2.3752062 1.1618885 -0.56892729
-2.4670167 1.2067997 -0.56707853
-2.5906723 1.2672888 -0.57055342
-2.7045605 1.323 -0.56967509
-2.8277056 1.3832394 -0.56855667
-2.9745901 1.4550914 -0.56971288
-3.1323047 1.5322412 -0.5701229
-3.3064604 1.6174337 -0.57045376
-3.5109746 1.7174766 -0.57251567
-3.7041421 1.811969 -0.56904948
-3.9589019 1.9365908 -0.57090288
-4.243752 2.0759323 -0.57209957
-4.5830307 2.2418983 -0.57485509
-4.9425907 2.4177856 -0.57368714
-5.3933778 2.6382987 -0.57560956
-5.9263344 2.8990073 -0.57719684
-6.5542498 3.2061667 -0.57729048
-7.3421803 3.5916018 -0.57837743
-8.3460503 4.0826688 -0.57989496
-9.7057037 4.7477756 -0.58426142
-11.530976 5.6406512 -0.58718574
-14.225115 6.9585528 -0.59253627
-18.565868 9.0819349 -0.6013813
-11.125449 5.4422774 -0.25737366
-10.575462 5.1732388 -0.14677674
-10.351911 5.0638828 -0.047889143
-10.214503 4.9966669 0.047253482
-10.080387 4.9310603 0.13990557
-10.031035 4.906919 0.23205575
-9.9440451 4.8643661 0.3221052
-9.8978291 4.8417583 0.41228649
-9.8593073 4.8229141 0.50206017
-9.839592 4.8132701 0.59232122
-9.8207951 4.8040752 0.6823622
-9.8081818 4.797905 0.77263576
-9.8013678 4.7945714 0.86329275
-9.8206387 4.8039989 0.9564836
-9.829237 4.8082047 1.0490278
-9.8767891 4.8314657 1.1464001
-9.924015 4.8545675 1.2447811
-10.02573 4.9043241 1.3515671
-10.145523 4.9629235 1.4630593
-10.335602 5.0559049 1.5878086
-11.339851 5.5471573 1.8491281
-11.34283 5.5486145 1.9569447
-11.470687 5.6111588 2.0878239
-1.9174898 0.9089399 -0.56859076
-1.9829775 0.93998283 -0.56850475
-2.0546162 0.97394139 -0.56892014
-2.144268 1.0164387 -0.57283092
-2.209552 1.047385 -0.56880707
-2.2992601 1.089909 -0.56965131
-2.3983564 1.1368831 -0.57108068
-2.4885645 1.1796441 -0.5686543
-2.5998688 1.2324053 -0.56919831
-2.7296247 1.2939129 -0.57155997
-2.8487022 1.3503587 -0.56939667
-2.9918165 1.4181987 -0.56962913
-3.1583102 1.497121 -0.57146227
-3.3319907 1.5794501 -0.57146448
-3.5115519 1.6645666 -0.56922907
-3.7429068 1.7742349 -0.57160985
-3.982471 1.8877945 -0.57091105
-4.2763438 2.0270979 -0.57308966
-4.5919142 2.1766865 -0.57256883
-4.9741187 2.3578613 -0.57393789
-5.4170341 2.5678148 -0.57472098
-5.9581642 2.8243244 -0.5768708
-6.5981569 3.1276977 -0.57772666
-7.391284 3.5036604 -0.57880801
-8.4088726 3.9860239 -0.58081043
-9.7472353 4.6204424 -0.58329725
-11.599968 5.4986858 -0.58721143
-14.328768 6.7922077 -0.59332997
-18.689688 8.8593969 -0.60181779
-11.423883 5.4152169 -0.26271728
-10.86798 5.1517043 -0.14994603
-10.592427 5.0210853 -0.048712496
-10.443056 4.9502797 0.048025567
-10.318976 4.8914628 0.14237142
-10.228503 4.8485761 0.2352269
-10.167573 4.8196936 0.32740119
-10.126718 4.8003268 0.41933021
-10.071218 4.7740188 0.50982332
-10.040622 4.7595153 0.60085422
-10.033895 4.7563267 0.69305259
-10.019814 4.7496514 0.78464687
-10.037519 4.7580447 0.87887305
-10.044062 4.7611456 0.97246832
-10.073595 4.7751455 1.0687594
-10.112211 4.7934504 1.1667958
-10.197574 4.8339148 1.2715423
-10.303137 4.883954 1.3807639
-10.468147 4.9621735 1.5006716
-10.847233 5.14187 1.6565696
-11.717889 5.5545831 1.8994915
-11.733686 5.5620718 2.0124261
-1.9131833 0.87825394 -0.56406879
-2.000221 0.91820884 -0.5701682
-2.0726151 0.95144171 -0.57062137
-2.1424389 0.98349458 -0.56906855
-2.2203138 1.0192434 -0.56830812
-2.3124883 1.0615563 -0.56965154
-2.4140539 1.1081805 -0.57153058
-2.5048776 1.1498734 -0.56910795
-2.6080072 1.1972154 -0.5677141
-2.7353342 1.2556653 -0.56947941
-2.8738906 1.3192703 -0.57114565
-3.018044 1.3854443 -0.57133591
-3.1738465 1.456966 -0.5709886
-3.3456426 1.5358297 -0.57052374
-3.5452957 1.6274812 -0.57141179
-3.7641759 1.7279589 -0.57156992
-4.0184636 1.8446907 -0.57277572
-4.2961192 1.9721496 -0.57244664
-4.6278467 2.1244302 -0.57374859
-5.005651 2.2978628 -0.57427257
-5.4484577 2.5011349 -0.57474846
-5.9771605 2.7438378 -0.57539988
-6.6217341 3.0397317 -0.57647473
-7.4255357 3.4087198 -0.57816416
-8.4519892 3.8799174 -0.58044934
-9.8139381 4.5051246 -0.58392972
-11.678336 5.3609838 -0.58779711
-14.407514 6.6138229 -0.59317827
-18.804417 8.6322374 -0.60204864
-11.803366 5.4183788 -0.26989168
-11.200343 5.1415591 -0.15364775
-10.910291 5.0084095 -0.049887296
-10.730497 4.9258747 0.049065191
-10.594684 4.8635292 0.14533925
-10.507609 4.8235574 0.24026337
-10.425629 4.785924 0.33379048
-10.385163 4.7673478 0.42757228
-10.344843 4.7488389 0.52067935
-10.317547 4.7363081 0.61389446
-10.315143 4.7352047 0.70840341
-10.297721 4.7272072 0.80179715
-10.296595 4.7266903 0.89640057
-10.312281 4.733891 0.99272639
-10.351857 4.7520585 1.0919997
-10.417759 4.7823114 1.1951759
-10.522882 4.8305683 1.3046
-10.692983 4.9086533 1.424812
-10.976688 5.0388894 1.5645732
-12.103093 5.5559697 1.8377898
-12.109615 5.5589638 1.951763
-12.15139 5.5781407 2.072145
-1.9444607 0.86382586 -0.57011557
-1.9993831 0.88822508 -0.56677318
-2.0797703 0.92393714 -0.5694204
-2.1569247 0.95821285 -0.56974345
-2.2226238 0.98739976 -0.56574893
-2.3253069 1.0330166 -0.56963712
-2.4087481 1.0700854 -0.56711632
-2.5253451 1.1218835 -0.57058078
-2.6305597 1.168625 -0.56945223
-2.7507157 1.2220043 -0.56951028
-2.8906395 1.2841654 -0.57129288
-3.027169 1.3448186 -0.56988978
-3.1996036 1.4214225 -0.57243466
-3.3622677 1.4936861 -0.57018363
-3.5675273 1.5848725 -0.57181072
-3.7880404 1.6828355 -0.57200825
-4.0376883 1.7937412 -0.57232875
-4.312964 1.9160324 -0.57150859
-4.6611509 2.0707142 -0.57467735
-5.0289044 2.2340887 -0.57374531
-5.4751534 2.4323347 -0.57436609
-6.0288 2.6782918 -0.57715702
-6.6700163 2.9631519 -0.57746232
-7.4774246 3.3218427 -0.57898015
-8.5073385 3.7793818 -0.58101499
-9.8753252 4.3871088 -0.58432829
-11.736506 5.2139378 -0.58745354
-14.499463 6.4413805 -0.59365809
-18.923624 8.4068117 -0.60250998
-27.235693 12.099445 -0.61931318
-11.553276 5.1325383 -0.15761165
-11.271764 5.0074763 -0.051254708
-11.073742 4.9195051 0.050354268
-10.938741 4.8595309 0.14922805
-10.843011 4.8170033 0.24655953
-10.746235 4.7740102 0.34214976
-10.70779 4.7569318 0.43841392
-10.676102 4.7428536 0.53437656
-10.637411 4.7256651 0.62942129
-10.639077 4.7264056 0.72660369
-10.619399 4.7176633 0.82226449
-10.643825 4.7285147 0.92149812
-10.669825 4.7400651 1.0214577
-10.725277 4.7646995 1.1251255
-10.799755 4.7977867 1.2321389
-10.970448 4.8736167 1.3525561
-11.193962 4.9729128 1.4833059
-11.757156 5.2231116 1.6665375
-12.534869 5.5686107 1.8928121
-12.537219 5.5696545 2.0094917
-12.573238 5.5856562 2.1322081
-13.361107 5.9356661 2.390409
-1.953229 0.83911943 -0.56961805
-2.0095165 0.86330092 -0.56659365
-2.0842555 0.89540929 -0.56759095
-2.1551571 0.92586905 -0.56622642
-2.2446704 0.96432453 -0.56829935
-2.3421698 1.0062109 -0.57069391
-2.4325426 1.0450356 -0.56964993
-2.5211499 1.0831019 -0.56658089
-2.643039 1.1354661 -0.56908816
-2.7558823 1.1839445 -0.56752288
-2.904295 1.2477034 -0.57091635
-3.0433569 1.3074453 -0.56986761
-3.2116876 1.3797612 -0.57151806
-3.3799543 1.4520496 -0.57011193
-3.5826428 1.5391259 -0.5711568
-3.8073959 1.6356813 -0.57185066
-4.052496 1.7409778 -0.57135004
-4.3368168 1.8631239 -0.57159036
-4.6800203 2.0105662 -0.57391226
-5.0549402 2.1716342 -0.57362574
-5.5223937 2.3724551 -0.57621783
-6.043921 2.5965064 -0.57550448
-6.7161884 2.8853168 -0.57834435
-7.538281 3.238493 -0.58056492
-8.5509901 3.6735592 -0.58086723
-9.9259396 4.264246 -0.58417636
-11.799262 5.069037 -0.58743036
-14.573445 6.2608438 -0.59349018
-19.020124 8.1711655 -0.60233784
-27.406202 11.773877 -0.61985147
-11.994274 5.1528158 -0.16275111
-11.646503 5.0034113 -0.052674972
-11.443577 4.9162326 0.051757172
-11.310497 4.8590612 0.1534729
-11.209065 4.815485 0.25351763
-11.130017 4.7815251 0.3524704
-11.068938 4.7552857 0.45077237
-11.041458 4.7434797 0.54970288
-11.028838 4.7380586 0.64908582
-11.010436 4.7301526 0.74793696
-11.02583 4.7367663 0.84916049
-11.034083 4.7403116 0.95016688
-11.064013 4.7531695 1.0535196
-11.152181 4.7910471 1.1636413
-11.280662 4.8462434 1.2801098
-11.482155 4.932806 1.4080601
-11.846809 5.0894642 1.5614038
-12.970116 5.5720434 1.8286202
-12.894321 5.5394816 1.9366586
-12.80913 5.502883 2.042074
-12.772416 5.4871101 2.1543803
-13.142756 5.6462107 2.3387463
-1.9498827 0.80942935 -0.56569684
-2.0252411 0.84071189 -0.56806964
-2.1053698 0.87397468 -0.57037115
-2.1743898 0.90262604 -0.56832045
-2.2480245 0.93319297 -0.56620055
-2.3389499 0.97093773 -0.56695741
-2.438247 1.0121576 -0.56802827
-2.5486779 1.0579994 -0.56980062
-2.6666229 1.1069603 -0.5711922
-2.7971048 1.1611255 -0.57302839
-2.9164891 1.2106839 -0.57034379
-3.0587561 1.2697414 -0.56978446
-3.2111146 1.3329879 -0.56845629
-3.4019215 1.4121952 -0.57084507
-3.5972071 1.4932615 -0.57050824
-3.8183 1.5850409 -0.57051784
-4.0884113 1.6971687 -0.57342803
-4.3744855 1.815923 -0.5735687
-4.6902976 1.947022 -0.57219344
-5.0911489 2.1134222 -0.5747422
-5.5454946 2.3020287 -0.57563114
-6.0872769 2.5269315 -0.57663053
-6.7342954 2.7955198 -0.57689989
-7.5490518 3.133739 -0.57838303
-8.5981426 3.5692344 -0.58104497
-9.9804068 4.1430359 -0.58433956
-11.866392 4.92594 -0.58771247
-14.642323 6.0782762 -0.59320658
-19.130592 7.941432 -0.60269815
-27.556044 11.43898 -0.62001228
-12.854847 5.3362641 -0.1735248
-12.092697 5.0198832 -0.054409727
-11.853627 4.9206409 0.053334061
-11.714478 4.8628778 0.15813121
-11.597509 4.8143225 0.26094452
-11.529179 4.7859573 0.36322007
-11.473678 4.762918 0.46483478
-11.42963 4.7446327 0.56608075
-11.412048 4.7373343 0.6681602
-11.400825 4.7326751 0.77044457
-11.418699 4.7400951 0.87486243
-11.456269 4.7556911 0.98141223
-11.51177 4.7787304 1.0904775
-11.621262 4.824182 1.2063054
-11.793924 4.8958573 1.3314216
-12.11073 5.027369 1.47745
-13.444278 5.5809469 1.7627711
-13.439493 5.5789609 1.884982
-13.325109 5.5314779 1.9909941
-13.073044 5.4268417 2.0733528
-12.972307 5.3850241 2.1767631
-12.966528 5.3826251 2.295435
-1.9697527 0.78942704 -0.5686022
-2.0441475 0.8192426 -0.57050395
-2.114135 0.84729183 -0.56988007
-2.1810241 0.87409931 -0.56720227
-2.265866 0.90810174 -0.56783885
-2.3578377 0.94496173 -0.56867617
-2.4637001 0.98738861 -0.57108623
-2.5565095 1.0245843 -0.56869179
-2.6687074 1.0695504 -0.56877863
-2.792521 1.1191717 -0.56922692
-2.9221845 1.1711377 -0.56859839
-3.0722504 1.2312802 -0.56943476
-3.2296309 1.2943544 -0.56887364
-3.429348 1.3743958 -0.57256806
-3.6276865 1.453885 -0.57246357
-3.8381946 1.5382513 -0.57062107
-4.0879288 1.6383383 -0.57049155
-4.3836923 1.756873 -0.57190007
-4.7227755 1.8927689 -0.57327282
-5.1092739 2.0476677 -0.57390249
-5.5631819 2.2295825 -0.57457787
-6.1255631 2.4549706 -0.57735407
-6.7835207 2.7186635 -0.57820928
-7.5968847 3.0446391 -0.57913566
-8.6449766 3.4646881 -0.58128703
-10.031566 4.0203977 -0.58439618
-11.924554 4.7790594 -0.58763814
-14.736174 5.9058857 -0.59402174
-19.231857 7.7076416 -0.60285699
-27.69882 11.100986 -0.62010652
-49.468319 19.825651 -0.66442114
-12.793381 5.1272635 -0.057274375
-12.358628 4.9530253 0.055328041
-12.175822 4.8797617 0.16353646
-12.035907 4.8236871 0.26945353
-11.94523 4.7873464 0.37444463
-11.894258 4.7669182 0.47946286
-11.87315 4.7584581 0.585105
-11.856563 4.7518101 0.69071269
-11.856296 4.7517033 0.79721558
-11.855577 4.7514153 0.90378982
-11.90713 4.7720766 1.0149322
-12.002531 4.8103108 1.1312772
-12.185563 4.8836656 1.2585522
-12.558589 5.033165 1.4106516
-13.95413 5.5924625 1.6938183
-13.9468 5.5895247 1.8195108
-13.950397 5.5909662 1.9468502
-13.797369 5.5296364 2.0512431
-13.256505 5.3128719 2.0919302
-12.895675 5.1682601 2.1530774
-12.842112 5.1467934 2.2620354
-1.9788265 0.76496118 -0.56846327
-2.0378039 0.78776032 -0.56598729
-2.115355 0.81773943 -0.56745553
-2.1975338 0.84950757 -0.56873626
-2.279063 0.8810246 -0.56838822
-2.3883784 0.92328292 -0.57326055
-2.4707575 0.95512849 -0.56995666
-2.5691295 0.99315643 -0.56873947
-2.6712177 1.032621 -0.56656456
-2.810499 1.0864635 -0.57012522
-2.9579437 1.1434616 -0.57277721
-3.0916698 1.1951566 -0.57026708
-3.245322 1.2545544 -0.56887722
-3.4242134 1.3237089 -0.56895018
-3.6299703 1.4032491 -0.57005799
-3.863713 1.4936078 -0.57164121
-4.1156645 1.5910054 -0.57158881
-4.4057698 1.7031523 -0.5720048
-4.7594523 1.8398765 -0.5749352
-5.1408272 1.9873056 -0.57465833
-5.6006708 2.1650689 -0.57565659
-6.1493397 2.3771696 -0.57679641
-6.8168726 2.6352201 -0.57824636
-7.6263113 2.948127 -0.57857162
-8.6925058 3.3602896 -0.58166057
-10.081192 3.8971181 -0.58445132
-11.997295 4.6378322 -0.58836794
-14.820316 5.7291365 -0.59452879
-19.336561 7.4749956 -0.6032123
-27.845665 10.764386 -0.6203838
-49.757496 19.234913 -0.66507804
-13.216004 5.1089525 0.058880709
-12.769252 4.9362497 0.17067879
-12.580638 4.8633366 0.28028867
-12.475093 4.822536 0.38916582
-12.395831 4.7918954 0.49726865
-12.369575 4.7817454 0.6066252
-12.324339 4.7642584 0.71449649
-12.34578 4.7725472 0.82612002
-12.385236 4.7877998 0.9396084
-12.492137 4.8291249 1.059655
-12.679633 4.9016056 1.1893256
-14.583491 5.6375861 1.4989424
-14.518471 5.6124511 1.6229218
-14.491767 5.602128 1.7505852
-14.482856 5.5986834 1.8803215
-14.29989 5.5279531 1.9859873
-13.66621 5.28299 2.0219331
-13.130815 5.0760202 2.0620902
-12.78196 4.9411626 2.1237864
-12.700557 4.9096942 2.2262993
-1.9812877 0.73804152 -0.56652039
-2.0496857 0.76352012 -0.56663686
-2.132153 0.79423976 -0.5692988
-2.2003367 0.81963855 -0.56681037
-2.2892311 0.85275227 -0.56826597
-2.3753362 0.88482696 -0.5674758
-2.4788244 0.92337686 -0.56915528
-2.5698383 0.9572801 -0.56624776
-2.705538 1.0078291 -0.57117224
-2.820852 1.0507843 -0.5695613
-2.9602156 1.102698 -0.57054836
-3.1138811 1.1599393 -0.5716899
-3.2680604 1.2173721 -0.57019597
-3.4578178 1.2880578 -0.57185882
-3.659493 1.363183 -0.57201862
-3.875772 1.4437482 -0.57075566
-4.1349874 1.5403075 -0.57159871
-4.4265995 1.6489348 -0.57203346
-4.7582874 1.7724906 -0.5721184
-5.1632972 1.923359 -0.57448298
-5.6225972 2.0944512 -0.57521969
-6.1703143 2.2984791 -0.57606918
-6.8461947 2.5502486 -0.57802987
-7.6810174 2.8612249 -0.58000886
-8.729949 3.2519584 -0.58144635
-10.135116 3.7753911 -0.58484191
-12.048622 4.488184 -0.58813411
-14.877128 5.5418191 -0.59402925
-19.432575 7.23875 -0.60338509
-27.996849 10.428993 -0.62084806
-50.035137 18.638388 -0.6656754
-13.992702 5.2123656 0.18616115
-13.375385 4.9824109 0.29660773
-13.164925 4.9040132 0.40877339
-13.042008 4.8582263 0.52075469
-12.968478 4.8308358 0.63303542
-13.005831 4.8447499 0.86623561
-13.14224 4.8955626 0.99239665
-13.519509 5.036098 1.1414633
-15.467546 5.7617536 1.4440719
-15.363648 5.7230506 1.5717777
-15.272504 5.6890988 1.6992618
-15.182733 5.6556587 1.825514
-15.982723 5.95366 2.0653896
-14.133895 5.2649608 1.9537948
-13.504441 5.0304852 1.9886969
-13.031486 4.8543062 2.0369632
-12.68168 4.7240014 2.0973144
-12.58921 4.6895556 2.1965067
-1.9898291 0.71348721 -0.56641126
-2.0519202 0.73575109 -0.56471086
-2.1439574 0.76875252 -0.56988353
-2.2076945 0.79160666 -0.56615549
-2.2881577 0.82045805 -0.56545246
-2.3883619 0.85638797 -0.56802899
-2.4906144 0.89305234 -0.56929797
-2.597209 0.93127364 -0.5697124
-2.7059162 0.97025251 -0.56869036
-2.8239753 1.0125846 -0.56763494
-2.9722598 1.0657545 -0.57030076
-3.1135097 1.1164021 -0.56905836
-3.2878308 1.178908 -0.571073
-3.4656534 1.2426692 -0.57058448
-3.6751559 1.3177899 -0.57189077
-3.8962014 1.3970497 -0.57119113
-4.1659417 1.4937696 -0.5732953
-4.4326153 1.5893899 -0.57024217
-4.7934632 1.7187781 -0.57376319
-5.1877389 1.8601524 -0.57461405
-5.6502934 2.0260091 -0.57546091
-6.2003069 2.2232261 -0.5762735
-6.8779449 2.4662046 -0.57810646
-7.7070012 2.7634771 -0.5793612
-8.7827711 3.1492126 -0.58234125
-10.157234 3.6420498 -0.58348989
-12.095495 4.3370466 -0.58777446
-14.955599 5.3625855 -0.59448463
-19.521708 6.9998422 -0.6034345
-28.13946 10.089884 -0.62121224
-50.294689 18.034019 -0.66612792
-14.608637 5.2381763 0.32250315
-14.256005 5.1117344 0.44066662
-14.074105 5.0465107 0.55944526
-14.003147 5.0210676 0.68047583
-14.042901 5.0353222 0.80670494
-14.279639 5.1202087 0.94681084
-16.239679 5.8230143 1.6539496
-16.146124 5.7894683 1.7884071
-16.00713 5.7396297 1.9160055
-13.959535 5.0054297 1.9210386
-13.373694 4.7953668 1.9606111
-12.911184 4.6295257 2.0091088
-12.579524 4.5106034 2.0710902
-12.465717 4.4697957 2.1652069
-1.9936599 0.6873154 -0.56505322
-2.0720901 0.71435428 -0.56780148
-2.1463633 0.73995996 -0.56806153
-2.239502 0.77206963 -0.57183456
-2.3115811 0.79691893 -0.56877619
-2.3993208 0.82716721 -0.56817335
-2.4883368 0.85785556 -0.56632334
-2.5994246 0.89615309 -0.56773829
-2.7213259 0.93817872 -0.56946135
-2.8526156 0.98344088 -0.5709179
-2.9723852 1.0247315 -0.56786418
-3.1249218 1.0773185 -0.56867999
-3.3027031 1.1386088 -0.57118118
-3.4887486 1.2027481 -0.57190865
-3.6884341 1.2715898 -0.57148069
-3.9102256 1.3480525 -0.57077384
-4.1723661 1.4384257 -0.57170206
-4.486155 1.5466045 -0.57463986
-4.8166471 1.6605418 -0.57405078
-5.211596 1.7967007 -0.57476598
-5.6695843 1.9545925 -0.57493436
-6.2371602 2.1502645 -0.57719767
-6.9068122 2.3811276 -0.57802814
-7.7488146 2.6714084 -0.57999122
-8.815979 3.039314 -0.58202112
-10.220808 3.5236294 -0.58460873
-12.158598 4.1916838 -0.58829176
-15.016767 5.1770387 -0.59434062
-19.624548 6.765574 -0.6039961
-28.25724 9.7417002 -0.62112099
-50.545315 17.425526 -0.66655898
-16.556545 5.7078786 1.9732186
-14.781824 5.0960422 1.8934312
-13.794738 4.7557435 1.8901697
-13.23801 4.5638118 1.9323463
-12.794077 4.4107652 1.982296
-12.453089 4.2932096 2.0414281
-12.364527 4.2626777 2.138365
-2.0041528 0.66347617 -0.5656721
-2.0842865 0.69000447 -0.56877553
-2.1634507 0.71621192 -0.57021004
-2.2451353 0.74325365 -0.57089615
-2.3294044 0.77115095 -0.57078534
-2.4174283 0.80029136 -0.57008785
-2.5081952 0.83033985 -0.5684762
-2.620676 0.86757666 -0.57000673
-2.7301002 0.90380156 -0.56892884
-2.8694398 0.94993007 -0.57190406
-2.9974349 0.99230289 -0.5702756
-3.145545 1.0413349 -0.57005972
-3.3149955 1.0974315 -0.57093006
-3.4997036 1.1585793 -0.5713259
-3.7104554 1.2283489 -0.57250911
-3.9347005 1.3025854 -0.57196516
-4.1857333 1.38569 -0.57115579
-4.492105 1.4871145 -0.57301641
-4.8262229 1.5977244 -0.57280725
-5.2467031 1.7369248 -0.57623875
-5.6973367 1.8861073 -0.57535326
-6.2553401 2.0708349 -0.57647997
-6.9366937 2.2963974 -0.57812202
-7.76717 2.5713272 -0.57895476
-8.8467245 2.9287145 -0.5816294
-10.263081 3.3975999 -0.58459276
-12.212903 4.0430903 -0.58846933
-15.08283 4.9931817 -0.59448034
-19.702389 6.52249 -0.60387778
-28.395863 9.4004707 -0.62158018
-50.800156 16.817427 -0.66714215
-15.1043 5.0002894 1.7926757
-14.449175 4.7834096 1.843148
-13.629469 4.5120454 1.8597816
-13.11138 4.3405318 1.9059272
-12.683286 4.1988106 1.9569826
-12.370939 4.0954084 2.0195534
-12.263623 4.0598812 2.1121209
-2.0371106 0.64670509 -0.57268667
-2.0891342 0.66322058 -0.56783003
-2.1670661 0.68796098 -0.56889027
-2.2220426 0.70541388 -0.56277585
-2.335305 0.74137044 -0.56995434
-2.4271023 0.77051252 -0.57009178
-2.5180874 0.79939687 -0.56844735
-2.6249049 0.83330739 -0.56865484
-2.7363541 0.86868823 -0.56796312
-2.8606999 0.90816331 -0.56789345
-2.9867282 0.94817245 -0.56597763
-3.1642232 1.0045204 -0.571163
-3.3300102 1.0571514 -0.57123405
-3.5247014 1.1189585 -0.57311726
-3.7136896 1.178955 -0.57072812
-3.9465418 1.2528768 -0.5714038
-4.2044368 1.3347486 -0.5714252
-4.5141654 1.4330755 -0.5735392
-4.8473649 1.5388538 -0.57302737
-5.2445898 1.6649575 -0.57371473
-5.7297716 1.8189844 -0.57632643
-6.2812824 1.994068 -0.57656747
-6.9527898 2.2072461 -0.5771578
-7.8147955 2.4809 -0.5801869
-8.898694 2.8249965 -0.58271825
-10.315656 3.2748277 -0.58524948
-12.271651 3.895782 -0.5889473
-15.125329 4.8017163 -0.59378332
-19.787199 6.2816825 -0.60406405
-28.51749 9.0532179 -0.62175876
-51.039982 16.203251 -0.66762471
-15.669567 4.9744911 1.714121
-15.182679 4.8199224 1.7948083
-14.206694 4.5100846 1.8050061
-13.474773 4.2777276 1.8313569
-12.983896 4.1218925 1.8798857
-12.584277 3.9950287 1.93398
-12.251942 3.8895249 1.9921685
-12.152015 3.8578022 2.0845716
-12.375204 3.9286561 2.2338052
-2.0307305 0.61729908 -0.56871611
-2.0932302 0.63629764 -0.56677383
-2.1728549 0.66050184 -0.5682348
-2.2555132 0.68562824 -0.56907469
-2.337101 0.71042919 -0.56821764
-2.4315443 0.73913795 -0.56895727
-2.5328953 0.76994658 -0.56960988
-2.6515672 0.80602032 -0.57224047
-2.753078 0.83687741 -0.56925541
-2.8777256 0.87476766 -0.56909502
-3.0199728 0.91800779 -0.57009524
-3.1838875 0.96783435 -0.57252103
-3.3359778 1.0140666 -0.57007557
-3.5321112 1.0736871 -0.57213211
-3.7551212 1.1414773 -0.57489491
-3.9685285 1.2063487 -0.57239616
-4.2234678 1.2838447 -0.57182282
-4.5338483 1.3781939 -0.57384342
-4.8673992 1.4795864 -0.57320166
-5.2715836 1.6024498 -0.57446873
-5.7365856 1.7438006 -0.57481152
-6.2873006 1.9112062 -0.57491922
-6.992856 2.1256802 -0.57827026
-7.8324542 2.3809001 -0.57928061
-8.9180641 2.7109025 -0.58175981
-10.347319 3.1453657 -0.5848074
-12.320101 3.7450497 -0.58901787
-15.209753 4.6234426 -0.59482074
-19.864548 6.0384021 -0.60411298
-28.635494 8.7045841 -0.62195092
-51.267105 15.584114 -0.66803843
-16.405199 4.9868336 1.6438172
-15.790491 4.7999749 1.7207624
-15.680359 4.7664971 1.8465729
-13.972797 4.2474346 1.7685193
-13.310327 4.0460577 1.8021089
-12.837504 3.9023297 1.8516028
-12.475981 3.792434 1.9100256
-12.20632 3.7104628 1.9771823
-12.049557 3.6628101 2.059114
-12.17645 3.7013829 2.1895478
-2.0278277 0.58927888 -0.56583112
-2.1094949 0.61301112 -0.56909376
-2.1774468 0.6327576 -0.56735802
-2.262856 0.65757728 -0.5688442
-2.3418984 0.68054664 -0.56730658
-2.4454203 0.7106297 -0.5701164
-2.5329061 0.73605275 -0.56753397
-2.6464694 0.76905376 -0.56905639
-2.7655323 0.80365306 -0.56974423
-2.8979611 0.84213638 -0.5710057
-3.039181 0.8831743 -0.57162797
-3.1810925 0.9244132 -0.56993139
-3.362416 0.97710514 -0.57249707
-3.5397766 1.0286454 -0.57128173
-3.7391577 1.0865848 -0.57036227
-3.9798901 1.1565408 -0.57194048
-4.2392392 1.2319065 -0.57186401
-4.5429239 1.3201562 -0.57289422
-4.8963284 1.4228542 -0.57450461
-5.2896876 1.5371629 -0.57433838
-5.7561054 1.672702 -0.57466298
-6.3337903 1.8405751 -0.57705712
-7.012639 2.0378458 -0.57779038
-7.867291 2.2862043 -0.57973415
-8.9367094 2.5969732 -0.58084905
-10.381837 3.016922 -0.58461744
-12.361449 3.5921893 -0.5888384
-15.258717 4.434124 -0.59455836
-19.945162 5.7959871 -0.6043514
-28.766954 8.3595657 -0.62252647
-51.508186 14.96808 -0.66873097
-16.546803 4.8084369 1.6519564
-16.399107 4.7655172 1.7805656
-16.357513 4.7534304 1.9192885
-13.75968 3.9985099 1.7351911
-13.164098 3.8254361 1.7758077
-12.718033 3.6958113 1.827678
-12.376747 3.5966351 1.8879198
-12.114123 3.5203176 1.9550887
-11.968595 3.4780276 2.037816
-12.03269 3.4966536 2.1558027
-2.0503912 0.56859142 -0.57013303
-2.1160026 0.58678603 -0.56885982
-2.1938751 0.60838079 -0.5696463
-2.2759571 0.63114285 -0.57014352
-2.3669934 0.65638798 -0.57138723
-2.4495301 0.67927617 -0.56908423
-2.553247 0.70803779 -0.57009774
-2.6560581 0.73654819 -0.56912774
-2.7732606 0.76904947 -0.56934512
-2.9017992 0.80469435 -0.56976926
-3.0442767 0.8442046 -0.57059079
-3.189924 0.88459384 -0.56952178
-3.3641701 0.93291384 -0.57079941
-3.5458491 0.98329502 -0.57026732
-3.7637799 1.0437292 -0.57211715
-3.9894357 1.1063055 -0.5713141
-4.2557044 1.1801441 -0.57208425
-4.5474691 1.2610531 -0.57146877
-4.9073548 1.3608526 -0.57379156
-5.3058591 1.4713613 -0.57408637
-5.7797937 1.6027875 -0.57501686
-6.3591032 1.7634351 -0.57734412
-7.0448294 1.9535929 -0.57841957
-7.8958654 2.1895926 -0.57981187
-8.9906492 2.493186 -0.58231831
-10.426529 2.8913677 -0.58508778
-12.406776 3.4405079 -0.58893782
-15.31838 4.247921 -0.59480286
-20.02096 5.5519876 -0.60453385
-28.866638 8.0049725 -0.6225065
-51.699909 14.336838 -0.6688807
-17.238976 4.780519 1.7150615
-17.170122 4.761425 1.8577826
-17.098404 4.7415376 1.9992278
-13.54952 3.7574005 1.7027332
-13.003684 3.6060355 1.7480545
-12.589987 3.4913137 1.802971
-12.253528 3.3980105 1.8626097
-12.021708 3.333725 1.933412
-11.879858 3.2943888 2.0156577
-11.898497 3.2995574 2.1243305
-2.0430822 0.53960192 -0.56621295
-2.1376765 0.56458533 -0.57277685
-2.1774967 0.57510233 -0.56351483
-2.2765777 0.60127079 -0.5684039
-2.3599348 0.62328643 -0.56779033
-2.442615 0.64512318 -0.56559193
-2.5657256 0.67763817 -0.57098037
-2.6722093 0.70576167 -0.5706858
-2.7918792 0.73736799 -0.57126284
-2.9029109 0.7666927 -0.56809342
-3.038903 0.8026098 -0.56769085
-3.2027054 0.84587193 -0.56990361
-3.3631573 0.88824922 -0.56873137
-3.5567074 0.93936801 -0.57011276
-3.7688692 0.9954024 -0.57098705
-4.0046735 1.0576811 -0.57159054
-4.2833414 1.1312805 -0.5738861
-4.5681257 1.2064954 -0.57215697
-4.9235916 1.3003781 -0.57377702
-5.3211966 1.4053903 -0.57383269
-5.794909 1.5305033 -0.57460487
-6.3694186 1.6822379 -0.57635897
-7.0723133 1.8678806 -0.57874662
-7.9250889 2.0931087 -0.580024
-9.0228758 2.3830469 -0.58246362
-10.463863 2.7636287 -0.5852316
-12.455303 3.2895913 -0.58927661
-15.376221 4.0610399 -0.59506482
-20.085434 5.3047976 -0.60446525
-28.985552 7.6554236 -0.62299377
-51.916142 13.71166 -0.66944635
-14.334896 3.7860138 1.6705354
-13.368347 3.5307369 1.6743832
-12.850898 3.3940725 1.7217754
-12.472733 3.2941945 1.7802439
-12.169756 3.2141747 1.8437288
-11.936156 3.1524785 1.9132739
-11.78182 3.1117165 1.992381
-11.791198 3.1141932 2.0981781
-4.6926084 1.2393727 1.3004937
-2.0602047 0.51711154 -0.56915295
-2.1346269 0.53579152 -0.57015133
-2.2252967 0.55854964 -0.5740642
-2.2804253 0.57238692 -0.56756437
-2.3726413 0.59553313 -0.5690425
-2.4556782 0.61637539 -0.56681889
-2.5723712 0.64566535 -0.57064927
-2.6736512 0.67108661 -0.56918842
-2.802542 0.70343822 -0.57163149
-2.9283178 0.73500794 -0.5712536
-3.0593438 0.76789546 -0.56970239
-3.2006094 0.80335319 -0.56772995
-3.3797429 0.84831566 -0.56972897
-3.5605841 0.89370686 -0.56892967
-3.785152 0.95007336 -0.57164073
-4.011867 1.0069789 -0.57080674
-4.2910342 1.0770499 -0.57309902
-4.587615 1.1514916 -0.57278121
-4.935607 1.2388377 -0.57335871
-5.3429141 1.3410718 -0.57435292
-5.8251138 1.462104 -0.57577366
-6.395432 1.6052539 -0.5768832
-7.0890203 1.7793444 -0.57827955
-7.9512444 1.9957629 -0.58009833
-9.04107 2.2693093 -0.58179283
-10.488091 2.6325116 -0.584732
-12.492318 3.1355727 -0.58915913
-15.410027 3.8679175 -0.59448749
-20.159626 5.0600672 -0.60477984
-29.076767 7.2982707 -0.62297827
-52.099594 13.077002 -0.66968775
-13.938122 3.4984696 1.6191611
-13.17837 3.3077717 1.6453698
-12.698659 3.1873641 1.6959988
-12.349371 3.0996928 1.7570634
-12.052861 3.025269 1.8202457
-11.828159 2.9688687 1.8899682
-11.680714 2.9318597 1.9690378
-11.68541 2.9330387 2.0727794
-5.1060605 1.2816216 1.3172204
-4.6574907 1.1690305 1.2439995
-4.3736968 1.0977982 1.2082793
-2.0394859 0.48533469 -0.56173801
-2.1428673 0.50993621 -0.57063437
-2.2083533 0.52551991 -0.56798327
-2.295748 0.5463171 -0.56966293
-2.3805113 0.56648815 -0.56921631
-2.470268 0.58784747 -0.56847507
-2.5597432 0.60913986 -0.56614351
-2.6763003 0.63687682 -0.56804222
-2.8029921 0.66702557 -0.57000726
-2.92941 0.6971091 -0.56975138
-3.0690675 0.73034334 -0.56979769
-3.229543 0.76853156 -0.57114279
-3.3964376 0.80824733 -0.57082474
-3.5781147 0.85148084 -0.57001472
-3.7962863 0.90339893 -0.57160145
-4.0203161 0.95671111 -0.570292
-4.2964435 1.0224209 -0.57209915
-4.6057425 1.0960245 -0.57331854
-4.9556923 1.1793017 -0.57396394
-5.3634963 1.2763466 -0.57483488
-5.8393188 1.3895775 -0.57544529
-6.3983412 1.5226076 -0.57541323
-7.108253 1.6915447 -0.57810801
-7.9673004 1.8959715 -0.57952499
-9.0772848 2.1601136 -0.58236992
-10.511487 2.5014093 -0.58427733
-12.530257 2.9818144 -0.58917469
-15.482825 3.6844344 -0.59550315
-20.243708 4.8173776 -0.60547942
-29.161783 6.9396038 -0.62292439
-52.291248 12.443703 -0.67013383
-13.644664 3.2470086 1.5803131
-12.973711 3.0873427 1.6149554
-12.559084 2.9886742 1.672323
-12.228775 2.9100709 1.7346826
-11.952199 2.8442545 1.7996258
-11.75215 2.7966487 1.8721865
-11.595718 2.759423 1.9488428
-11.595918 2.7594702 2.0507312
-5.7987347 1.3799199 1.3865654
-5.0338712 1.1979059 1.249096
-4.6531096 1.1072965 1.1967689
-4.3922014 1.0452083 1.1696203
-4.1770496 0.99400884 1.1504897
-2.0699477 0.46576768 -0.56850773
-2.1433072 0.48227459 -0.56912929
-2.2247589 0.50060236 -0.57057637
-2.2910273 0.51551372 -0.5668757
-2.3906329 0.53792638 -0.57001179
-2.4820971 0.55850714 -0.56957376
-2.5811558 0.58079678 -0.56925678
-2.6779206 0.60257024 -0.56677067
-2.8057723 0.63133866 -0.56895095
-2.937572 0.66099542 -0.5697149
-3.0911441 0.6955514 -0.57226521
-3.2287068 0.72650492 -0.56937194
-3.406275 0.7664603 -0.57085097
-3.6021795 0.81054163 -0.57221735
-3.8088834 0.85705292 -0.57186812
-4.0428157 0.90969104 -0.57185364
-4.3093395 0.96966267 -0.5721854
-4.6289225 1.0415733 -0.57456619
-4.9567633 1.1153423 -0.5724563
-5.3742938 1.2092925 -0.57435495
-5.8521423 1.3168153 -0.57506984
-6.4286871 1.4465461 -0.5764991
-7.1410279 1.6068329 -0.5791229
-8.0015507 1.8004627 -0.58036208
-9.1103354 2.0499551 -0.58282912
-10.5592 2.3759701 -0.58526123
-12.567657 2.8279014 -0.5892536
-15.527646 3.4939411 -0.59552956
-20.283318 4.5640349 -0.60493982
-29.263548 6.5847144 -0.62332147
-52.469501 11.806384 -0.67050701
-13.381312 3.0109856 1.5454071
-12.812196 2.8829262 1.5903171
-12.433602 2.7977374 1.6509086
-12.11317 2.7256355 1.7133999
-11.841393 2.6644819 1.7778742
-11.645375 2.6203752 1.8499039
-11.512157 2.590399 1.9292998
-11.516455 2.5913661 2.0308893
-5.5273023 1.2437216 1.2683655
-5.0236831 1.1304002 1.1978246
-4.6899304 1.0553011 1.1604435
-4.4462299 1.0004649 1.1403096
-4.2192922 0.94940072 1.1203821
-4.044847 0.91014808 1.1109105
-2.0740623 0.43997252 -0.56810898
-2.1570268 0.45757183 -0.57123512
-2.2328446 0.47365513 -0.57111323
-2.2904398 0.48587286 -0.56520939
-2.3940377 0.50784916 -0.56929165
-2.4741099 0.52483493 -0.56621718
-2.5818572 0.54769146 -0.56788325
-2.6959615 0.57189649 -0.56905752
-2.8130252 0.59672928 -0.56889069
-2.9454246 0.62481529 -0.56970471
-3.1014121 0.65790504 -0.57262516
-3.2517774 0.68980217 -0.57190138
-3.4095867 0.72327834 -0.56987238
-3.6084559 0.76546466 -0.57167596
-3.812284 0.80870289 -0.5708425
-4.052702 0.859703 -0.57171351
-4.3273549 0.91796529 -0.57303536
-4.6314645 0.98247635 -0.57333887
-4.992754 1.059117 -0.57506537
-5.3990631 1.1453075 -0.57545352
-5.8787875 1.2470719 -0.57613772
-6.4432383 1.3668092 -0.57625318
-7.142695 1.5151856 -0.57770342
-8.0360765 1.7046994 -0.58130193
-9.1319532 1.9371686 -0.5826441
-10.602153 2.2490432 -0.58606482
-12.603827 2.6736598 -0.58936346
-15.572431 3.3033922 -0.59564424
-20.343691 4.3155236 -0.60511202
-29.351511 6.2263594 -0.62351722
-52.642151 11.167022 -0.6709078
-13.151155 2.7897654 1.5147499
-12.640999 2.6815453 1.5648562
-12.286724 2.6063926 1.6270279
-12.002018 2.5459979 1.6931212
-11.746923 2.4918845 1.7589569
-11.561578 2.4525669 1.8316634
-11.420573 2.4226556 1.9088147
-11.401357 2.4185791 2.0051961
-11.672627 2.4761238 2.1551602
-5.4807773 1.1626416 1.2055049
-5.0308733 1.0672033 1.1513503
-4.7146649 1.0001256 1.1211267
-4.4832458 0.95103461 1.1063257
-4.2580853 0.90327108 1.0891259
-4.0770922 0.86487681 1.0797169
-3.948477 0.83759362 1.0815321
-2.0847976 0.41553026 -0.56960684
-2.1573629 0.4299936 -0.56988084
-2.2335985 0.44518843 -0.56986278
-2.2961965 0.45766512 -0.56519848
-2.3921666 0.47679335 -0.56740963
-2.4960845 0.49750564 -0.56980306
-2.5846012 0.51514834 -0.56705064
-2.7028756 0.53872216 -0.5690757
-2.8135648 0.5607841 -0.5675624
-2.958111 0.58959424 -0.57071316
-3.0964794 0.61717302 -0.57027006
-3.2386594 0.64551157 -0.56815529
-3.4191952 0.68149495 -0.57003462
-3.6139975 0.72032183 -0.57110745
-3.8318138 0.76373577 -0.57231736
-4.0603571 0.80928773 -0.57134634
-4.3334999 0.86372906 -0.57239938
-4.6387124 0.92456228 -0.57278538
-4.9937801 0.99533242 -0.57373041
-5.3994408 1.0761865 -0.57403994
-5.9081707 1.1775837 -0.57755458
-6.4736009 1.290282 -0.57750607
-7.165432 1.428174 -0.57807833
-8.0452433 1.6035331 -0.58049482
-9.1454363 1.8228176 -0.58203036
-10.615386 2.1157997 -0.58531392
-12.647168 2.5207632 -0.58989614
-15.622631 3.1138158 -0.59605479
-20.408358 4.0676799 -0.60550195
-29.433714 5.8665638 -0.62368387
-52.79002 10.521813 -0.67109269
-13.743788 2.7393353 1.4611667
-12.940774 2.579283 1.4867526
-12.486656 2.488771 1.5418447
-12.155519 2.4227703 1.605587
-11.884879 2.3688281 1.6723609
-11.629624 2.3179522 1.7369937
-11.388385 2.2698696 1.7996669
-11.082904 2.2089827 1.8476976
-10.849687 2.1624992 1.9033514
-11.466416 2.2854223 2.1117384
-6.1108108 1.2179728 1.2326947
-5.478055 1.0918554 1.1533746
-5.0805221 1.0126214 1.1146452
-4.7828231 0.95328569 1.091817
-4.5416923 0.90522486 1.0772661
-4.3329911 0.86362767 1.0665463
-4.1490321 0.82696199 1.0585514
-3.9939291 0.79604769 1.0550212
-3.8428757 0.76594061 1.0499476
-2.0815253 0.38833088 -0.56736523
-2.1668456 0.4042483 -0.57102948
-2.2252698 0.41514793 -0.5663926
-2.3204966 0.43291351 -0.56982642
-2.3911393 0.44609267 -0.56582206
-2.4906225 0.46465233 -0.56720906
-2.6115818 0.48721859 -0.57161242
-2.7239866 0.5081889 -0.57216156
-2.8231988 0.52669799 -0.56815636
-2.9694867 0.55398959 -0.57155043
-3.1069331 0.57963175 -0.57083958
-3.2557197 0.60738945 -0.56979483
-3.4398429 0.64173961 -0.5721181
-3.6116672 0.67379522 -0.56938684
-3.8409736 0.71657479 -0.57232612
-4.0732603 0.7599104 -0.57180393
-4.3443608 0.81048709 -0.5724743
-4.6512632 0.86774302 -0.57297426
-5.0109177 0.93484044 -0.57433528
-5.4214044 1.0114212 -0.57500929
-5.8993053 1.1005787 -0.57532156
-6.4945374 1.2116256 -0.57800102
-7.1775126 1.3390421 -0.57768095
-8.0651608 1.5046422 -0.58055305
-9.152504 1.7074978 -0.58109993
-10.645581 1.9860474 -0.58558798
-12.671424 2.3639901 -0.58962709
-15.645998 2.9189286 -0.59553188
-20.446341 3.8144841 -0.60519147
-29.509563 5.5053258 -0.62380946
-52.949337 9.8782673 -0.67152309
-13.386736 2.4974391 1.4198345
-12.746922 2.3780751 1.4610112
-12.336726 2.3015485 1.519722
-12.015098 2.2415454 1.5832788
-11.790384 2.1996226 1.6551332
-10.47229 1.9537181 1.5604286
-9.8713732 1.8416106 1.5562426
-9.5723619 1.7858268 1.5920846
-9.3521595 1.7447456 1.6367539
-9.1522188 1.7074445 1.6815451
-6.0689936 1.1322358 1.1681263
-5.534862 1.0325879 1.1138667
-5.1458907 0.96002108 1.0808719
-4.8444462 0.90378344 1.0603328
-4.6144075 0.86086726 1.0508754
-4.3959632 0.82011414 1.0402293
-4.215188 0.78638852 1.0350912
-4.0473228 0.75507152 1.0301554
-3.9131362 0.73003757 1.03123
-3.7548146 0.70050097 1.0234568
-2.1072133 0.36637145 -0.57309574
-2.1626318 0.37600684 -0.56865758
-2.2212751 0.3862029 -0.56412446
-2.3279243 0.40474549 -0.5703851
-2.4003484 0.41733757 -0.56674409
-2.5045514 0.43545485 -0.5691188
-2.601198 0.45225835 -0.56807953
-2.7176044 0.47249737 -0.56955755
-2.8328435 0.4925335 -0.56883556
-2.9541059 0.5136168 -0.56733143
-3.118906 0.54226983 -0.57177097
-3.2613025 0.56702763 -0.56950855
-3.4364712 0.59748346 -0.57029223
-3.6372159 0.63238597 -0.57214546
-3.8534274 0.66997766 -0.57291096
-4.0893884 0.71100312 -0.57279736
-4.366087 0.7591114 -0.57406378
-4.6708975 0.8121075 -0.57411945
-5.0234089 0.87339705 -0.57449257
-5.4435325 0.94644201 -0.57607836
-5.9222531 1.029675 -0.57628119
-6.5030127 1.130649 -0.5774743
-7.199728 1.2517836 -0.57818633
-8.0768509 1.404285 -0.58010775
-9.2105694 1.6013994 -0.58349222
-10.655478 1.8526189 -0.58483505
-12.70198 2.2084348 -0.58974069
-15.687593 2.7275295 -0.59579343
-20.511541 3.5662475 -0.60577762
-29.567572 5.1407776 -0.62365228
-53.085152 9.2296705 -0.67175537
-13.098146 2.2773144 1.3861511
-12.570418 2.1855609 1.4375919
-10.331263 1.7962492 1.2698585
-9.9571819 1.7312094 1.3091946
-9.7102108 1.6882697 1.3601016
-9.4764986 1.6476353 1.4089249
-9.2756519 1.612715 1.4590893
-9.1050396 1.5830514 1.5110074
-7.2121167 1.2539376 1.259424
-6.1054912 1.0615337 1.1192843
-5.5943961 0.97267193 1.0743952
-5.22785 0.90894222 1.0497533
-4.9350786 0.85803944 1.0342975
-4.6951418 0.81632268 1.0253791
-4.4725728 0.77762568 1.0163198
-4.2889886 0.74570674 1.0126692
-4.1277022 0.71766454 1.0113645
-3.967459 0.68980384 1.0075927
-3.8344321 0.66667509 1.0082525
-3.7212725 0.64700055 1.0120691
-2.1001368 0.33859298 -0.56999576
-2.1638529 0.34886557 -0.56780779
-2.2373648 0.36071745 -0.56704134
-2.3281915 0.37536094 -0.56927663
-2.423948 0.39079919 -0.57113838
-2.5039203 0.40369266 -0.56780446
-2.6072628 0.42035401 -0.56823224
-2.7178113 0.43817708 -0.56842875
-2.8501663 0.45951593 -0.57113618
-2.9737778 0.47944507 -0.56993413
-3.1125941 0.50182563 -0.56943959
-3.274745 0.52796829 -0.57067913
-3.43999 0.55460978 -0.56970137
-3.6353037 0.58609909 -0.57066792
-3.8439281 0.61973441 -0.57032251
-4.0858274 0.65873444 -0.57112086
-4.3599043 0.70292228 -0.57207119
-4.6580577 0.75099182 -0.57136297
-5.0286121 0.81073421 -0.57390416
-5.448204 0.87838256 -0.57538617
-5.9162683 0.95384592 -0.57451403
-6.507194 1.0491174 -0.57665646
-7.218359 1.1637745 -0.57848954
-8.1144295 1.3082427 -0.58160734
-9.2097578 1.4848362 -0.5822401
-10.685905 1.7228271 -0.58529812
-12.728341 2.0521173 -0.58974844
-15.725253 2.5352919 -0.59599471
-20.545797 3.3124807 -0.60554057
-29.660927 4.7820606 -0.62433392
-53.232685 8.5823994 -0.67223608
-10.79741 1.7408042 1.0485095
-10.353126 1.6691749 1.0933962
-10.04216 1.6190397 1.1460891
-9.7543621 1.5726396 1.1964818
-9.5541325 1.5403578 1.2536155
-9.344471 1.5065553 1.306179
-9.1761703 1.4794211 1.3614658
-9.0382385 1.4571832 1.4188175
-7.0580592 1.1379303 1.1688946
-6.2046366 1.0003378 1.0812619
-5.7043853 0.91968518 1.0435998
-5.3417864 0.86122549 1.0237707
-5.0414124 0.8127979 1.0102333
-4.7768793 0.77014881 0.99908167
-4.5769563 0.73791635 0.99751133
-4.3681707 0.70425504 0.99055338
-4.2165775 0.67981452 0.99352342
-4.0414219 0.65157515 0.9881863
-3.8897867 0.62712789 0.98583376
-3.7725313 0.6082235 0.98993444
-3.6645801 0.59081912 0.99459952
-2.0770051 0.30871174 -0.56264478
-2.1718643 0.32281095 -0.56882536
-2.2497349 0.3343851 -0.56909132
-2.3200366 0.34483427 -0.56620306
-2.4223132 0.36003596 -0.56966698
-2.5192544 0.37444463 -0.57019448
-2.6180117 0.38912323 -0.569489
-2.7138636 0.40336999 -0.5665229
-2.8469121 0.42314541 -0.56939834
-2.9780388 0.44263518 -0.5696646
-3.1201096 0.46375158 -0.5697282
-3.2686312 0.48582682 -0.56852973
-3.4578338 0.51394856 -0.57156664
-3.6456826 0.5418691 -0.571208
-3.8522987 0.57257915 -0.57047671
-4.0889487 0.60775316 -0.57046938
-4.3722205 0.64985675 -0.57259542
-4.6845636 0.69628131 -0.57352072
-5.0530891 0.75105637 -0.57560015
-5.458179 0.81126612 -0.57534266
-5.9387054 0.88268822 -0.57559532
-6.5435257 0.97258455 -0.57877249
-7.2355337 1.0754399 -0.57876241
-8.1212063 1.2070801 -0.58098531
-9.2411079 1.3735346 -0.58311021
-10.699908 1.5903606 -0.58494973
-12.742655 1.8939804 -0.589288
-15.746368 2.3404317 -0.5956592
-20.584061 3.059473 -0.60551375
-29.717619 4.4170222 -0.62433672
-53.359306 7.9309597 -0.6725527
-11.143929 1.6563567 0.89139062
-10.65183 1.5832145 0.94215053
-10.276026 1.5273577 0.99598014
-10.021158 1.4894758 1.0563228
-9.7633524 1.4511573 1.1121488
-9.5201855 1.4150147 1.1655351
-9.3302069 1.3867778 1.221904
-9.1704569 1.3630334 1.2794156
-8.8890648 1.3212094 1.3163581
-7.1141648 1.0574005 1.1146522
-6.3101649 0.93789947 1.0430461
-5.8138747 0.86413431 1.0112369
-5.4593787 0.81144446 0.99687588
-5.1452675 0.76475716 0.98423052
-4.894587 0.7274977 0.97894478
-4.6668348 0.69364619 0.97420835
-4.4572864 0.66250038 0.96958148
-4.2881117 0.63735539 0.97054809
-4.1428418 0.61576343 0.97429186
-3.9764555 0.59103292 0.9704507
-3.8497736 0.57220381 0.973836
-3.7290463 0.55425978 0.9766615
-3.6102183 0.53659797 0.97798049
-2.0893114 0.28433001 -0.56498861
-2.1659486 0.29475942 -0.56628394
-2.257874 0.30726936 -0.57015133
-2.3485832 0.31961381 -0.57216746
-2.4177685 0.32902905 -0.56760371
-2.5166891 0.34249097 -0.5686177
-2.6131215 0.35561424 -0.56743109
-2.7199581 0.37015343 -0.56680208
-2.8663507 0.39007568 -0.57228357
-2.9882507 0.40666482 -0.57061827
-3.1268981 0.42553306 -0.56996924
-3.2819526 0.44663411 -0.56984842
-3.4609098 0.47098801 -0.5710746
-3.6495306 0.49665704 -0.57081091
-3.8637054 0.52580363 -0.57116526
-4.1105604 0.55939758 -0.57248163
-4.3752933 0.59542453 -0.57199574
-4.6982961 0.63938135 -0.57419598
-5.046917 0.68682444 -0.57389164
-5.4815502 0.74597275 -0.57679564
-5.9565134 0.81060952 -0.57631171
-6.525548 0.88804823 -0.57617301
-7.2370825 0.98487949 -0.57787395
-8.1261187 1.1058666 -0.58032006
-9.2519588 1.2590798 -0.58277398
-10.708565 1.4573063 -0.58439916
-12.776694 1.7387537 -0.58982885
-15.778635 2.1472816 -0.59583592
-20.638859 2.8086991 -0.6060639
-29.768423 4.0511227 -0.62431037
-53.462601 7.2756143 -0.67267615
-12.20576 1.6610564 0.76883167
-11.295879 1.5372326 0.80668586
-10.762697 1.464673 0.8593908
-10.419705 1.4179959 0.92000741
-10.09458 1.3737503 0.97668278
-9.8257475 1.3371655 1.0339134
-9.5884991 1.3048788 1.0903209
-9.3730822 1.2755632 1.1455187
-9.2261095 1.2555621 1.206158
-8.4239445 1.1463971 1.1732107
-7.2273445 0.98355424 1.0684066
-6.4754262 0.88122731 1.0127999
-5.9538746 0.8102504 0.98243153
-5.5719771 0.75827879 0.96746749
-5.2657051 0.71659887 0.95982975
-4.9883094 0.67884862 0.95253742
-4.7731962 0.64957434 0.95299637
-4.5606384 0.62064779 0.95037466
-4.3867288 0.59698075 0.95256436
-4.2233758 0.57475042 0.95422441
-4.0526605 0.55151814 0.95141673
-3.9258318 0.53425831 0.95642048
-3.7980537 0.51686925 0.95907271
-3.6913517 0.50234836 0.9650982
-3.5813572 0.48737946 0.96846563
-2.0999665 0.2595236 -0.56696415
-2.1819141 0.26965109 -0.56954813
-2.2535365 0.27850249 -0.56814831
-2.3222597 0.28699562 -0.56485194
-2.4301407 0.30032808 -0.56959826
-2.5189455 0.31130296 -0.56821966
-2.6334534 0.32545438 -0.570934
-2.7279603 0.337134 -0.56756288
-2.8677127 0.35440525 -0.57164222
-2.9806435 0.36836177 -0.56825781
-3.1193917 0.38550889 -0.56769395
-3.296979 0.40745595 -0.57154429
-3.4636838 0.42805812 -0.57062066
-3.6621912 0.45259058 -0.57187742
-3.8716161 0.47847229 -0.57142174
-4.1148572 0.50853312 -0.57216585
-4.4019356 0.54401165 -0.57456082
-4.7021046 0.58110791 -0.57374471
-5.0549512 0.62471431 -0.5738883
-5.4664984 0.6755752 -0.57429427
-5.9579749 0.73631418 -0.57553357
-6.5468421 0.80908912 -0.57713103
-7.2596221 0.89717776 -0.578749
-8.1327229 1.0050796 -0.57986528
-9.2748737 1.1462319 -0.58328545
-10.733882 1.3265429 -0.58484638
-12.790064 1.5806553 -0.58950418
-15.802259 1.9529165 -0.5957762
-20.669811 2.5544713 -0.60600466
-29.829248 3.6864369 -0.62458813
-53.559929 6.6191845 -0.67282581
-11.691127 1.4448438 0.73524064
-11.078593 1.369144 0.78990656
-10.622592 1.3127892 0.84685051
-10.278023 1.2702057 0.90604997
-9.9619684 1.2311462 0.96231472
-9.6897106 1.1974993 1.0179725
-9.4676867 1.1700606 1.0748661
-9.3050251 1.1499583 1.1353872
-8.4828892 1.0483547 1.1072255
-7.4064302 0.91532099 1.0298551
-6.6702304 0.82433802 0.98447639
-6.1315637 0.75776708 0.95748764
-5.7371945 0.70902914 0.94516766
-5.4118543 0.66882205 0.93816626
-5.1257 0.63345778 0.93281937
-4.8820901 0.60335129 0.93076736
-4.6616483 0.57610816 0.92924058
-4.468822 0.55227774 0.92975599
-4.3098559 0.53263199 0.93437886
-4.1464987 0.51244354 0.93536043
-4.0077858 0.49530077 0.93938094
-3.883595 0.47995269 0.94462144
-3.7546155 0.4640128 0.9465915
-3.6345763 0.4491778 0.94873857
-3.5483451 0.43852094 0.95800787
-2.109097 0.23436141 -0.56860828
-2.1787682 0.2421032 -0.56790692
-2.2535188 0.25040945 -0.56732464
-2.3548589 0.26167029 -0.57195532
-2.4421654 0.27137172 -0.57159138
-2.5312438 0.28127006 -0.57017058
-2.6212311 0.29126936 -0.56746477
-2.7394178 0.3044022 -0.56912482
-2.8753994 0.3195124 -0.572348
-2.9733698 0.33039877 -0.56605369
-3.1413414 0.34906369 -0.57086426
-3.287534 0.36530849 -0.56908524
-3.4593835 0.38440427 -0.56909049
-3.6530955 0.40592942 -0.56963456
-3.8831649 0.43149459 -0.5722999
-4.1084328 0.45652616 -0.57044888
-4.3809018 0.48680279 -0.57099092
-4.7020383 0.52248722 -0.57290941
