# .PCD v0.7 - Point Cloud Data file format
VERSION 0.7
FIELDS x y z
SIZE 4 4 4
TYPE F F F
COUNT 1 1 1
WIDTH 1419
HEIGHT 1
VIEWPOINT 0 0 0 1 0 0 0
POINTS 1419
DATA ascii
-2.3117406 -1.0612131 -0.56946737
-2.4131079 -1.1077461 -0.57130659
-2.5092762 -1.1518925 -0.57010734
-2.6103446 -1.1982884 -0.56822294
-2.7447321 -1.2599795 -0.57143599
-2.8868787 -1.3252324 -0.57372683
-3.0179024 -1.3853793 -0.57130915
-3.1774027 -1.4585986 -0.57162839
-3.3495173 -1.5376085 -0.57118452
-3.5395739 -1.6248546 -0.57048959
-3.7479975 -1.7205323 -0.56911331
-4.0029655 -1.8375762 -0.57056665
-4.3011613 -1.9744642 -0.57311851
-4.633667 -2.1271019 -0.57447016
-5.0157356 -2.3024921 -0.57542956
-5.4552546 -2.5042551 -0.57546544
-6.0017037 -2.7551045 -0.5777626
-6.6334743 -3.0451212 -0.57749683
-7.4554372 -3.4224463 -0.58049232
-8.4755783 -3.8907456 -0.58206934
-9.8457212 -4.5197148 -0.58582079
-11.701648 -5.371685 -0.58897042
-14.458783 -6.6373582 -0.59528917
-18.897226 -8.6748419 -0.60502005
-27.242727 -12.505875 -0.62292278
-48.814892 -22.408657 -0.669649
-1.9067316 -0.9038403 -0.56540066
-1.9886438 -0.94266874 -0.57012922
-2.0485234 -0.9710533 -0.56723315
-2.1271472 -1.008323 -0.56825715
-2.2171936 -1.0510073 -0.5707742
-2.2934461 -1.0871528 -0.56821084
-2.3798695 -1.1281199 -0.5666787
-2.4831319 -1.1770689 -0.56741291
-2.6044853 -1.2345936 -0.57020903
-2.7206302 -1.2896494 -0.56967664
-2.8378639 -1.3452212 -0.56723034
-3.0099247 -1.4267824 -0.57307684
-3.1538243 -1.4949945 -0.57065058
-3.3343425 -1.5805649 -0.57186782
-3.5296862 -1.6731629 -0.57216871
-3.7404439 -1.7730675 -0.57123375
-3.9935477 -1.8930452 -0.57249892
-4.2711067 -2.0246155 -0.57238781
-4.5884724 -2.1750548 -0.57213968
-4.9700704 -2.3559425 -0.57347083
-5.4329696 -2.5753684 -0.57641166
-5.9458499 -2.8184872 -0.57567853
-6.5912471 -3.1244223 -0.57712168
-7.4052377 -3.5102749 -0.57990068
-8.4314184 -3.9967113 -0.58236772
-9.780221 -4.6360788 -0.58527124
-11.628099 -5.5120211 -0.5886355
-14.367526 -6.8105803 -0.59493488
-18.769711 -8.8973293 -0.60439456
-27.072987 -12.833299 -0.62260282
-48.482517 -22.98197 -0.66891557
-1.8939018 -0.92644709 -0.56493163
-1.9725823 -0.96493548 -0.56888318
-2.0333347 -0.99465394 -0.5663712
-2.1096311 -1.0319761 -0.56692493
-2.1959355 -1.074194 -0.56865907
-2.2796764 -1.1151578 -0.56815374
-2.3665361 -1.1576474 -0.56685054
-2.4754078 -1.2109045 -0.56900734
-2.5755115 -1.2598727 -0.56721455
-2.7160172 -1.3286043 -0.5720883
-2.8244131 -1.3816286 -0.56789464
-2.9826713 -1.4590445 -0.57126063
-3.1259873 -1.5291508 -0.568973
-3.3153341 -1.6217744 -0.57198471
-3.4927137 -1.7085438 -0.56953794
-3.7130721 -1.8163373 -0.57042134
-3.9540715 -1.9342279 -0.57020628
-4.247786 -2.0779054 -0.57264334
-4.5716906 -2.2363508 -0.57343268
-4.955286 -2.4239957 -0.57516062
-5.3998375 -2.6414587 -0.57629901
-5.9236779 -2.8977077 -0.57693809
-6.5708699 -3.2142971 -0.57875443
-7.3705988 -3.6055033 -0.58061612
-8.3774357 -4.0980215 -0.5820756
-9.7177238 -4.7536554 -0.58498502
-11.561955 -5.6558051 -0.58876324
-14.280052 -6.9854264 -0.59482461
-18.650776 -9.1234694 -0.60413158
-26.910055 -13.163692 -0.62253124
-48.131207 -23.544523 -0.6680125
-1.8948033 -0.9559375 -0.56866384
-1.964751 -0.99122643 -0.57009673
-2.0350294 -1.0266823 -0.57031661
-2.1088991 -1.0639498 -0.57020092
-2.1848488 -1.1022669 -0.56925505
-2.2875712 -1.1540909 -0.57361478
-2.3542638 -1.1877376 -0.56736636
-2.4607303 -1.2414504 -0.56909949
-2.5597961 -1.2914295 -0.56720787
-2.6893089 -1.3567694 -0.56993365
-2.8122258 -1.4187816 -0.56890899
-2.9585752 -1.4926156 -0.57011777
-3.1192503 -1.5736769 -0.5712257
-3.2884939 -1.6590612 -0.57083058
-3.4963014 -1.7639011 -0.57361645
-3.6891465 -1.8611923 -0.57021856
-3.9488757 -1.992227 -0.57294637
-4.2234755 -2.1307638 -0.57285488
-4.5543623 -2.297698 -0.5747596
-4.9228582 -2.4836059 -0.57489806
-5.362412 -2.7053628 -0.57581156
-5.8822765 -2.9676373 -0.57641631
-6.5311441 -3.2949941 -0.57878035
-7.3135896 -3.6897414 -0.57965547
-8.3315887 -4.2033272 -0.58243734
-9.6538582 -4.8704185 -0.58470142
-11.486493 -5.7949915 -0.58850461
-14.166083 -7.1468577 -0.59369308
-18.539419 -9.3532267 -0.6042043
-26.699106 -13.46983 -0.62143594
-47.794548 -24.112583 -0.66740465
-1.8820806 -0.97873342 -0.56841445
-1.9399989 -1.0088526 -0.56647134
-2.0132408 -1.0469403 -0.56777531
-2.0920224 -1.087909 -0.56921178
-2.1696174 -1.1282604 -0.56885821
-2.247916 -1.168978 -0.56723267
-2.3521352 -1.2231747 -0.57043499
-2.4428842 -1.2703668 -0.56854188
-2.5575597 -1.3300011 -0.57029307
-2.6696684 -1.3883007 -0.56934607
-2.7937701 -1.452837 -0.56874645
-2.937351 -1.527503 -0.56960428
-3.0921452 -1.6080003 -0.56983984
-3.2746212 -1.7028928 -0.57201403
-3.4503694 -1.7942866 -0.56965739
-3.6669476 -1.9069132 -0.57036853
-3.920274 -2.0386498 -0.57239044
-4.2032928 -2.1858273 -0.57371968
-4.5069966 -2.3437617 -0.57237589
-4.8942719 -2.5451553 -0.57517105
-5.3222938 -2.7677386 -0.57511473
-5.8409519 -3.0374551 -0.57598329
-6.4887214 -3.3743129 -0.57865411
-7.2727008 -3.7820036 -0.58005673
-8.2735796 -4.3024883 -0.58203655
-9.5909243 -4.9875436 -0.5845601
-11.426401 -5.9420414 -0.5891248
-14.09903 -7.3318815 -0.59461629
-18.413078 -9.575305 -0.60387838
-26.522148 -13.792243 -0.62121761
-47.433727 -24.666838 -0.66655123
-1.8551315 -0.99388617 -0.56392384
-1.9397827 -1.0392381 -0.57009649
-1.9923387 -1.0673949 -0.5655393
-2.0810041 -1.1148974 -0.56990087
-2.1468902 -1.1501957 -0.56656474
-2.2488272 -1.2048086 -0.57115775
-2.3280067 -1.2472289 -0.56825984
-2.4370203 -1.3056328 -0.57087046
-2.5388734 -1.3602006 -0.56981277
-2.6536679 -1.4217018 -0.56961894
-2.7832148 -1.4911065 -0.57028717
-2.9174674 -1.5630323 -0.5694325
-3.0750704 -1.6474681 -0.57038337
-3.2545917 -1.7436466 -0.57221729
-3.4448812 -1.845594 -0.57245481
-3.6578619 -1.9596986 -0.57266021
-3.8892641 -2.083672 -0.57156056
-4.1771812 -2.2379236 -0.57386833
-4.5003543 -2.4110637 -0.57525402
-4.8484092 -2.5975339 -0.57349157
-5.2809739 -2.8292801 -0.57436568
-5.8084688 -3.1118855 -0.57650989
-6.4456739 -3.4532678 -0.57855827
-7.2337146 -3.8754606 -0.58070421
-8.2132826 -4.4002638 -0.58155715
-9.5311651 -5.106319 -0.58470052
-11.330362 -6.0702386 -0.58797723
-13.984076 -7.4919643 -0.59360868
-18.278175 -9.7925272 -0.60335761
-26.333817 -14.108335 -0.62082291
-47.07571 -25.220797 -0.66582793
-1.8537198 -1.0226612 -0.56727439
-1.9237678 -1.0613053 -0.56918216
-1.9879006 -1.0966861 -0.56806451
-2.0733509 -1.1438274 -0.57161361
-2.13083 -1.1755376 -0.56609839
-2.2296734 -1.2300675 -0.57009155
-2.3101268 -1.2744521 -0.56767786
-2.4186745 -1.3343358 -0.57037336
-2.5293503 -1.3953934 -0.57148325
-2.6434524 -1.4583412 -0.57123226
-2.765434 -1.5256362 -0.57044464
-2.9065485 -1.6034864 -0.57110661
-3.0569458 -1.6864576 -0.57082486
-3.22715 -1.7803559 -0.57119834
-3.4147265 -1.8838383 -0.57125008
-3.6298232 -2.0025029 -0.57208234
-3.8680542 -2.1339302 -0.57225645
-4.1412349 -2.2846389 -0.5727461
-4.4638782 -2.4626348 -0.57441878
-4.8340297 -2.6668401 -0.57562602
-5.2458177 -2.8940156 -0.57436907
-5.7596192 -3.17747 -0.5754959
-6.3948288 -3.5279026 -0.57784456
-7.1661243 -3.9534116 -0.57913703
-8.1439781 -4.4928741 -0.58051783
-9.4710588 -5.224999 -0.58491045
-11.260785 -6.2123561 -0.58828628
-13.904413 -7.6707945 -0.59418613
-18.170301 -10.024202 -0.60381991
-26.150909 -14.426949 -0.62064612
-46.695183 -25.760824 -0.66487586
-1.8442539 -1.0472208 -0.56827533
-1.8993249 -1.0784918 -0.56583124
-1.9733713 -1.1205375 -0.56780702
-2.042788 -1.1599544 -0.56707704
-2.1233802 -1.2057168 -0.56801504
-2.2076643 -1.2535758 -0.56836241
-2.3050573 -1.3088785 -0.57034397
-2.3959508 -1.3604903 -0.56891668
-2.5106385 -1.4256134 -0.57117307
-2.6107662 -1.4824688 -0.56806523
-2.7462327 -1.5593907 -0.57039613
-2.889818 -1.6409225 -0.57174063
-3.0197713 -1.7147138 -0.56777751
-3.2008948 -1.8175609 -0.57046396
-3.3891127 -1.9244366 -0.57088071
-3.6044252 -2.0466971 -0.57200271
-3.8425128 -2.1818902 -0.57240379
-4.1085801 -2.3329711 -0.57215416
-4.4211841 -2.5104768 -0.57285392
-4.76543 -2.7059495 -0.57137626
-5.219892 -2.9640064 -0.57547754
-5.7195396 -3.2477205 -0.57543796
-6.3592038 -3.6109405 -0.57859391
-7.1027217 -4.0331316 -0.5779773
-8.0978231 -4.5981789 -0.58121425
-9.4020405 -5.3387518 -0.58465815
-11.169428 -6.3423252 -0.58754343
-13.792692 -7.8318911 -0.59348243
-18.023466 -10.234247 -0.60307682
-25.940454 -14.729743 -0.61990315
-46.322868 -26.303469 -0.66412979
-1.8221664 -1.064518 -0.56546009
-1.8919587 -1.1052909 -0.56764281
-1.9601928 -1.1451536 -0.56802392
-2.035794 -1.1893202 -0.56915218
-2.0984921 -1.2259488 -0.56534725
-2.192296 -1.2807494 -0.56841743
-2.2840898 -1.3343757 -0.5691728
-2.3859918 -1.3939074 -0.57057875
-2.4782248 -1.4477903 -0.56780612
-2.6017742 -1.5199685 -0.57013232
-2.723942 -1.5913395 -0.5697875
-2.8606246 -1.67119 -0.56998748
-3.0015311 -1.7535082 -0.56835914
-3.186538 -1.8615901 -0.57194167
-3.3637996 -1.9651473 -0.57064408
-3.5746994 -2.0883558 -0.57131737
-3.8234417 -2.2336721 -0.57361102
-4.0886617 -2.3886149 -0.57342726
-4.387116 -2.5629733 -0.5724799
-4.7570057 -2.7790647 -0.57442009
-5.1800814 -3.0262272 -0.57514751
-5.687326 -3.3225617 -0.5762639
-6.3191996 -3.6917055 -0.57904065
-7.0639067 -4.1267667 -0.57890433
-8.046979 -4.7010818 -0.58166999
-9.3299074 -5.4505749 -0.58429617
-11.098192 -6.4836149 -0.58794558
-13.704502 -8.0062332 -0.59387892
-17.88266 -10.447131 -0.60261822
-25.745495 -15.040636 -0.61961704
-45.932995 -26.834267 -0.66322076
-1.8225189 -1.0950006 -0.56970483
-1.8763654 -1.1273525 -0.56708062
-1.9463923 -1.1694258 -0.56814879
-2.0180056 -1.2124523 -0.56830412
-2.0909421 -1.2562739 -0.56743205
-2.1831415 -1.3116688 -0.57018262
-2.2597296 -1.3576843 -0.56721973
-2.3625135 -1.4194386 -0.56909513
-2.4564552 -1.4758804 -0.56693351
-2.5837829 -1.552381 -0.57032973
-2.7105546 -1.6285475 -0.57113284
-2.8346429 -1.7031019 -0.56894028
-3.0008478 -1.8029608 -0.57238448
-3.1494849 -1.8922645 -0.56942439
-3.3306248 -2.0010965 -0.56914747
-3.5508139 -2.1333897 -0.57164937
-3.7940309 -2.2795188 -0.5733605
-4.0491681 -2.4328096 -0.57204062
-4.3625188 -2.6210759 -0.57343256
-4.7057848 -2.8273163 -0.5723899
-5.1359177 -3.0857472 -0.57441354
-5.6504383 -3.3948801 -0.57671243
-6.2457504 -3.7525539 -0.57649493
-7.0011945 -4.2064376 -0.57796013
-7.978097 -4.7933774 -0.58090758
-9.2595148 -5.5632749 -0.58412778
-11.016928 -6.6191587 -0.58790791
-13.587179 -8.1634102 -0.59309989
-17.745716 -10.66193 -0.60237592
-25.527603 -15.337421 -0.61886519
-45.545681 -27.364626 -0.66243684
-1.8150275 -1.1211005 -0.57162911
-1.867311 -1.1533949 -0.56858754
-1.9307578 -1.1925845 -0.56782275
-1.9952848 -1.2324414 -0.56613064
-2.0653162 -1.2756983 -0.56469208
-2.1591082 -1.3336314 -0.56814575
-2.2470424 -1.3879462 -0.56827611
-2.3425539 -1.4469415 -0.56853002
-2.4488065 -1.5125713 -0.56941777
-2.5579123 -1.5799634 -0.56886458
-2.6831203 -1.6573015 -0.56960315
-2.8100712 -1.7357162 -0.56824934
-2.9654765 -1.8317065 -0.5698908
-3.1339054 -1.9357412 -0.57086802
-3.3155844 -2.04796 -0.57083744
-3.5302064 -2.1805272 -0.57260507
-3.7553883 -2.3196168 -0.57178801
-4.0132651 -2.4789014 -0.57123154
-4.3101478 -2.6622789 -0.57080853
-4.6851497 -2.8939087 -0.57416487
-5.1033034 -3.1521928 -0.57505751
-5.599463 -3.4586592 -0.57580692
-6.2021108 -3.8309009 -0.57677132
-6.9648004 -4.3019967 -0.57927883
-7.9107881 -4.8863115 -0.5803377
-9.1729546 -5.6659226 -0.58301824
-10.927315 -6.7495508 -0.58751041
-13.476715 -8.3242569 -0.59270132
-17.598879 -10.870421 -0.60188335
-25.322714 -15.641257 -0.618514
-45.146679 -27.886065 -0.66157085
-1.7827686 -1.1316923 -0.56580931
-1.8573756 -1.1790525 -0.56993377
-1.9147695 -1.2154858 -0.56747341
-1.9926536 -1.2649263 -0.56975424
-2.0654516 -1.3111382 -0.56909424
-2.1426747 -1.3601589 -0.56817961
-2.2359118 -1.4193454 -0.56983197
-2.3264663 -1.4768288 -0.56898987
-2.4250236 -1.5393925 -0.56824619
-2.5408733 -1.6129333 -0.56944299
-2.6612043 -1.6893188 -0.5693174
-2.8131077 -1.7857462 -0.57326043
-2.9310584 -1.8606207 -0.56763035
-3.112386 -1.9757266 -0.57133037
-3.2932212 -2.0905199 -0.57136977
-3.4857454 -2.2127333 -0.56976366
-3.7178836 -2.3600934 -0.57045317
-3.9912071 -2.5335977 -0.572483
-4.2756944 -2.7141888 -0.57062262
-4.632978 -2.9409904 -0.57215983
-5.0626569 -3.2137485 -0.57488686
-5.5572577 -3.5277185 -0.57588398
-6.1604757 -3.9106383 -0.57732773
-6.8954511 -4.3771968 -0.57794386
-7.8652039 -4.9927907 -0.5814535
-9.1085091 -5.7820344 -0.58339697
-10.839973 -6.8811588 -0.58731931
-13.366479 -8.484972 -0.59239697
-17.462585 -11.085158 -0.60183835
-25.116329 -15.943716 -0.61821485
-44.730438 -28.394651 -0.66053784
-1.773591 -1.1567043 -0.56736785
-1.8376211 -1.1984636 -0.56835115
-1.8940905 -1.2352918 -0.56580377
-1.9635001 -1.2805597 -0.56587797
-2.0600426 -1.3435229 -0.5721125
-2.1318383 -1.3903468 -0.56979644
-2.2226546 -1.4495755 -0.57095283
-2.3067162 -1.5043989 -0.56864089
-2.4160213 -1.5756857 -0.57063371
-2.518239 -1.6423504 -0.56885338
-2.6367474 -1.7196394 -0.56856602
-2.7615442 -1.8010296 -0.56722289
-2.9193463 -1.9039453 -0.56985307
-3.0787132 -2.0078814 -0.56963831
-3.260293 -2.1263046 -0.57015002
-3.4754441 -2.2666223 -0.57259226
-3.6989038 -2.4123588 -0.57204914
-3.9538679 -2.5786419 -0.57163209
-4.2672248 -2.7830076 -0.57401592
-4.6008792 -3.0006111 -0.57270914
-5.0101018 -3.2674985 -0.57343805
-5.501092 -3.5877137 -0.57459193
-6.1130295 -3.9868081 -0.57743186
-6.8584504 -4.4729586 -0.57940882
-7.7949352 -5.0837173 -0.58083618
-9.0437975 -5.8982024 -0.58385342
-10.740767 -7.0049362 -0.58656687
-13.257369 -8.6462183 -0.59222847
-17.304281 -11.285542 -0.60111982
-24.891987 -16.234108 -0.61755973
-44.295773 -28.888908 -0.65931493
-1.7705984 -1.1860361 -0.57103276
-1.8297421 -1.2256535 -0.5705325
-1.8818479 -1.2605566 -0.56673408
-1.9410497 -1.300213 -0.56397289
-2.0219176 -1.3543823 -0.5661068
-2.1102655 -1.4135622 -0.56863332
-2.1934049 -1.4692532 -0.56803721
-2.2913718 -1.5348765 -0.56946784
-2.3953402 -1.6045196 -0.57036591
-2.499464 -1.6742671 -0.56921977
-2.6200702 -1.7550552 -0.56958038
-2.7422719 -1.836912 -0.5678609
-2.9084787 -1.9482456 -0.57236475
-3.0583973 -2.0486689 -0.57049727
-3.2476344 -2.1754293 -0.57257098
-3.4331255 -2.2996807 -0.57023597
-3.6694784 -2.4580016 -0.57212949
-3.9229765 -2.6278076 -0.57179433
-4.2191076 -2.8261709 -0.57217485
-4.5701518 -3.0613182 -0.57352662
-4.9766364 -3.333602 -0.57425606
-5.4659829 -3.6613913 -0.57558382
-6.0579453 -4.0579171 -0.5768984
-6.7903929 -4.5485477 -0.57834065
-7.7253323 -5.1748171 -0.58034736
-8.9617443 -6.0030284 -0.58327758
-10.649503 -7.133574 -0.58632886
-13.145768 -8.8056984 -0.59203535
-17.152321 -11.48949 -0.60070336
-24.668514 -16.524216 -0.61700988
-43.897316 -29.404636 -0.6587162
-1.748013 -1.2023048 -0.56847382
-1.7976494 -1.2364453 -0.56522363
-1.8760836 -1.2903934 -0.56973362
-1.9359553 -1.3315738 -0.56720722
-2.01842 -1.3882941 -0.56986415
-2.0890584 -1.4368801 -0.56763691
-2.1811461 -1.5002191 -0.56959683
-2.2680457 -1.5599897 -0.56839508
-2.3644879 -1.6263238 -0.56773847
-2.4624574 -1.6937084 -0.56549221
-2.6046214 -1.7914906 -0.57096767
-2.7242196 -1.8737515 -0.56885082
-2.8744264 -1.9770658 -0.57040459
-3.0361009 -2.0882676 -0.57108492
-3.2126691 -2.2097132 -0.57115376
-3.4218969 -2.3536227 -0.57313466
-3.628273 -2.4955709 -0.57044637
-3.8969893 -2.6803973 -0.57276732
-4.1930461 -2.8840287 -0.57340652
-4.5445094 -3.1257694 -0.57508868
-4.9404759 -3.3981199 -0.57486165
-5.41292 -3.7230728 -0.57477349
-6.0067496 -4.131516 -0.57681739
-6.729825 -4.6288562 -0.57798618
-7.6547713 -5.2650456 -0.57986635
-8.8782902 -6.1065969 -0.58268911
-10.560277 -7.2634883 -0.58628947
-13.036768 -8.9668493 -0.59204739
-17.004919 -11.696193 -0.60053259
-24.447094 -16.815012 -0.6165967
-43.467045 -29.897167 -0.65772647
-1.7311785 -1.2223514 -0.56784421
-1.7850237 -1.2603705 -0.56608403
-1.863227 -1.3155884 -0.57069886
-1.9231714 -1.3579139 -0.56831092
-1.9990472 -1.4114883 -0.56925178
-2.0704131 -1.4618785 -0.56741214
-2.1562555 -1.5224901 -0.5679428
-2.2586291 -1.594774 -0.57090646
-2.3444977 -1.6554042 -0.5677833
-2.4487841 -1.7290388 -0.5671919
-2.5799775 -1.821672 -0.57043272
-2.7234526 -1.9229769 -0.57358485
-2.8498085 -2.0121944 -0.57038629
-3.006814 -2.1230528 -0.57044345
-3.1776538 -2.2436795 -0.56979048
-3.3805563 -2.3869452 -0.57108337
-3.6007264 -2.542403 -0.57098746
-3.8651273 -2.7290912 -0.57297325
-4.1567025 -2.9349666 -0.57332844
-4.498373 -3.1762135 -0.57414931
-4.890316 -3.4529569 -0.57392222
-5.3646469 -3.7878728 -0.57455003
-5.9544039 -4.204289 -0.5767116
-6.6680031 -4.7081475 -0.57760513
-7.5898352 -5.359035 -0.57989532
-8.799655 -6.2132654 -0.58249849
-10.474522 -7.3958554 -0.58653307
-12.915838 -9.1196222 -0.5916034
-16.851139 -11.898262 -0.6002233
-24.226593 -17.105925 -0.61629391
-43.034557 -30.385864 -0.65678632
-1.7128034 -1.2412151 -0.56678039
-1.7812673 -1.2908288 -0.56988335
-1.841463 -1.3344507 -0.56901562
-1.9063536 -1.381475 -0.56831801
-1.974829 -1.4310969 -0.56732357
-2.0455439 -1.4823418 -0.56554919
-2.1494942 -1.5576714 -0.57116377
-2.2215991 -1.6099236 -0.56650758
-2.3264315 -1.6858923 -0.56838554
-2.4354374 -1.7648855 -0.56908411
-2.5526056 -1.8497937 -0.56936687
-2.6712518 -1.9357728 -0.56756115
-2.8159766 -2.0406504 -0.56859416
-2.9821525 -2.1610727 -0.57076305
-3.1535065 -2.2852478 -0.57045621
-3.3489041 -2.4268465 -0.57073438
-3.565572 -2.5838587 -0.57040799
-3.8338177 -2.7782481 -0.57335287
-4.1188302 -2.9847877 -0.57312375
-4.4500432 -3.2248077 -0.57299864
-4.8513603 -3.5156295 -0.5743804
-5.3369632 -3.8675306 -0.57663482
-5.8930163 -4.2704854 -0.57580841
-6.6136336 -4.7926941 -0.57795674
-7.5389328 -5.4632292 -0.58109492
-8.7241163 -6.3220949 -0.58260006
-10.381832 -7.5233893 -0.58647877
-12.798372 -9.274581 -0.59140199
-16.693443 -12.097219 -0.59985942
-23.982821 -17.379601 -0.61548251
-42.597191 -30.868855 -0.65585476
-1.7028345 -1.2662129 -0.56859088
-1.7627414 -1.3107593 -0.56906992
-1.8214972 -1.3544495 -0.56794965
-1.8948034 -1.4089594 -0.5699966
-1.9608142 -1.4580445 -0.56840503
-2.0246439 -1.5055076 -0.56484634
-2.115221 -1.57286 -0.56715298
-2.2113268 -1.6443235 -0.56900108
-2.3221097 -1.7267007 -0.57247376
-2.4149604 -1.7957436 -0.56941587
-2.5245461 -1.8772306 -0.56821394
-2.6590834 -1.9772713 -0.57009846
-2.7951801 -2.0784717 -0.56951255
-2.9513245 -2.1945791 -0.56998456
-3.115346 -2.3165443 -0.568663
-3.329468 -2.4757633 -0.57256693
-3.538682 -2.6313331 -0.57123929
-3.7809169 -2.8114569 -0.5705685
-4.0731955 -3.0287926 -0.57191288
-4.4107757 -3.2798145 -0.57309216
-4.8027205 -3.5712614 -0.5737775
-5.2784181 -3.9249859 -0.57548046
-5.848681 -4.3490286 -0.57665813
-6.5528688 -4.8726563 -0.57783896
-7.45854 -5.5461054 -0.58011109
-8.6449957 -6.4283438 -0.58255106
-10.280077 -7.6441765 -0.58599621
-12.683278 -9.4311762 -0.59139776
-16.525969 -12.288567 -0.59922594
-23.751381 -17.661322 -0.61506993
-42.140881 -31.335592 -0.65471226
-1.6820112 -1.2831442 -0.56686342
-1.7495637 -1.3346776 -0.57007086
-1.8083529 -1.3795257 -0.5690974
-1.8758205 -1.4309942 -0.56953633
-1.9334496 -1.4749573 -0.56568724
-2.0204053 -1.5412925 -0.56890833
-2.1060441 -1.6066233 -0.56994641
-2.1745112 -1.6588544 -0.56473392
-2.2887082 -1.7459708 -0.569489
-2.3855045 -1.8198133 -0.5677039
-2.4981334 -1.9057338 -0.56750059
-2.6226306 -2.0007081 -0.56751478
-2.7749181 -2.1168826 -0.57064468
-2.9262598 -2.2323353 -0.57040209
-3.099956 -2.3648419 -0.57111865
-3.2811866 -2.5030961 -0.56951404
-3.5076876 -2.6758854 -0.57150435
-3.7605844 -2.8688109 -0.57278031
-4.0406575 -3.0824683 -0.57262295
-4.3721046 -3.3353169 -0.57335299
-4.7566152 -3.6286461 -0.5735566
-5.2327566 -3.9918766 -0.57581025
-5.7855024 -4.4135461 -0.57573634
-6.4901338 -4.9510832 -0.57763177
-7.3802309 -5.6301055 -0.5793612
-8.5586262 -6.5290599 -0.58209699
-10.181151 -7.7668247 -0.5857569
-12.55689 -9.5791874 -0.59095216
-16.376167 -12.492773 -0.59931892
-23.504866 -17.930994 -0.61434942
-41.684723 -31.799736 -0.65365094
-1.6740745 -1.309963 -0.56957418
-1.7246921 -1.3495712 -0.56733119
-1.7909698 -1.4014335 -0.56900704
-1.8521208 -1.4492841 -0.56770855
-1.9128149 -1.4967772 -0.56499219
-1.985202 -1.5534201 -0.56433171
-2.0750883 -1.6237561 -0.56692952
-2.1658645 -1.6947886 -0.56785768
-2.2654958 -1.7727499 -0.56909424
-2.3677313 -1.8527493 -0.56885302
-2.4766941 -1.9380127 -0.56800085
-2.605576 -2.0388627 -0.56920636
-2.7504983 -2.1522644 -0.57102209
-2.8864477 -2.2586446 -0.56801248
-3.0705683 -2.4027193 -0.57110441
-3.258322 -2.5496364 -0.57094395
-3.474081 -2.7184677 -0.57143193
-3.7132592 -2.9056246 -0.57097089
-3.994344 -3.1255734 -0.57146305
-4.3193507 -3.3798909 -0.57184196
-4.7084799 -3.6843846 -0.57317203
-5.1769462 -4.0509596 -0.5751068
-5.7365069 -4.4888158 -0.57630986
-6.42974 -5.03127 -0.57771915
-7.3303833 -5.7360234 -0.58094108
-8.4703455 -6.6280437 -0.58159202
-10.072184 -7.8814816 -0.58501917
-12.431181 -9.727397 -0.59062064
-16.206169 -12.681323 -0.598759
-23.263884 -18.203983 -0.61385512
-41.220089 -32.254711 -0.65253508
-1.6592509 -1.3315787 -0.57005847
-1.7138698 -1.3754115 -0.56929153
-1.7758328 -1.425138 -0.56972241
-1.8318594 -1.4701003 -0.56699616
-1.9081935 -1.5313598 -0.5691461
-1.9732814 -1.5835941 -0.56643569
-2.0640233 -1.6564159 -0.56942815
-2.1581256 -1.7319348 -0.57136905
-2.2438982 -1.8007687 -0.56918818
-2.348052 -1.8843542 -0.5696488
-2.4526641 -1.9683073 -0.56799763
-2.5802083 -2.0706637 -0.56918389
-2.7157216 -2.1794157 -0.56932288
-2.8691044 -2.3025081 -0.57012802
-3.0413134 -2.4407091 -0.5712021
-3.2338314 -2.5952082 -0.57220107
-3.4548502 -2.7725799 -0.57383317
-3.679038 -2.9524946 -0.57124817
-3.9577541 -3.1761692 -0.57177263
-4.291811 -3.4442558 -0.57375956
-4.6732464 -3.7503648 -0.57445335
-5.1312156 -4.1178932 -0.57560819
-5.6697273 -4.5500588 -0.57517838
-6.3692808 -5.1114631 -0.57789057
-7.2416253 -5.8115354 -0.57952648
-8.3754416 -6.7214432 -0.58070666
-9.9781303 -8.0076294 -0.58523118
-12.313652 -9.8819284 -0.59076524
-16.038502 -12.871187 -0.59836656
-23.019459 -18.473532 -0.61335319
-40.773296 -32.721306 -0.65178233
-1.6301364 -1.3414969 -0.56568033
-1.6791087 -1.381798 -0.56334639
-1.7541984 -1.443592 -0.56843358
-1.8186679 -1.4966462 -0.56856638
-1.8893633 -1.554824 -0.56918919
-1.9466605 -1.6019759 -0.56440598
-2.041682 -1.6801724 -0.56892139
-2.1180866 -1.7430484 -0.56640041
-2.2375703 -1.8413758 -0.57328326
-2.3278458 -1.9156666 -0.5704183
-2.4354367 -2.0042069 -0.56967229
-2.55774 -2.1048548 -0.56989396
-2.6899827 -2.2136819 -0.56959039
-2.8516281 -2.3467057 -0.57234609
-2.9978142 -2.4670074 -0.56868672
-3.2021694 -2.6351786 -0.57228899
-3.4047964 -2.8019273 -0.57119888
-3.6391761 -2.994807 -0.57073361
-3.9264009 -3.2311742 -0.57293975
-4.2464747 -3.4945745 -0.57340008
-4.6183147 -3.8005745 -0.57340229
-5.0690675 -4.171515 -0.57434726
-5.6221504 -4.6266665 -0.57607973
-6.3159037 -5.1975808 -0.5788027
-7.1627727 -5.8944993 -0.57897288
-8.3040133 -6.8336663 -0.58153647
-9.8741703 -8.1258039 -0.58494997
-12.184675 -10.027201 -0.59044826
-15.862967 -13.054197 -0.59776127
-22.772547 -18.740335 -0.61286795
-40.298233 -33.162842 -0.65065765
-1.6157817 -1.3633482 -0.56647366
-1.6818175 -1.4190675 -0.57006651
-1.7245898 -1.4551574 -0.56459469
-1.8062372 -1.524049 -0.57049584
-1.8611107 -1.5703497 -0.56645221
-1.9352639 -1.6329179 -0.56688046
-2.0080512 -1.6943337 -0.56531286
-2.1033106 -1.7747107 -0.56824178
-2.2026143 -1.8585002 -0.57013929
-2.2945709 -1.9360904 -0.56805539
-2.4011006 -2.0259771 -0.56742513
-2.5349734 -2.1389349 -0.57063836
-2.6548388 -2.2400737 -0.56793845
-2.7996244 -2.3622396 -0.56769562
-2.9838805 -2.5177093 -0.57187319
-3.1656344 -2.671068 -0.57158631
-3.3736875 -2.8466167 -0.57180899
-3.6220593 -3.0561857 -0.57389951
-3.8810973 -3.274754 -0.57216173
-4.1990924 -3.5430689 -0.57284158
-4.5696831 -3.8557622 -0.57320756
-5.0248895 -4.2398515 -0.57520539
-5.5678205 -4.6979609 -0.57638854
-6.2252927 -5.2527161 -0.57637447
-7.0922389 -5.9842196 -0.57917571
-8.2155342 -6.9320221 -0.58126563
-9.7763815 -8.2490196 -0.58512169
-12.051243 -10.168479 -0.58999676
-15.689204 -13.238083 -0.59730232
-22.519567 -19.001339 -0.61230141
-39.820049 -33.598969 -0.64955848
-1.6008412 -1.3847945 -0.56716269
-1.6600654 -1.4360259 -0.56863576
-1.7228217 -1.4903127 -0.56997216
-1.778556 -1.5385252 -0.56768525
-1.8556198 -1.6051886 -0.57074541
-1.918219 -1.6593394 -0.5678215
-1.9974637 -1.7278895 -0.5682708
-2.0784991 -1.7979885 -0.5674687
-2.1650808 -1.8728853 -0.56634223
-2.2723618 -1.9656879 -0.56849808
-2.3834629 -2.061795 -0.56920528
-2.5035701 -2.1656928 -0.56952089
-2.6282988 -2.2735882 -0.56819862
-2.784749 -2.4089241 -0.57064259
-2.943424 -2.5461848 -0.570077
-3.1316705 -2.7090256 -0.57142526
-3.3265862 -2.877636 -0.56978011
-3.569212 -3.0875175 -0.57149833
-3.8470128 -3.3278267 -0.5731262
-4.1413198 -3.5824144 -0.57092649
-4.5253963 -3.9146569 -0.57364708
-4.9749298 -4.3035221 -0.57550055
-5.5053854 -4.7623887 -0.57594389
-6.1738734 -5.3406582 -0.57765031
-7.0145683 -6.0678945 -0.57888228
-8.1277075 -7.0308065 -0.5811246
-9.6631422 -8.3590212 -0.58445185
-11.916137 -10.307957 -0.58954322
-15.523743 -13.428686 -0.59724438
-22.255445 -19.25189 -0.61151046
-39.337429 -34.028519 -0.64846241
-1.5874815 -1.4077322 -0.56851935
-1.6397848 -1.4541132 -0.56777072
-1.6965892 -1.5044857 -0.56737101
-1.7612472 -1.5618225 -0.56824744
-1.8279078 -1.6209352 -0.56830943
-1.9008543 -1.6856221 -0.56877387
-1.9713295 -1.7481173 -0.5669083
-2.0771391 -1.8419462 -0.57323778
-2.1462843 -1.9032623 -0.56750441
-2.2520986 -1.9970952 -0.56952929
-2.355628 -2.088902 -0.56864917
-2.4778867 -2.1973176 -0.56978172
-2.607245 -2.3120286 -0.56975013
-2.7581694 -2.445864 -0.57131577
-2.9170988 -2.586798 -0.57109576
-3.0887189 -2.7389858 -0.56969041
-3.2985964 -2.9250989 -0.57110351
-3.5271497 -3.1277733 -0.57087845
-3.805717 -3.3747988 -0.57311302
-4.1087642 -3.6435323 -0.57257164
-4.4737492 -3.96719 -0.57324058
-4.9067631 -4.3511739 -0.57376099
-5.4388671 -4.8230286 -0.5751459
-6.095809 -5.4055853 -0.57652187
-6.9330316 -6.1480098 -0.57834858
-8.0339451 -7.1242681 -0.58064032
-9.5670404 -8.4837723 -0.58490473
-11.782339 -10.448235 -0.58923537
-15.348884 -13.610941 -0.59691095
-21.994802 -19.504349 -0.61089247
-38.850578 -34.451557 -0.64737135
-1.5662551 -1.4236928 -0.56714422
-1.6238537 -1.4760487 -0.56849605
-1.6814057 -1.5283623 -0.56853527
-1.7422463 -1.583665 -0.56835699
-1.8059063 -1.6415308 -0.56770176
-1.8807234 -1.7095379 -0.56899726
-1.9583955 -1.7801402 -0.5694406
-2.0435381 -1.857533 -0.57022524
-2.1321609 -1.9380893 -0.57002825
-2.2287714 -2.0259061 -0.56988686
-2.338177 -2.1253536 -0.5707022
-2.4612949 -2.2372651 -0.57224917
-2.58762 -2.352092 -0.57173866
-2.7178059 -2.4704282 -0.56920433
-2.8786938 -2.6166718 -0.56983316
-3.059706 -2.7812083 -0.57060385
-3.2578886 -2.9613521 -0.57031703
-3.5054913 -3.1864176 -0.57367128
-3.7586322 -3.4165173 -0.57230568
-4.0629411 -3.6931276 -0.57247108
-4.4227929 -4.0202255 -0.57300228
-4.8674736 -4.4244308 -0.57548499
-5.3771234 -4.8876915 -0.57492876
-6.0418658 -5.4919286 -0.57776332
-6.865252 -6.2403693 -0.57905179
-7.9486923 -7.2251935 -0.58085597
-9.452795 -8.592391 -0.58433545
-11.650674 -10.590218 -0.58911872
-15.166432 -13.785967 -0.59636295
-21.736616 -19.758125 -0.61042333
-38.360527 -34.868908 -0.64630127
-1.5466189 -1.440968 -0.56640714
-1.6004777 -1.4911476 -0.56668872
-1.6613977 -1.5479062 -0.56816292
-1.7147537 -1.5976173 -0.56575418
-1.7935306 -1.6710128 -0.5702275
-1.8557878 -1.7290173 -0.5678426
-1.9228057 -1.7914571 -0.56545466
-2.0079768 -1.8708099 -0.56667852
-2.1074743 -1.9635108 -0.56984019
-2.1904452 -2.0408139 -0.56646091
-2.3090434 -2.1513107 -0.57000494
-2.4235969 -2.2580388 -0.56989688
-2.5356829 -2.362468 -0.56663889
-2.6848958 -2.501488 -0.56871086
-2.8495252 -2.6548715 -0.57047832
-3.0239809 -2.81741 -0.57035917
-3.219034 -2.9991388 -0.56992805
-3.4520814 -3.2162666 -0.57135975
-3.7153602 -3.4615605 -0.57215476
-4.0135884 -3.7394164 -0.57195288
-4.3760133 -4.0770836 -0.57339352
-4.7972336 -4.4695301 -0.57363498
-5.3121362 -4.9492593 -0.57444388
-5.9602733 -5.5531211 -0.57644707
-6.7816567 -6.3183956 -0.57851028
-7.8630061 -7.3258767 -0.58113331
-9.3301611 -8.6928091 -0.58331817
-11.507051 -10.720994 -0.58847791
-14.984864 -13.961234 -0.59592885
-21.473083 -20.006237 -0.60988504
-37.859924 -35.273678 -0.64512604
-1.53345 -1.4643308 -0.56813568
-1.5721922 -1.5013267 -0.56316757
-1.6308149 -1.557307 -0.5642103
-1.702926 -1.6261677 -0.56840622
-1.7745979 -1.694609 -0.57079005
-1.8353764 -1.752648 -0.56814843
-1.9134228 -1.8271765 -0.56925964
-1.9815079 -1.8921926 -0.56573224
-2.0726581 -1.9792345 -0.56696409
-2.1718524 -2.0739574 -0.56820476
-2.2831652 -2.180253 -0.57019174
-2.3922572 -2.2844276 -0.56908977
-2.5242558 -2.4104767 -0.57066578
-2.6575203 -2.5377343 -0.56947899
-2.8103809 -2.6837049 -0.56920522
-2.9831493 -2.8486857 -0.56922162
-3.1831927 -3.0397122 -0.57015693
-3.4059169 -3.2523975 -0.57029516
-3.6793797 -3.5135341 -0.57322383
-3.9707236 -3.7917457 -0.57244545
-4.3170786 -4.122489 -0.57227021
-4.7427492 -4.5289726 -0.57373577
-5.2568798 -5.0199294 -0.57510018
-5.8836684 -5.6184659 -0.5756765
-6.702446 -6.4003377 -0.57842314
-7.774375 -7.4239497 -0.58128577
-9.2239647 -8.8081999 -0.58340615
-11.372075 -10.859487 -0.58835965
-14.812069 -14.144424 -0.59592879
-21.222094 -20.26552 -0.60978788
-37.362652 -35.678555 -0.64407957
-1.5148517 -1.4826071 -0.56795657
-1.5608346 -1.5276114 -0.56578505
-1.6144624 -1.5800976 -0.5652321
-1.67866 -1.6429287 -0.56700701
-1.7418481 -1.7047719 -0.56695592
-1.8129929 -1.7744023 -0.56793076
-1.8841425 -1.8440374 -0.56725168
-1.9645263 -1.9227101 -0.56759107
-2.0536122 -2.0098999 -0.56847179
-2.1463954 -2.100708 -0.56825972
-2.2520235 -2.2040877 -0.56913996
-2.3679631 -2.3175595 -0.57004672
-2.4889908 -2.4360111 -0.56942213
-2.6273196 -2.5713954 -0.56973988
-2.7784455 -2.7193046 -0.56946647
-2.9481144 -2.8853621 -0.56926346
-3.1548007 -3.0876489 -0.57182878
-3.3652177 -3.293587 -0.57021862
-3.6251106 -3.5479479 -0.57152265
-3.9206283 -3.8371754 -0.57198244
-4.2778668 -4.18681 -0.57385349
-4.691 -4.5911493 -0.57426167
-5.1887803 -5.0783339 -0.57443821
-5.8211751 -5.6972675 -0.57637292
-6.6085281 -6.4678617 -0.57713801
-7.6792226 -7.5157657 -0.58103734
-9.1105785 -8.9166536 -0.58312535
-11.225489 -10.986547 -0.58772069
-14.619539 -14.308353 -0.59521645
-20.930605 -20.485085 -0.60860425
-36.853859 -36.069401 -0.64290583
-1.4935242 -1.4981282 -0.56682426
-1.5506823 -1.5554626 -0.56899512
-1.6107914 -1.615757 -0.57085967
-1.6623274 -1.6674519 -0.56837291
-1.7216873 -1.7269948 -0.56726301
-1.7927005 -1.7982268 -0.56845772
-1.8510259 -1.856732 -0.56411242
-1.9368867 -1.9428575 -0.56646502
-2.0193806 -2.0256057 -0.56584793
-2.1130142 -2.1195278 -0.56627935
-2.2191789 -2.2260199 -0.56771398
-2.3342443 -2.34144 -0.56881756
-2.4487557 -2.4563046 -0.56708437
-2.5940988 -2.6020956 -0.56943136
-2.7546496 -2.7631414 -0.57150996
-2.9263766 -2.9353976 -0.57199252
-3.1037295 -3.1132975 -0.56946772
-3.3185534 -3.3287835 -0.56920433
-3.5848505 -3.5959015 -0.57210326
-3.8674064 -3.8793283 -0.57113397
-4.2151747 -4.2281685 -0.57237476
-4.623991 -4.6382451 -0.57299721
-5.1298504 -5.1456642 -0.57487565
-5.7582498 -5.7760005 -0.57713121
-6.5431828 -6.5633535 -0.57843578
-7.5741901 -7.5975389 -0.58011508
-8.9957972 -9.0235291 -0.58283663
-11.10563 -11.139865 -0.58857268
-14.446085 -14.490618 -0.59536397
-20.664471 -20.728172 -0.60823107
-36.359589 -36.471672 -0.64205837
-1.466349 -1.5074942 -0.56350327
-1.5232546 -1.5659966 -0.56595403
-1.568498 -1.6125095 -0.56285548
-1.6314788 -1.6772574 -0.56483436
-1.6994703 -1.7471569 -0.56697857
-1.7682337 -1.8178496 -0.56774455
-1.8296804 -1.8810205 -0.56461358
-1.9306637 -1.9848375 -0.57173973
-1.9996003 -2.0557084 -0.56734556
-2.0956662 -2.1544697 -0.56868696
-2.2051799 -2.2670565 -0.57122105
-2.3080349 -2.3727975 -0.56949764
-2.4264989 -2.4945855 -0.56899077
-2.5659955 -2.6379962 -0.57033974
-2.7113137 -2.7873921 -0.56958705
-2.8829062 -2.9637995 -0.57057607
-3.0666797 -3.1527297 -0.56973982
-3.2913358 -3.3836896 -0.57162929
-3.5361965 -3.6354208 -0.57142949
-3.8229992 -3.9302711 -0.57166988
-4.1717901 -4.2888489 -0.57360148
-4.5693908 -4.6976061 -0.5733459
-5.0690155 -5.2112503 -0.57519579
-5.6708412 -5.8299627 -0.57551205
-6.4558301 -6.6369786 -0.57788455
-7.4714718 -7.6811185 -0.57943803
-8.8822098 -9.1314421 -0.58270812
-10.942072 -11.249103 -0.58719093
-14.23885 -14.638387 -0.59419662
-20.391081 -20.963247 -0.6077255
-35.831997 -36.837429 -0.64069229
-1.4565716 -1.5347548 -0.56695533
-1.5044627 -1.5852165 -0.56617153
-1.5599716 -1.6437049 -0.56700593
-1.6270417 -1.714375 -0.57055348
-1.6739844 -1.7638375 -0.56566912
-1.7447796 -1.8384327 -0.56742942
-1.8105465 -1.9077297 -0.56590527
-1.8937349 -1.9953834 -0.5680269
-1.9695039 -2.0752194 -0.56600374
-2.0651314 -2.1759796 -0.56761891
-2.1616349 -2.2776632 -0.56715333
-2.2677703 -2.3894954 -0.56676966
-2.40675 -2.5359352 -0.57162875
-2.5212171 -2.6565464 -0.56760472
-2.671145 -2.8145218 -0.568376
-2.8445868 -2.9972734 -0.5702433
-3.0339077 -3.1967561 -0.57091105
-3.2435153 -3.4176147 -0.57057947
-3.4851727 -3.6722436 -0.57043815
-3.7806852 -3.9836178 -0.57262403
-4.1064043 -4.3268199 -0.57188338
-4.5075588 -4.7495074 -0.57287228
-4.9968829 -5.2650967 -0.57431382
-5.5930028 -5.8932137 -0.57492334
-6.3655901 -6.7072706 -0.57714587
-7.366168 -7.7615557 -0.57862931
-8.7676764 -9.2382917 -0.58260274
-10.809113 -11.389304 -0.58752698
-14.041673 -14.795376 -0.59351552
-20.105305 -21.184481 -0.60692614
-35.310608 -37.205948 -0.63950163
-1.4444379 -1.5599426 -0.56965566
-1.4862297 -1.6050763 -0.56669456
-1.5431339 -1.6665308 -0.56829131
-1.5935433 -1.7209713 -0.56618464
-1.6541265 -1.7863991 -0.56633878
-1.7224208 -1.8601545 -0.56755382
-1.7917277 -1.9350035 -0.56741732
-1.8701483 -2.019695 -0.56835842
-1.9486734 -2.1044996 -0.56741136
-2.0400548 -2.2031882 -0.56812978
-2.1365709 -2.3074224 -0.56797868
-2.2482789 -2.4280629 -0.5693171
-2.3681459 -2.5575151 -0.56988609
-2.4925506 -2.6918678 -0.56855994
-2.6413882 -2.8526075 -0.56946504
-2.8025887 -3.0266984 -0.56924194
-2.9953616 -3.2348864 -0.5710997
-3.2046254 -3.4608839 -0.57118136
-3.4359353 -3.7106905 -0.56980431
-3.734252 -4.0328622 -0.57305884
-4.0653682 -4.3904562 -0.57364368
-4.4622312 -4.8190546 -0.57459921
-4.9392266 -5.3341928 -0.57518232
-5.5380049 -5.9808526 -0.5767861
-6.2850165 -6.7875991 -0.57736427
-7.2817225 -7.864007 -0.57954812
-8.6451178 -9.3364258 -0.58204353
-10.657262 -11.509472 -0.58692139
-13.85371 -14.961525 -0.59330207
-19.829197 -21.414843 -0.60649449
-34.788727 -37.570614 -0.63836855
-1.4230665 -1.5752804 -0.56882358
-1.4711064 -1.6284587 -0.56852037
-1.5151758 -1.6772418 -0.56554776
-1.5785517 -1.7473965 -0.56844938
-1.6329098 -1.8075689 -0.56664175
-1.6972824 -1.8788269 -0.56684029
-1.7666121 -1.9555721 -0.56703591
-1.8470777 -2.0446446 -0.56894493
-1.9311904 -2.1377542 -0.56993175
-2.0144053 -2.2298698 -0.56857967
-2.1178355 -2.3443632 -0.57061833
-2.216531 -2.4536154 -0.56887478
-2.3236876 -2.5722334 -0.56675601
-2.4620018 -2.725342 -0.56919283
-2.5996308 -2.8776922 -0.56804836
-2.7787304 -3.0759485 -0.57203519
-2.9439397 -3.2588289 -0.56889266
-3.1603613 -3.4983995 -0.57091612
-3.3883526 -3.750777 -0.56951892
-3.6736958 -4.0666409 -0.57139653
-4.0105605 -4.4395375 -0.57356966
-4.4016862 -4.872499 -0.57447457
-4.8603072 -5.3801746 -0.57365274
-5.4485402 -6.0313263 -0.57514906
-6.1929545 -6.8553648 -0.57660735
-7.1789184 -7.9467893 -0.57909948
-8.5259838 -9.4379387 -0.58179212
-10.504873 -11.628494 -0.58635944
-13.654375 -15.114873 -0.59268022
-19.534094 -21.623497 -0.6055553
-34.258995 -37.923401 -0.6371569
-1.3949777 -1.5828861 -0.56533325
-1.4394183 -1.6333132 -0.56399322
-1.4927014 -1.6937736 -0.56489027
-1.552194 -1.7612802 -0.56671399
-1.6130334 -1.8303148 -0.5675115
-1.6826259 -1.9092817 -0.56974316
-1.7436283 -1.9785013 -0.56742465
-1.8185577 -2.063524 -0.56793296
-1.8917472 -2.1465724 -0.56603831
-1.9934186 -2.2619393 -0.5704636
-2.0814755 -2.3618577 -0.56860375
-2.1899016 -2.484889 -0.56983924
-2.299113 -2.6088119 -0.56854343
-2.428772 -2.7559364 -0.56930208
-2.5628521 -2.9080775 -0.56778258
-2.7313247 -3.0992439 -0.57007837
-2.9096847 -3.3016295 -0.57007539
-3.1094458 -3.5282996 -0.56951278
-3.3458202 -3.796514 -0.57017356
-3.6224983 -4.1104617 -0.57125169
-3.9477906 -4.4795723 -0.57242703
-4.3280768 -4.9110842 -0.57270581
-4.7933884 -5.439075 -0.573605
-5.3806438 -6.1054358 -0.5758633
-6.1088266 -6.9317074 -0.57666683
-7.0806537 -8.0344429 -0.57909846
-8.4033003 -9.5352545 -0.58137739
-10.357285 -11.752448 -0.58614343
-13.460036 -15.273152 -0.59235185
-19.240946 -21.832769 -0.60474443
-33.733009 -38.276966 -0.63608009
-1.3830364 -1.60879 -0.56846803
-1.4316463 -1.6653346 -0.56892854
-1.4846627 -1.7270049 -0.56984156
-1.5324914 -1.7826408 -0.56748074
-1.5871454 -1.846216 -0.56634778
-1.6484555 -1.9175336 -0.56611401
-1.719818 -2.0005445 -0.56763864
-1.7889459 -2.0809565 -0.56663364
-1.8596053 -2.1631496 -0.56433713
-1.9660776 -2.2870014 -0.57064396
-2.0439956 -2.3776381 -0.56630909
-2.154572 -2.5062637 -0.56862235
-2.2615898 -2.6307502 -0.56722105
-2.3926365 -2.7831876 -0.56881088
-2.531559 -2.9447865 -0.56882906
-2.6879673 -3.1267254 -0.56901067
-2.86798 -3.3361216 -0.56989866
-3.0695152 -3.5705535 -0.5701977
-3.3011599 -3.8400095 -0.57056636
-3.5743032 -4.1577382 -0.57167059
-3.8872216 -4.5217342 -0.5716635
-4.2615871 -4.9572077 -0.57193035
-4.7345819 -5.50741 -0.57462841
-5.2834201 -6.1458349 -0.57350266
-6.0281286 -7.0121031 -0.57714492
-6.9832335 -8.1231098 -0.5792563
-8.2876024 -9.6403913 -0.58153027
-10.211243 -11.878028 -0.58610004
-13.271379 -15.437672 -0.59235859
-18.961847 -22.056997 -0.60445118
-33.19352 -38.611713 -0.63481206
-1.3580788 -1.6196247 -0.56635284
-1.4060152 -1.676793 -0.56689376
-1.4578209 -1.7385756 -0.56770164
-1.5049555 -1.7947878 -0.56541383
-1.57432 -1.8775108 -0.56996626
-1.6261276 -1.9392958 -0.56659269
-1.6946369 -2.020999 -0.56748688
-1.7649243 -2.1048226 -0.56717998
-1.8467611 -2.20242 -0.5686149
-1.9283378 -2.2997072 -0.56785488
-2.0197093 -2.4086754 -0.56774342
-2.1323533 -2.5430129 -0.57096797
-2.2359719 -2.6665871 -0.5689767
-2.3587623 -2.813025 -0.56893808
-2.4952865 -2.9758418 -0.56885785
-2.6538389 -3.1649292 -0.56998134
-2.8265371 -3.3708863 -0.569857
-3.0172658 -3.5983465 -0.56866813
-3.2525961 -3.878998 -0.57037365
-3.5229981 -4.2014756 -0.57168472
-3.8306956 -4.5684309 -0.57156879
-4.2005835 -5.0095534 -0.57196712
-4.660234 -5.5577259 -0.57385588
-5.2141767 -6.2183499 -0.57424301
-5.938242 -7.0818596 -0.57683271
-6.8715987 -8.1949673 -0.57831132
-8.1691771 -9.7424402 -0.58158261
-10.052452 -11.988405 -0.58540285
-13.063665 -15.579535 -0.59159344
-18.655035 -22.247719 -0.60334587
-32.658901 -38.948521 -0.63369906
-1.345006 -1.6446918 -0.56929201
-1.3828329 -1.6909471 -0.56588751
-1.4356189 -1.7554945 -0.56741905
-1.4870472 -1.8183818 -0.56704336
-1.5436335 -1.8875763 -0.56721675
-1.6019142 -1.9588426 -0.56650579
-1.6665437 -2.0378726 -0.56642783
-1.7484782 -2.1380632 -0.57030046
-1.8219892 -2.2279534 -0.56937981
-1.908492 -2.3337302 -0.57041812
-1.9859762 -2.428479 -0.5666123
-2.0911913 -2.5571373 -0.56832284
-2.2074051 -2.6992452 -0.57011038
-2.3212798 -2.8384926 -0.56827301
-2.4642656 -3.0133379 -0.57019001
-2.6175871 -3.2008214 -0.57060552
-2.7853136 -3.40592 -0.56994647
-2.9790149 -3.6427803 -0.56985807
-3.2073085 -3.921941 -0.57084578
-3.471977 -4.2455812 -0.57183367
-3.7707708 -4.6109505 -0.57104421
-4.1518774 -5.0769725 -0.57379234
-4.5882206 -5.6105394 -0.57344025
-5.1495962 -6.2969971 -0.57561475
-5.8478875 -7.150877 -0.5765537
-6.7672334 -8.2750654 -0.57804781
-8.0419912 -9.8338575 -0.58109272
-9.8966293 -12.101735 -0.58495021
-12.870461 -15.738177 -0.59156328
-18.37031 -22.463469 -0.60302526
-32.117985 -39.274315 -0.63252628
-1.3153069 -1.6493491 -0.56526297
-1.3676244 -1.7149534 -0.56825054
-1.4119617 -1.7705508 -0.5666309
-1.4541218 -1.8234181 -0.56299543
-1.5183629 -1.9039742 -0.56649101
-1.5771736 -1.9777209 -0.56631386
-1.6448053 -2.0625286 -0.56761646
-1.7130499 -2.1481049 -0.56731749
-1.7908783 -2.2456989 -0.5682441
-1.8747791 -2.3509078 -0.56893897
-1.960438 -2.4583211 -0.56790763
-2.0541399 -2.57582 -0.56681848
-2.1617336 -2.7107387 -0.5668807
-2.2893023 -2.8707054 -0.56904328
-2.4214034 -3.0363557 -0.56886846
-2.5739326 -3.227622 -0.56969786
-2.7406056 -3.4366241 -0.5694021
-2.9357002 -3.6812658 -0.5701884
-3.1583807 -3.9604998 -0.5707621
-3.4204693 -4.2891493 -0.57199359
-3.7232225 -4.6687913 -0.57249433
-4.0747356 -5.1095767 -0.5717712
-4.5184083 -5.6659265 -0.57337922
-5.0640221 -6.3501072 -0.57473403
-5.7520328 -7.2128487 -0.575804
-6.6660991 -8.3590565 -0.57814527
-7.914403 -9.924386 -0.58064753
-9.7457399 -12.220819 -0.58486956
-12.66334 -15.879387 -0.59097338
-18.082636 -22.674997 -0.60268915
-31.564528 -39.580818 -0.6311639
-1.2976028 -1.6688371 -0.56643063
-1.3414003 -1.7251647 -0.56612575
-1.3910954 -1.7890772 -0.56704271
-1.4387383 -1.8503504 -0.56580585
-1.5008746 -1.9302635 -0.56877881
-1.558684 -2.0046117 -0.56848282
-1.6146039 -2.0765297 -0.56596297
-1.6777012 -2.1576788 -0.5643549
-1.7536795 -2.255394 -0.565198
-1.8425583 -2.3697002 -0.5679608
-1.9245976 -2.4752104 -0.56629932
-2.0327718 -2.6143324 -0.56974971
-2.1336639 -2.7440886 -0.56832534
-2.250839 -2.8947868 -0.56828755
-2.3755164 -3.0551336 -0.56687105
-2.5389018 -3.2652624 -0.57078803
-2.6962714 -3.4676542 -0.5690071
-2.8916571 -3.7189384 -0.5704729
-3.1048803 -3.9931629 -0.56992412
-3.3627472 -4.3248034 -0.57119083
-3.6612444 -4.7086983 -0.57182407
-4.0104971 -5.1578698 -0.57161361
-4.4476933 -5.7201447 -0.57328802
-4.9803133 -6.4051433 -0.5741291
-5.6627584 -7.2828302 -0.57578838
-6.562397 -8.4398489 -0.57810837
-7.7943292 -10.024227 -0.58083761
-9.5760965 -12.315745 -0.58373296
-12.454681 -16.01787 -0.59038299
-17.769886 -22.853716 -0.6015861
-31.019217 -39.893578 -0.63002133
-1.2727095 -1.6790245 -0.56453395
-1.3174882 -1.738099 -0.56501126
-1.371924 -1.8099135 -0.56825691
-1.4170182 -1.8694042 -0.56626129
-1.4657488 -1.9336921 -0.56443554
-1.5243706 -2.011029 -0.56494427
-1.591375 -2.0994246 -0.56682676
-1.6579107 -2.187202 -0.56670183
-1.7258617 -2.2768464 -0.56521308
-1.8162565 -2.3961 -0.56889236
-1.8934524 -2.497941 -0.56613022
-1.9819931 -2.6147485 -0.56448638
-2.0911682 -2.7587779 -0.56599921
-2.2134149 -2.9200523 -0.56786144
-2.336395 -3.0822937 -0.56653702
-2.4856794 -3.2792377 -0.56784511
-2.6479561 -3.4933217 -0.56783307
-2.8420367 -3.7493627 -0.56973606
-3.0601263 -4.0370779 -0.57077819
-3.3146763 -4.3728933 -0.57211584
-3.5975611 -4.7460899 -0.57094955
-3.9563241 -5.2193885 -0.57299656
-4.3810773 -5.7797446 -0.57381874
-4.8988266 -6.4627867 -0.57385314
-5.5747523 -7.3545036 -0.57599181
-6.4582887 -8.5201101 -0.57812274
-7.6575065 -10.10218 -0.57985467
-9.4279261 -12.437811 -0.58397967
-12.244735 -16.153893 -0.58980227
-17.478374 -23.05838 -0.60127068
-30.462227 -40.187355 -0.62869769
-1.2584592 -1.7033312 -0.56746066
-1.2960075 -1.754153 -0.56500679
-1.3449439 -1.8203886 -0.56631052
-1.4013783 -1.8967729 -0.56928873
-1.4428662 -1.952927 -0.56482857
-1.5011429 -2.0318048 -0.56555241
-1.569895 -2.1248612 -0.56843948
-1.6285545 -2.204257 -0.56588942
-1.7062562 -2.3094265 -0.56804955
-1.7865644 -2.4181242 -0.56886262
-1.8631568 -2.5217924 -0.56630075
-1.9613273 -2.6546669 -0.56785464
-2.068934 -2.800313 -0.56925815
-2.1734779 -2.9418137 -0.56685311
-2.3106358 -3.1274579 -0.56957299
-2.446564 -3.3114374 -0.56816852
-2.6055562 -3.526634 -0.5679971
-2.8041434 -3.7954228 -0.57145232
-3.0039556 -4.0658698 -0.56958336
-3.2637124 -4.4174519 -0.57265162
-3.5350459 -4.7847033 -0.57032233
-3.8869686 -5.2610326 -0.5722779
-4.3038168 -5.8252387 -0.57303798
-4.8233609 -6.5284443 -0.5743733
-5.4849935 -7.4239678 -0.57610631
-6.33601 -8.5758228 -0.5765729
-7.5252624 -10.185482 -0.57928091
-9.2607193 -12.534432 -0.58312553
-12.034241 -16.288408 -0.58926618
-17.168646 -23.237852 -0.60040015
-29.90995 -40.483273 -0.62752599
-1.2415074 -1.724352 -0.56933475
-1.2770035 -1.7736531 -0.5661872
-1.3207444 -1.8344057 -0.56557608
-1.3722039 -1.9058787 -0.56691462
-1.4259192 -1.9804848 -0.56768483
-1.480691 -2.0565581 -0.56733167
-1.5356126 -2.1328399 -0.56547976
-1.6106163 -2.2370138 -0.56917149
-1.6772761 -2.3295989 -0.56789541
-1.7539968 -2.4361577 -0.56798822
-1.8385184 -2.5535512 -0.56831282
-1.9278992 -2.6776938 -0.56766641
-2.0344107 -2.8256297 -0.56927621
-2.1351914 -2.9656055 -0.56633562
-2.2710125 -3.1542499 -0.56932354
-2.4099355 -3.3472028 -0.56917757
-2.5682881 -3.5671413 -0.56939173
-2.7513678 -3.8214242 -0.57023025
-2.9576213 -4.1078935 -0.57033253
-3.1963511 -4.4394693 -0.57036763
-3.4789836 -4.8320227 -0.57082039
-3.8166013 -5.3009462 -0.57147145
-4.2319794 -5.877872 -0.57305318
-4.7340012 -6.575139 -0.57331669
-5.3812842 -7.4741621 -0.57482308
-6.2408276 -8.6679974 -0.57756692
-7.4034109 -10.28273 -0.57959044
-9.1055851 -12.646911 -0.58310521
-11.830644 -16.431793 -0.58914602
-16.860195 -23.417429 -0.59963799
-29.356009 -40.773087 -0.6263755
-1.2176958 -1.7358999 -0.56816083
-1.2592251 -1.7951026 -0.56804848
-1.2969995 -1.8489522 -0.56510109
-1.3409544 -1.9116127 -0.5636729
-1.3973588 -1.9920207 -0.56602347
-1.4570594 -2.0771275 -0.56802046
-1.512648 -2.1563723 -0.56674457
-1.5756047 -2.2461212 -0.56651634
-1.6392839 -2.3368998 -0.5647186
-1.7118871 -2.4403999 -0.56402677
-1.8045747 -2.5725319 -0.56755567
-1.8884096 -2.6920438 -0.56574303
-2.0026889 -2.8549559 -0.57018006
-2.1081736 -3.0053306 -0.5689283
-2.2252359 -3.1722105 -0.56758356
-2.36377 -3.369699 -0.56801742
-2.5236802 -3.5976608 -0.56926686
-2.6953402 -3.8423727 -0.56836754
-2.9043527 -4.1403327 -0.56983489
-3.1492314 -4.4894223 -0.57176697
-3.4275806 -4.8862262 -0.57220143
-3.7614086 -5.3621182 -0.57303661
-4.1610603 -5.9318466 -0.57328361
-4.6520867 -6.6318345 -0.57322901
-5.2888312 -7.5395527 -0.57480705
-6.1199088 -8.7243052 -0.57626098
-7.2664285 -10.358739 -0.5787946
-8.9427404 -12.748425 -0.58267158
-11.611711 -16.553205 -0.58833534
-16.553059 -23.597401 -0.59898913
-28.796919 -41.051773 -0.62516969
-1.1906414 -1.7425182 -0.56549233
-1.2407707 -1.8158832 -0.56975329
-1.2758346 -1.8671995 -0.56584048
-1.3265452 -1.9414152 -0.56760794
-1.3768252 -2.0150006 -0.56769961
-1.4313703 -2.0948279 -0.56800479
-1.4866829 -2.1757786 -0.56699747
-1.5386416 -2.2518208 -0.56313938
-1.6173646 -2.367033 -0.56715155
-1.7001069 -2.4881272 -0.5701828
-1.7640103 -2.5816507 -0.56473929
-1.8673748 -2.7329259 -0.56946588
-1.9721847 -2.8863163 -0.57155675
-2.0660207 -3.0236466 -0.56754345
-2.1892333 -3.2039697 -0.56840652
-2.3332758 -3.4147775 -0.57073665
-2.4781301 -3.6267736 -0.56900871
-2.6430733 -3.8681703 -0.56733316
-2.8551252 -4.1785107 -0.57021427
-3.082917 -4.5118866 -0.56975693
-3.361341 -4.9193635 -0.57119852
-3.684988 -5.3930254 -0.57145387
-4.0791006 -5.9698138 -0.57206213
-4.5729809 -6.6926136 -0.57357872
-5.1914973 -7.5978203 -0.57433897
-6.0076647 -8.7922907 -0.57582855
-7.1398354 -10.449237 -0.57890183
-8.7876492 -12.860832 -0.58282638
-11.40411 -16.690054 -0.58817065
-16.25173 -23.784607 -0.59862316
-28.223114 -41.304874 -0.62369192
-1.1697825 -1.7580124 -0.56580979
-1.2147086 -1.8255297 -0.56805056
-1.2465791 -1.8734264 -0.56303972
-1.2980728 -1.950814 -0.56564641
-1.3467791 -2.0240126 -0.56553006
-1.4053133 -2.1119809 -0.5679273
-1.4650962 -2.2018259 -0.56904745
-1.5177562 -2.2809663 -0.56571805
-1.5947566 -2.3966866 -0.56951499
-1.6460457 -2.4737666 -0.56221104
-1.7456632 -2.623477 -0.56915021
-1.8356823 -2.7587626 -0.57010299
-1.9247091 -2.8925569 -0.56806296
-2.0317943 -3.0534904 -0.56841272
-2.1516469 -3.2336113 -0.56892836
-2.2803416 -3.427021 -0.56805348
-2.4307101 -3.6530025 -0.56839144
-2.6017447 -3.9100425 -0.56873924
-2.7994046 -4.2070966 -0.56937474
-3.0336049 -4.5590653 -0.57096088
-3.2999663 -4.9593678 -0.57108873
-3.610239 -5.4256625 -0.5701651
-4.0049458 -6.0188494 -0.57199866
-4.4935508 -6.7531509 -0.57398808
-5.1008339 -7.6658096 -0.57469368
-5.9084101 -8.8794785 -0.57673687
-7.0105152 -10.535782 -0.57887697
-8.6191187 -12.953279 -0.58216882
-11.186684 -16.811953 -0.58757448
