# .PCD v0.7 - Point Cloud Data file format
VERSION 0.7
FIELDS x y z
SIZE 4 4 4
TYPE F F F
COUNT 1 1 1
WIDTH 1439
HEIGHT 1
VIEWPOINT 0 0 0 1 0 0 0
POINTS 1439
DATA ascii
-3.4926541 -0.78589684 0.95925164
-2.0496569 -0.48775506 -0.56453943
-2.1286888 -0.50656223 -0.56685877
-2.2087102 -0.52560484 -0.56807506
-2.2903628 -0.54503566 -0.56832665
-2.3855853 -0.56769568 -0.57042962
-2.4835119 -0.59099919 -0.57152289
-2.5695333 -0.61146963 -0.56830883
-2.6715312 -0.63574189 -0.56703001
-2.7944105 -0.66498345 -0.56826216
-2.924468 -0.69593304 -0.5687902
-3.067791 -0.73003948 -0.56956065
-3.2257988 -0.76764053 -0.57048059
-3.3978512 -0.80858368 -0.57106233
-3.5960064 -0.85573846 -0.57286495
-3.7903662 -0.90199012 -0.57071006
-4.0300069 -0.95901716 -0.5716666
-4.2970181 -1.0225576 -0.57217562
-4.6117144 -1.0974456 -0.57406187
-4.957171 -1.1796536 -0.57413524
-5.3707833 -1.2780806 -0.57561588
-5.8443017 -1.3907633 -0.57593632
-6.4152279 -1.5266261 -0.57693189
-7.1193089 -1.6941757 -0.57900721
-7.9846435 -1.9000987 -0.58078653
-9.0767822 -2.1599939 -0.58233768
-10.534311 -2.5068407 -0.58554602
-12.550654 -2.9866681 -0.59013373
-15.494717 -3.6872642 -0.5959605
-16.216616 -3.8590539 -0.48503107
-29.252628 -6.9612222 -0.62486494
-52.605087 -12.518386 -0.67415577
-16.282064 -3.8746285 0.62624359
-13.321371 -3.1700749 0.62637293
-11.731384 -2.7917073 0.65208489
-11.028294 -2.6243935 0.70754057
-10.531474 -2.5061657 0.7660377
-10.137847 -2.4124944 0.82450223
-9.8142633 -2.3354917 0.88261265
-9.0678988 -2.1578801 0.89361107
-8.3133183 -1.9783131 0.89098322
-7.653944 -1.8214023 0.88647312
-7.1064034 -1.6911047 0.88459843
-6.6061811 -1.5720671 0.8796556
-6.1872125 -1.4723655 0.87767172
-5.8408651 -1.3899456 0.8794508
-5.5441613 -1.3193392 0.88321751
-5.2933311 -1.2596494 0.88962752
-5.0676742 -1.2059499 0.89621514
-4.846282 -1.1532655 0.8997522
-4.6576314 -1.1083724 0.90587932
-4.4793439 -1.0659455 0.91090465
-4.3222146 -1.0285536 0.917386
-4.1647296 -0.99107707 0.92112154
-4.045732 -0.96275926 0.93103164
-3.923579 -0.93369061 0.93818718
-3.8018482 -0.90472245 0.94338399
-3.6967981 -0.87972379 0.95080775
-3.5947843 -0.85544771 0.95727235
-3.49421 -0.83151406 0.96241438
-2.0504625 -0.5146662 -0.56646156
-2.1099324 -0.52959317 -0.56355554
-2.1873956 -0.54903638 -0.56428671
-2.2922783 -0.57536197 -0.57051438
-2.3672571 -0.59418166 -0.56775117
-2.4596298 -0.61736727 -0.56773102
-2.5784121 -0.64718157 -0.57198936
-2.6632028 -0.66846406 -0.56696403
-2.7920067 -0.70079386 -0.56948262
-2.9249535 -0.73416352 -0.57059729
-3.059782 -0.76800549 -0.56978399
-3.2169476 -0.80745405 -0.57062805
-3.39926 -0.8532145 -0.57301903
-3.5562155 -0.89261037 -0.56823164
-3.7883399 -0.95087355 -0.57212222
-4.0282154 -1.0110824 -0.57313281
-4.2912464 -1.0771031 -0.57312733
-4.5827689 -1.1502752 -0.57217616
-4.9451747 -1.2412392 -0.57447016
-5.3405671 -1.3404826 -0.57410061
-5.8408232 -1.466047 -0.57732642
-6.3936129 -1.6047972 -0.57671911
-7.0837193 -1.7780141 -0.57784718
-7.9498658 -1.9954169 -0.57999772
-9.0489798 -2.2712946 -0.5823018
-10.500163 -2.6355417 -0.58540505
-12.494266 -3.1360614 -0.58925098
-15.455832 -3.8794148 -0.59625459
-20.198189 -5.069747 -0.60593671
-29.163685 -7.3200865 -0.6248405
-52.427555 -13.15932 -0.67390341
-16.239506 -4.076117 0.62648714
-13.274811 -3.3319783 0.62606287
-11.697018 -2.9359522 0.65213203
-10.993677 -2.7594137 0.70744306
-10.512648 -2.6386752 0.76697046
-10.108489 -2.5372314 0.82458973
-9.7770815 -2.4540479 0.88191599
-9.503232 -2.3853118 0.93933117
-8.6260653 -2.1651428 0.92728531
-7.9268317 -1.9896352 0.92084271
-7.3099151 -1.8347892 0.91267079
-6.8052392 -1.7081155 0.90888947
-6.3590708 -1.5961272 0.9047659
-5.9714684 -1.4988389 0.90182239
-5.6583977 -1.4202582 0.9041298
-5.3769855 -1.3496237 0.90640759
-5.1285605 -1.287269 0.90971345
-4.9138904 -1.2333869 0.9150508
-4.7166619 -1.1838825 0.92012221
-4.5475607 -1.1414381 0.92756116
-4.3798871 -1.0993519 0.93242562
-4.2183681 -1.0588107 0.9357937
-4.0894232 -1.0264455 0.94391942
-3.9636772 -0.99488324 0.9506287
-3.8391221 -0.96361989 0.95550102
-3.728549 -0.93586606 0.96186107
-3.6103623 -0.90620118 0.96431506
-3.5337312 -0.88696676 0.97623003
-2.0502994 -0.54150802 -0.56821305
-2.131783 -0.56302881 -0.57119775
-2.1945965 -0.57961863 -0.56794012
-2.2891767 -0.60459834 -0.57154953
-2.3565767 -0.62239945 -0.56698233
-2.461715 -0.6501677 -0.57001454
-2.5753634 -0.68018353 -0.57312512
-2.6601791 -0.70258445 -0.56811666
-2.7916167 -0.73729861 -0.57120913
-2.9138505 -0.76958197 -0.5702343
-3.0514648 -0.80592757 -0.57003748
-3.2090948 -0.84755945 -0.57104057
-3.3751435 -0.89141488 -0.57075828
-3.5682015 -0.94240379 -0.5719552
-3.7780836 -0.99783605 -0.57238305
-4.0082116 -1.0586156 -0.57209551
-4.2785077 -1.1300039 -0.57323849
-4.5742517 -1.2081134 -0.57292426
-4.9303379 -1.3021599 -0.57456321
-5.3371978 -1.4096164 -0.57555825
-5.8012919 -1.532189 -0.57523781
-6.3775859 -1.684395 -0.57709807
-7.0687251 -1.866933 -0.57845294
-7.9350953 -2.0957515 -0.58075637
-9.0257835 -2.3838151 -0.58265138
-10.476357 -2.7669282 -0.58593029
-12.470444 -3.2935901 -0.58999294
-15.412329 -4.0705762 -0.59646219
-20.143885 -5.3202353 -0.60622436
-29.069172 -7.6775084 -0.62479097
-52.225277 -13.793306 -0.67343253
-16.489426 -4.3550506 0.63814622
-13.266782 -3.5039122 0.62766874
-11.673532 -3.0831161 0.65288693
-10.972109 -2.8978622 0.70829463
-10.494639 -2.7717569 0.76808506
-10.116955 -2.6720061 0.82789791
-9.7790709 -2.5827668 0.88489324
-9.5186434 -2.5139852 0.94383866
-9.1301384 -2.4113762 0.98458529
-8.3250866 -2.1987529 0.97017461
-7.635818 -2.0167089 0.9563849
-7.0826802 -1.8706186 0.94894409
-6.5683327 -1.7347734 0.93750381
-6.1383543 -1.6212112 0.92996615
-5.7975049 -1.5311888 0.92929542
-5.4847231 -1.4485795 0.92750162
-5.2383823 -1.3835181 0.93214107
-5.0247445 -1.3270938 0.93866163
-4.7808037 -1.2626661 0.93559301
-4.6196637 -1.2201073 0.94525665
-4.4293265 -1.1698369 0.94594157
-4.2698474 -1.1277167 0.95021814
-4.140749 -1.0936203 0.95879799
-4.005239 -1.0578305 0.96364349
-3.8884506 -1.0269853 0.97084785
-3.7787228 -0.99800491 0.97789645
-3.6501195 -0.96403921 0.97802639
-3.5712178 -0.94320035 0.98971528
-2.0442855 -0.56689829 -0.56843531
-2.1115284 -0.5855453 -0.56765693
-2.1801651 -0.60457885 -0.56608641
-2.2571206 -0.62591934 -0.56542486
-2.3555701 -0.65322024 -0.56862968
-2.4532554 -0.68030924 -0.56994969
-2.554389 -0.70835447 -0.57035279
-2.6601486 -0.73768252 -0.57000422
-2.7825544 -0.77162671 -0.57125306
-2.9110689 -0.80726492 -0.57158929
-3.0392122 -0.8428002 -0.56964153
-3.2088969 -0.88985521 -0.57290912
-3.3559813 -0.93064302 -0.56940997
-3.567884 -0.98940551 -0.57381105
-3.7751701 -1.0468878 -0.57384855
-3.9982216 -1.1087419 -0.57257229
-4.2710299 -1.1843941 -0.57414448
-4.5634532 -1.2654855 -0.57347739
-4.9155564 -1.3631269 -0.57475054
-5.3044567 -1.4709723 -0.57393461
-5.7904787 -1.6057506 -0.57607991
-6.3652925 -1.7651515 -0.57790601
-7.0502329 -1.9550914 -0.57886326
-7.8955059 -2.1894929 -0.57978553
-8.9832897 -2.4911451 -0.58184165
-10.444653 -2.8963935 -0.58610475
-12.414035 -3.4425206 -0.58928233
-15.349503 -4.2565513 -0.59601134
-20.084269 -5.5695438 -0.60644549
-28.966291 -8.0326061 -0.62465549
-52.01107 -14.423126 -0.67290646
-13.394247 -3.7143421 0.6358121
-11.669657 -3.2360981 0.65484625
-10.989425 -3.0474637 0.71177763
-10.47852 -2.9057856 0.76946235
-10.087825 -2.7974422 0.82826644
-9.7584324 -2.7060988 0.88596982
-9.5011482 -2.6347518 0.94524491
-9.3002119 -2.5790303 1.0062697
-8.8802929 -2.4625831 1.0383266
-8.059948 -2.2350943 1.0128729
-7.4119639 -2.0554025 0.99637282
-6.8539524 -1.9006611 0.98153222
-6.3873281 -1.7712622 0.97091228
-5.9705925 -1.6556977 0.96023083
-5.6307702 -1.5614619 0.95537382
-5.357028 -1.4855509 0.95643163
-5.1122575 -1.4176738 0.95819378
-4.8988938 -1.3585062 0.9618994
-4.6949353 -1.3019466 0.96386123
-4.5201545 -1.2534785 0.96855766
-4.3383317 -1.2030574 0.96867764
-4.1972027 -1.1639211 0.97511023
-4.050128 -1.1231359 0.97769243
-3.9256322 -1.0886122 0.98339891
-3.8127553 -1.0573105 0.98999339
-3.7041824 -1.0272022 0.9958213
-3.5985315 -0.9979043 1.0006099
-2.0353436 -0.59146303 -0.56792831
-2.093086 -0.60824269 -0.56466699
-2.1776478 -0.63281608 -0.56741041
-2.2504981 -0.65398604 -0.56573761
-2.3537624 -0.68399429 -0.57018054
-2.4397793 -0.7089904 -0.56880122
-2.5594823 -0.74377567 -0.57348877
-2.6339152 -0.7654056 -0.56635696
-2.7628689 -0.8028791 -0.56919551
-2.8893147 -0.83962369 -0.56930202
-3.0279782 -0.87991875 -0.56952083
-3.2026346 -0.93067324 -0.57379091
-3.3346431 -0.96903449 -0.56776834
-3.538542 -1.0282867 -0.57108247
-3.7428102 -1.0876462 -0.57091939
-3.9726243 -1.1544293 -0.57089627
-4.2427926 -1.2329391 -0.57234335
-4.548389 -1.3217442 -0.57358336
-4.9046102 -1.4252608 -0.57547629
-5.2940907 -1.5384424 -0.57481641
-5.7676768 -1.6760646 -0.57581824
-6.3341789 -1.840688 -0.57709253
-7.0318098 -2.043417 -0.5793699
-7.8728518 -2.2878203 -0.58014393
-8.9556608 -2.6024804 -0.58208084
-10.396641 -3.0212235 -0.58545101
-12.38478 -3.5989692 -0.58994973
-15.300489 -4.4462633 -0.59618604
-20.000381 -5.8120337 -0.60602462
-28.864758 -8.3879871 -0.62464291
-51.790703 -15.050179 -0.67239887
-13.896821 -4.0383625 0.66197592
-11.718914 -3.4054711 0.65991026
-11.000532 -3.1967123 0.71498901
-10.512358 -3.0548508 0.77464694
-10.12483 -2.9422367 0.83421224
-9.7857027 -2.8436875 0.89155293
-9.4850388 -2.7563157 0.94694257
-9.2874517 -2.6988976 1.0084035
-9.1292305 -2.6529191 1.0711669
-8.6952887 -2.5268173 1.0965362
-7.9053059 -2.2972515 1.0664083
-7.2234397 -2.0991037 1.0380632
-6.6867943 -1.9431567 1.0199878
-6.2265387 -1.8094081 1.0048962
-5.8312483 -1.6945384 0.99284935
-5.5074902 -1.6004554 0.98673379
-5.2634721 -1.5295447 0.98998636
-4.9955487 -1.4516871 0.98430812
-4.8000941 -1.3948888 0.98889667
-4.5875964 -1.3331379 0.9864468
-4.4207153 -1.2846429 0.99052477
-4.272593 -1.2415991 0.99609679
-4.117084 -1.1964087 0.99733138
-3.9836349 -1.1576289 1.0014192
-3.872076 -1.1252104 1.0089126
-3.7371356 -1.0859972 1.0081942
-3.6413362 -1.0581583 1.0160534
-2.0296595 -0.61697352 -0.56841618
-2.0945911 -0.63671136 -0.56714237
-2.1748781 -0.66111684 -0.56876391
-2.2427289 -0.68174213 -0.56584918
-2.3307002 -0.70848352 -0.56666148
-2.4233625 -0.73665082 -0.56704283
-2.5318224 -0.76962042 -0.5693686
-2.6454496 -0.80416071 -0.57092023
-2.7418334 -0.83345932 -0.56693041
-2.8754156 -0.8740654 -0.56863815
-3.0188406 -0.91766363 -0.5698815
-3.1613007 -0.96096843 -0.56845951
-3.3384473 -1.0148174 -0.57049763
-3.5246787 -1.0714277 -0.57092816
-3.727407 -1.1330528 -0.57065195
-3.9806604 -1.2100365 -0.57414603
-4.2447481 -1.2903135 -0.57470405
-4.5391612 -1.3798089 -0.57451594
-4.8756418 -1.4820919 -0.57417232
-5.2778864 -1.6043657 -0.57515556
-5.7597523 -1.7508428 -0.57713288
-6.3149762 -1.919619 -0.57744992
-6.990438 -2.1249452 -0.57807028
-7.8483176 -2.3857224 -0.58045387
-8.9291029 -2.7142582 -0.58247995
-10.353594 -3.1472735 -0.58516204
-12.337683 -3.7503943 -0.58985847
-15.214005 -4.6247354 -0.59498703
-19.904629 -6.0505857 -0.6053319
-28.729261 -8.7330866 -0.62398744
-51.580257 -15.679306 -0.67211896
-11.957602 -3.6348577 0.67581695
-11.091983 -3.3717279 0.72357297
-10.568668 -3.2126513 0.78164828
-10.152718 -3.0862112 0.8395732
-9.8178024 -2.9844041 0.89775306
-9.5395126 -2.8998096 0.95586854
-9.3212452 -2.8334613 1.015779
-9.1532803 -2.7824032 1.0779216
-9.009284 -2.7386315 1.1402937
-8.6383753 -2.6258831 1.1695651
-7.7833948 -2.3659873 1.122629
-7.1088624 -2.1609435 1.08834
-6.5535045 -1.9921266 1.061538
-6.1014485 -1.8547112 1.0426589
-5.7255945 -1.7404594 1.0295663
-5.4086609 -1.6441184 1.0210197
-5.14677 -1.5645092 1.0178181
-4.9062853 -1.4914069 1.0144753
-4.7005768 -1.4288758 1.0144416
-4.5126948 -1.3717637 1.0148369
-4.347434 -1.3215278 1.0172565
-4.1889567 -1.2733542 1.018458
-4.0433507 -1.229093 1.0201529
-3.9285901 -1.1942083 1.0273865
-3.79707 -1.1542288 1.0281143
-3.6795695 -1.1185112 1.0304817
-2.0239198 -0.64251751 -0.56897843
-2.0795312 -0.66017193 -0.56521988
-2.1569555 -0.68475127 -0.56623608
-2.2510374 -0.71461862 -0.57011932
-2.3199482 -0.7364952 -0.56620634
-2.4244618 -0.7696743 -0.5694716
-2.5195887 -0.79987353 -0.56878632
-2.6314437 -0.83538318 -0.57007134
-2.7388792 -0.86948991 -0.56848729
-2.8714514 -0.91157651 -0.57002783
-3.0057135 -0.95419961 -0.56957531
-3.1637096 -1.0043573 -0.57107025
-3.3095443 -1.0506543 -0.56772327
-3.5205665 -1.1176457 -0.57244492
-3.7003331 -1.1747148 -0.56867552
-3.9430695 -1.2517744 -0.57090104
-4.206625 -1.3354433 -0.57172251
-4.5140409 -1.4330361 -0.5735234
-4.8407102 -1.5367411 -0.57224071
-5.2493882 -1.6664809 -0.57423967
-5.7227073 -1.8167417 -0.57561588
-6.2808542 -1.9939321 -0.57652819
-6.9565897 -2.2084522 -0.57747322
-7.8162971 -2.4813766 -0.58029842
-8.8833494 -2.8201253 -0.58171344
-10.320145 -3.276253 -0.58550423
-12.28864 -3.9011755 -0.58976263
-15.172 -4.8165321 -0.59561551
-19.842115 -6.2991161 -0.60574049
-28.610481 -9.0827389 -0.62378621
-51.349415 -16.301483 -0.67167217
-13.568676 -4.307538 0.76980674
-11.274112 -3.5791013 0.73826909
-10.681151 -3.3908589 0.79299128
-10.230686 -3.2478533 0.84925914
-9.9143009 -3.147413 0.91004717
-9.636446 -3.0592048 0.96927744
-9.3783741 -2.9772768 1.0259166
-9.2042789 -2.922008 1.0880765
-9.0217896 -2.8640747 1.1462473
-8.9267874 -2.8339152 1.21324
-8.788805 -2.7901108 1.2724954
-7.7725072 -2.4674752 1.1944964
-7.0422683 -2.235652 1.1450745
-6.4570856 -2.0498788 1.1076564
-5.988338 -1.9010693 1.0809342
-5.6235609 -1.7852664 1.0656509
-5.3205614 -1.6890757 1.0562143
-5.0617232 -1.6069044 1.0506214
-4.8354602 -1.5350745 1.0475456
-4.6202278 -1.4667463 1.0429965
-4.4379263 -1.4088726 1.0424057
-4.2711291 -1.3559209 1.0424114
-4.1304851 -1.3112717 1.0461262
-3.9988656 -1.2694876 1.0497676
-3.8584604 -1.2249143 1.0487357
-3.7619023 -1.1942607 1.057572
-2.0180387 -0.66807318 -0.56959146
-2.0712347 -0.68568373 -0.56521386
-2.1460617 -0.71045524 -0.56562686
-2.2358091 -0.74016619 -0.56852466
-2.3300099 -0.7713514 -0.57093376
-2.4124663 -0.79864872 -0.56891769
-2.5120525 -0.83161676 -0.56935042
-2.6161022 -0.86606246 -0.56901187
-2.7273333 -0.90288562 -0.56835222
-2.8581171 -0.94618171 -0.56964737
-2.9948766 -0.99145603 -0.56978893
-3.1562901 -1.0448921 -0.572007
-3.3073089 -1.094887 -0.56960624
-3.5018287 -1.1592829 -0.5716728
-3.7141099 -1.2295587 -0.57307303
-3.9443297 -1.3057731 -0.57336491
-4.1925278 -1.3879393 -0.57208294
-4.5021839 -1.4904511 -0.57430202
-4.8354154 -1.6007677 -0.57389832
-5.230886 -1.7316885 -0.57450157
-5.7066054 -1.8891757 -0.57628924
-6.2645431 -2.0738814 -0.57732809
-6.9464712 -2.2996342 -0.57893687
-7.7775607 -2.5747669 -0.57972926
-8.8485527 -2.9293196 -0.58174956
-10.257623 -3.3957932 -0.58428192
-12.247591 -4.0545735 -0.5901407
-15.104676 -5.0004134 -0.59534138
-19.754927 -6.5398822 -0.605488
-28.484562 -9.4298344 -0.6235218
-51.103527 -16.917858 -0.67112625
-12.085645 -4.0009613 0.79457277
-10.955356 -3.6267784 0.816598
-10.432742 -3.4537666 0.86949164
-10.053652 -3.3282685 0.926525
-9.7480936 -3.2271132 0.98442441
-9.5098543 -3.1482439 1.0444553
-9.2980204 -3.0781164 1.103549
-9.1192141 -3.0189223 1.163254
-8.9712696 -2.9699452 1.2241564
-8.8511696 -2.9301858 1.2866445
-8.7653389 -2.9017715 1.3524584
-7.9187584 -2.6215105 1.2927357
-7.0559912 -2.335891 1.2152287
-6.4216852 -2.1259034 1.1637869
-5.9323797 -1.9639184 1.1286622
-5.5515742 -1.8378526 1.1064765
-5.245295 -1.7364587 1.0930732
-4.983613 -1.6498287 1.0839542
-4.760282 -1.5758948 1.0789061
-4.5535927 -1.5074701 1.0738469
-4.3850169 -1.4516629 1.0744822
-4.215487 -1.3955399 1.0719198
-4.0578594 -1.3433573 1.06951
-3.9366786 -1.3032403 1.07427
-3.8140531 -1.2626449 1.0765164
-1.9941683 -0.68749064 -0.56519729
-2.0781434 -0.71644115 -0.56946021
-2.1491733 -0.74092871 -0.56880522
-2.2216575 -0.76591766 -0.56727809
-2.3200021 -0.79982203 -0.57084823
-2.3983581 -0.82683527 -0.56794536
-2.4887908 -0.85801208 -0.56642669
-2.5968616 -0.89526951 -0.56717855
-2.7304056 -0.94130886 -0.57136136
-2.8442433 -0.98055446 -0.56924224
-2.9858718 -1.029381 -0.57044077
-3.1313987 -1.0795516 -0.56985867
-3.3090942 -1.1408122 -0.57228643
-3.4873722 -1.2022736 -0.57168299
-3.6830847 -1.2697456 -0.57065189
-3.9207821 -1.3516918 -0.57231474
-4.1725402 -1.4384856 -0.5717259
-4.4660897 -1.539687 -0.5720697
-4.8123312 -1.659054 -0.57353646
-5.203794 -1.794011 -0.57390553
-5.6861248 -1.9602947 -0.57661164
-6.2292919 -2.147552 -0.57646948
-6.9124093 -2.3830571 -0.57849652
-7.7589555 -2.6749043 -0.58075029
-8.8135328 -3.0384705 -0.58185965
-10.238716 -3.5298033 -0.58563304
-12.180035 -4.1990738 -0.58932894
-15.040875 -5.1853504 -0.59529483
-19.664751 -6.7794342 -0.60523349
-28.37303 -9.7816181 -0.62366611
-50.856804 -17.532913 -0.67066675
-11.075524 -3.8182933 0.92690575
-10.410478 -3.5890183 0.9634037
-10.014325 -3.4524443 1.0155206
-9.7282267 -3.3538115 1.0728869
-9.4980764 -3.2744675 1.1319863
-9.2815895 -3.1998332 1.1888959
-9.1003637 -3.1373556 1.2469416
-8.9725056 -3.0932765 1.3097126
-8.8265696 -3.0429652 1.3675761
-8.7443581 -3.0146224 1.4334579
-8.5294886 -2.9405463 1.4751199
-7.2070222 -2.4846251 1.3115494
-6.4436169 -2.2214408 1.2310314
-5.9111714 -2.0378797 1.1830523
-5.5220108 -1.9037164 1.1555294
-5.1987872 -1.7922848 1.1354631
-4.9316974 -1.7002056 1.1224105
-4.7099533 -1.623759 1.1153448
-4.495153 -1.5497065 1.106055
-4.3229694 -1.4903463 1.1038272
-4.1600914 -1.434194 1.1010196
-4.0107083 -1.382694 1.0990283
-3.8709092 -1.3344982 1.0971128
-1.9938143 -0.71491623 -0.56754571
-2.0788128 -0.74539387 -0.57211196
-2.1414845 -0.7678659 -0.56922626
-2.2236555 -0.79732966 -0.5702486
-2.3021886 -0.8254891 -0.56891978
-2.3986895 -0.86009109 -0.57048517
-2.4794507 -0.88904941 -0.56674618
-2.6113091 -0.93632948 -0.57280535
-2.71611 -0.97390765 -0.57083273
-2.8326149 -1.0156825 -0.56937152
-2.9737008 -1.0662712 -0.57057726
-3.1233439 -1.1199284 -0.5708558
-3.2788579 -1.1756905 -0.56951445
-3.4672554 -1.2432437 -0.57084823
-3.6555192 -1.3107489 -0.56883514
-3.8907933 -1.3951105 -0.57039833
-4.1545777 -1.4896948 -0.57173139
-4.4574742 -1.5983037 -0.57344025
-4.8053579 -1.7230432 -0.57518697
-5.1909471 -1.8613027 -0.57496941
-5.6486535 -2.0254211 -0.5752939
-6.21033 -2.22682 -0.57720506
-6.8781872 -2.4662914 -0.57812679
-7.7284598 -2.7711713 -0.58097434
-8.7918282 -3.1524601 -0.58294177
-10.192917 -3.6548448 -0.58553976
-12.126245 -4.3480725 -0.5892688
-14.974669 -5.3694229 -0.59524262
-19.568468 -7.0166092 -0.60487992
-28.221664 -10.11936 -0.62302703
-50.590275 -18.140007 -0.67004281
-13.242785 -4.7484264 1.3487273
-10.394827 -3.7272427 1.1513712
-9.9356737 -3.5626056 1.1892704
-9.6157093 -3.4478769 1.2370311
-9.3522692 -3.353416 1.2870107
-9.1695585 -3.2879019 1.3442761
-9.0161428 -3.232892 1.4030014
-8.8900337 -3.1876736 1.4636533
-8.7770262 -3.1471527 1.5245074
-8.6899767 -3.1159396 1.5882732
-7.764534 -2.7841063 1.489816
-6.5760584 -2.3579581 1.3218247
-5.9302182 -2.1263809 1.2463275
-5.4979763 -1.9713933 1.206012
-5.1655359 -1.8521912 1.1807243
-4.8839126 -1.7512102 1.1615508
-4.6747899 -1.6762258 1.1552399
-4.4609194 -1.5995389 1.1439871
-4.2826419 -1.5356145 1.1383655
-4.1293626 -1.4806534 1.1364456
-3.9818032 -1.4277436 1.1334331
-1.978139 -0.73686862 -0.56562012
-2.066375 -0.76973706 -0.57125068
-2.117018 -0.78860188 -0.56525767
-2.2115791 -0.82382643 -0.56970644
-2.283433 -0.85059243 -0.5668267
-2.3753636 -0.88483715 -0.56748235
-2.4708157 -0.92039365 -0.56731647
-2.5892813 -0.96452278 -0.5705319
-2.7009511 -1.0061204 -0.57020384
-2.821794 -1.0511352 -0.5697515
-2.9590101 -1.1022489 -0.57031602
-3.1097357 -1.1583952 -0.57092887
-3.2847683 -1.2235959 -0.57311106
-3.4383416 -1.2808028 -0.56863785
-3.6574507 -1.3624222 -0.57169938
-3.8873696 -1.4480685 -0.57246351
-4.1385775 -1.5416448 -0.57209504
-4.422121 -1.6472665 -0.57145476
-4.7798195 -1.7805113 -0.57470727
-5.1729074 -1.9269389 -0.57555223
-5.6315503 -2.0977862 -0.57613564
-6.1690474 -2.298007 -0.57595092
-6.8513179 -2.5521567 -0.57846242
-7.676867 -2.859679 -0.57969552
-8.7136221 -3.2458763 -0.58035886
-10.141751 -3.777863 -0.58522487
-12.063218 -4.4936209 -0.58884662
-14.897153 -5.5492787 -0.59482884
-19.471228 -7.2531486 -0.60458523
-28.083242 -10.461176 -0.62276387
-50.31596 -18.742996 -0.66941154
-12.42597 -4.6287479 1.3825485
-11.918861 -4.439847 1.4330785
-11.543301 -4.2999487 1.4916991
-11.279317 -4.2016129 1.559193
-9.8141241 -3.6558199 1.4452518
-9.4540539 -3.5216916 1.4777716
-9.2279129 -3.4374528 1.5261254
-9.0490398 -3.3708212 1.5788343
-8.9138155 -3.3204496 1.6365232
-8.8007631 -3.2783368 1.6962484
-8.7005682 -3.2410135 1.756741
-7.1043601 -2.6464167 1.4998175
-6.0460877 -2.2522039 1.3322176
-5.5208225 -2.0565395 1.2676193
-5.1832218 -1.9307811 1.2382891
-4.888104 -1.820848 1.2133957
-4.6372185 -1.7273916 1.1945552
-4.4298115 -1.6501312 1.1827886
-4.2449188 -1.5812577 1.1735106
-4.0971284 -1.5262049 1.1715144
-1.9680134 -0.76078117 -0.56535697
-2.0474453 -0.79148734 -0.56866509
-2.1202414 -0.81962842 -0.56876636
-2.1955271 -0.84873188 -0.56821692
-2.2740846 -0.87910002 -0.5671466
-2.3649199 -0.91421455 -0.56763005
-2.4687264 -0.95434332 -0.56948811
-2.5626273 -0.99064291 -0.56730008
-2.6894345 -1.0396632 -0.57042837
-2.820586 -1.0903628 -0.57217145
-2.9424942 -1.1374892 -0.56978554
-3.0866978 -1.1932346 -0.56935
-3.2480023 -1.2555904 -0.56934702
-3.4318838 -1.3266742 -0.57022464
-3.6334984 -1.4046129 -0.57061201
-3.8660231 -1.4945008 -0.57198298
-4.1226206 -1.5936946 -0.57255495
-4.4223032 -1.7095436 -0.5741514
-4.7596073 -1.8399364 -0.57495391
-5.1396413 -1.9868473 -0.57452583
-5.599905 -2.1647727 -0.57557786
-6.1413727 -2.3740897 -0.57604909
-6.8181534 -2.635715 -0.57835501
-7.6374769 -2.9524436 -0.57941872
-8.696085 -3.3616731 -0.58190006
-10.091495 -3.9011009 -0.58504862
-12.004874 -4.6407623 -0.58873969
-14.833232 -5.7341294 -0.59504694
-19.374987 -7.4898496 -0.60441095
-27.934406 -10.798691 -0.62236089
-50.06237 -19.352768 -0.66915315
-12.661454 -4.8945785 1.4153385
-12.046027 -4.6566706 1.4551432
-11.654128 -4.5051732 1.5130655
-11.366537 -4.3939981 1.5785995
-11.140432 -4.306592 1.6482409
-10.909613 -4.2173634 1.7132679
-10.3863 -4.0150647 1.7257357
-10.056905 -3.8877294 1.7628895
-9.7389946 -3.7648337 1.7963846
-9.5333939 -3.6853542 1.8460497
-9.3444633 -3.6123188 1.8955761
-9.1321478 -3.5302432 1.9369261
-8.991684 -3.4759433 1.9905285
-6.4969788 -2.5115576 1.4987292
-5.6300435 -2.1764235 1.3513278
-5.1983228 -2.0095322 1.2964387
-4.882441 -1.8874207 1.263608
-4.6241736 -1.7875814 1.2404599
-4.4297752 -1.7124321 1.2303423
-4.2386851 -1.6385618 1.2176595
-1.956645 -0.78417385 -0.5648185
-2.0426037 -0.81862384 -0.57007307
-2.1098638 -0.84558004 -0.56872874
-2.1888897 -0.87725157 -0.56924778
-2.274168 -0.91142899 -0.56991935
-2.3526156 -0.94286877 -0.56741667
-2.4587243 -0.98539448 -0.56993288
-2.5597658 -1.0258894 -0.56941617
-2.6765852 -1.0727075 -0.57045758
-2.7946756 -1.1200353 -0.56966615
-2.9141033 -1.1678988 -0.56702596
-3.0699465 -1.2303569 -0.56900775
-3.2327061 -1.2955868 -0.56941533
-3.4213457 -1.3711888 -0.57123202
-3.6304178 -1.4549797 -0.57289463
-3.8382881 -1.5382887 -0.57063496
-4.1067662 -1.645888 -0.57312047
-4.3847675 -1.757304 -0.57204032
-4.7228127 -1.8927839 -0.57327735
-5.1156731 -2.0502324 -0.57462126
-5.5718803 -2.2330687 -0.57547623
-6.1172724 -2.451648 -0.57657266
-6.7629213 -2.7104077 -0.57645345
-7.6051044 -3.0479336 -0.57976228
-8.6579647 -3.469893 -0.58216023
-10.03954 -4.0235939 -0.58486074
-11.942369 -4.7861991 -0.58851606
-14.754217 -5.9131169 -0.59474903
-19.278854 -7.7264771 -0.60433018
-27.786905 -11.136289 -0.62207854
-49.767509 -19.945559 -0.66843963
-12.957368 -5.1929851 1.4554447
-12.193829 -4.8869777 1.4801446
-11.769537 -4.7169323 1.5354632
-11.441199 -4.5853434 1.5966786
-11.202131 -4.489531 1.6654114
-10.974527 -4.398313 1.7318248
-10.80332 -4.3296976 1.8037354
-10.58448 -4.241992 1.8643715
-10.487945 -4.2033029 1.943917
-10.727965 -4.2994971 2.0874465
-5.972065 -2.3934526 1.4966333
-5.314775 -2.1300273 1.3821729
-4.9290485 -1.975438 1.32866
-4.6396651 -1.8594604 1.2948905
-4.4062324 -1.7659065 1.2719331
-1.9483218 -0.80878133 -0.56524396
-2.0345366 -0.84457058 -0.57067692
-2.1094027 -0.87564868 -0.57146364
-2.1760433 -0.90331239 -0.56875265
-2.2536278 -0.93551898 -0.56761181
-2.3482618 -0.97480327 -0.56921458
-2.4301157 -1.0087821 -0.56613398
-2.544472 -1.0562534 -0.56886029
-2.6594491 -1.1039823 -0.5696556
-2.7841606 -1.1557522 -0.57037652
-2.9139907 -1.2096468 -0.56985521
-3.0618808 -1.2710385 -0.5703665
-3.2176864 -1.335716 -0.56961972
-3.398581 -1.4108084 -0.57028455
-3.5962059 -1.4928459 -0.57034945
-3.8145471 -1.583483 -0.56995714
-4.0820489 -1.6945275 -0.57253563
-4.3739982 -1.8157207 -0.57350481
-4.6873789 -1.9458103 -0.57183737
-5.0745544 -2.1065335 -0.57286882
-5.5555086 -2.3061857 -0.57667065
-6.0766535 -2.5225217 -0.57562429
-6.7535567 -2.8035157 -0.57854992
-7.5619841 -3.1391075 -0.57937384
-8.5988674 -3.5695355 -0.58109403
-9.9957676 -4.1494122 -0.58523887
-11.894624 -4.9376593 -0.58911073
-14.683578 -6.0954018 -0.59487796
-19.169355 -7.9575238 -0.60391939
-27.64374 -11.475384 -0.62198544
-49.471012 -20.536253 -0.66779852
-16.089561 -6.6790495 1.8163582
-12.361693 -5.1315479 1.5080662
-11.89348 -4.9371848 1.5594355
-11.541747 -4.7911744 1.6188099
-11.283317 -4.6838956 1.6859163
-11.047347 -4.5859404 1.7520822
-10.861053 -4.5086064 1.822493
-10.724778 -4.4520369 1.8985831
-10.689051 -4.4372058 1.9911542
-10.834965 -4.497777 2.1188679
-5.599278 -2.3243549 1.5169146
-5.0392795 -2.0918901 1.4134916
-4.6916766 -1.9475944 1.3611417
-1.938718 -0.83288544 -0.56538624
-2.0107851 -0.86384588 -0.56695133
-2.0934484 -0.89935863 -0.57009441
-2.1662068 -0.93061608 -0.56912959
-2.2364709 -0.96080196 -0.56622344
-2.3447104 -1.0073023 -0.5713129
-2.4288671 -1.0434567 -0.56878924
-2.535234 -1.0891525 -0.56974608
-2.6421075 -1.135066 -0.56888765
-2.7496235 -1.1812556 -0.56623399
-2.890945 -1.2419682 -0.56829196
-3.0467212 -1.3088906 -0.57049757
-3.2130079 -1.3803284 -0.57175303
-3.3894668 -1.4561363 -0.57171649
-3.5852365 -1.5402402 -0.57157034
-3.8013444 -1.6330816 -0.57094175
-4.0520105 -1.7407691 -0.57128161
-4.3498135 -1.8687073 -0.57330328
-4.6825914 -2.0116708 -0.57422757
-5.0747809 -2.1801579 -0.57587725
-5.5084753 -2.3664756 -0.57476556
-6.0537353 -2.6007228 -0.57643902
-6.7079449 -2.8817754 -0.57763445
-7.5242701 -3.2324739 -0.57948589
-8.5528564 -3.6743612 -0.58099407
-9.9227629 -4.2628813 -0.58398944
-11.83201 -5.083106 -0.58906078
-14.600684 -6.2725458 -0.59459949
-19.075207 -8.194829 -0.60408223
-27.486794 -11.808499 -0.62167418
-49.16777 -21.122784 -0.66716081
-12.53187 -5.3837705 1.536787
-12.003063 -5.1565914 1.5819979
-11.627308 -4.9951644 1.6393015
-11.338103 -4.8709207 1.7029229
-11.107129 -4.7716928 1.7707355
-10.905019 -4.6848645 1.839398
-10.77907 -4.6307564 1.9181296
-10.739162 -4.6136117 2.0109048
-10.918384 -4.6906061 2.1462982
-5.3070803 -2.2799551 1.5476981
-1.9457024 -0.8643775 -0.57047963
-2.0141933 -0.89480454 -0.57097155
-2.0743721 -0.92153895 -0.56794238
-2.1493711 -0.95485729 -0.56774825
-2.2403741 -0.99528527 -0.57026708
-2.3256373 -1.0331634 -0.56971806
-2.4117799 -1.0714322 -0.56783009
-2.5221927 -1.120483 -0.56986856
-2.6256082 -1.1664253 -0.56838036
-2.7396882 -1.2171053 -0.56722713
-2.8890512 -1.2834598 -0.57097894
-3.0342464 -1.3479627 -0.57122219
-3.1795545 -1.4125158 -0.56884778
-3.3670983 -1.495832 -0.57100278
-3.5693521 -1.5856831 -0.5721032
-3.7918096 -1.6845098 -0.57257742
-4.0389428 -1.7942986 -0.57250661
-4.3195419 -1.9189547 -0.57238024
-4.662816 -2.071454 -0.57488263
-5.0207887 -2.2304833 -0.57281935
-5.5057001 -2.445905 -0.57757056
-6.0137444 -2.6716034 -0.57571566
-6.6797938 -2.9674954 -0.57830882
-7.4899879 -3.327424 -0.5799529
-8.5102777 -3.7806871 -0.58121568
-9.8875103 -4.3925223 -0.58504927
-11.76359 -5.2259698 -0.58880919
-14.515522 -6.4485145 -0.59431559
-18.962 -8.4238605 -0.60373181
-27.317291 -12.135695 -0.62116867
-48.861443 -21.706675 -0.66657561
-12.75527 -5.6665235 1.5726084
-12.115246 -5.3821926 1.6053848
-11.735838 -5.2136412 1.6635157
-11.427923 -5.0768504 1.7256591
-11.164349 -4.9597573 1.789445
-10.957914 -4.8680491 1.8582766
-10.80074 -4.7982244 1.932339
-10.778479 -4.7883344 2.0291386
-11.037993 -4.9036241 2.1814988
-1.92406 -0.8832469 -0.56727558
-1.9887272 -0.91293263 -0.56689191
-2.0687885 -0.94968504 -0.56956786
-2.1287992 -0.97723323 -0.5654456
-2.224618 -1.0212193 -0.56940979
-2.3101878 -1.0605004 -0.56908488
-2.4164367 -1.1092743 -0.57209468
-2.5165563 -1.1552346 -0.57176137
-2.6160142 -1.200891 -0.56945705
-2.7316506 -1.2539744 -0.56871247
-2.8740261 -1.3193324 -0.57117254
-3.0101233 -1.3818083 -0.5698365
-3.1836643 -1.461473 -0.57275486
-3.3470008 -1.5364532 -0.57075542
-3.5444813 -1.6271074 -0.57128054
-3.7625563 -1.7272155 -0.57132399
-4.0168777 -1.8439627 -0.5725497
-4.2959032 -1.9720504 -0.57241786
-4.6296597 -2.1252625 -0.57397342
-5.0214224 -2.3051026 -0.57608193
-5.4554238 -2.5043328 -0.57548332
-5.9985442 -2.753654 -0.57745844
-6.6357651 -3.0461729 -0.5776962
-7.4413438 -3.4159768 -0.579395
-8.4677849 -3.8871679 -0.58153409
-9.8207178 -4.5082374 -0.58433312
-11.699971 -5.3709154 -0.58888602
-14.421408 -6.6202006 -0.5937503
-18.8494 -8.6528873 -0.6034888
-27.149612 -12.46313 -0.62079364
-48.533905 -22.279671 -0.66579437
-13.004497 -5.9697623 1.6122643
-12.256987 -5.626615 1.6332114
-11.829847 -5.4305353 1.686179
-11.508013 -5.2827964 1.7474301
-11.221204 -5.1511354 1.8085736
-10.999055 -5.0491571 1.8756404
-10.858383 -4.9845815 1.9534699
-10.83603 -4.9743199 2.0513332
-1.9201642 -0.91020769 -0.5693838
-1.981859 -0.93945259 -0.56818408
-2.05143 -0.972431 -0.56803787
-2.113287 -1.0017529 -0.56455445
-2.220999 -1.0528111 -0.57175386
-2.2922885 -1.0866042 -0.56792408
-2.3877914 -1.1318752 -0.56856507
-2.4985242 -1.1843653 -0.57093012
-2.6022861 -1.2335511 -0.56972754
-2.7147679 -1.2868705 -0.56844914
-2.8623435 -1.3568251 -0.57212329
-2.9859915 -1.4154375 -0.56852007
-3.153661 -1.4949172 -0.57062107
-3.3270352 -1.577101 -0.57061452
-3.5243316 -1.6706246 -0.57130069
-3.7455125 -1.77547 -0.57200778
-3.9851167 -1.8890488 -0.57129031
-4.2810264 -2.0293176 -0.57371718
-4.5898824 -2.1757233 -0.57231551
-4.9709873 -2.3563769 -0.57357657
-5.4248447 -2.571517 -0.57554966
-5.9614134 -2.8258648 -0.57718539
-6.5940976 -3.1257734 -0.57737124
-7.3982778 -3.5069757 -0.57935566
-8.4216843 -3.9920971 -0.58169538
-9.7544785 -4.6238761 -0.58373076
-11.623323 -5.5097566 -0.58839369
-14.337352 -6.7962766 -0.59368545
-18.746685 -8.8864145 -0.60365307
-27.001289 -12.799313 -0.62095398
-48.220711 -22.857868 -0.66530341
-13.429951 -6.3661451 1.6745895
-12.402971 -5.8793306 1.662171
-11.94231 -5.660965 1.7120017
-11.585201 -5.4916859 1.7692707
-11.300243 -5.3566084 1.8317904
-11.043999 -5.2351418 1.8941388
-10.911843 -5.1724968 1.9743807
-10.888978 -5.1616583 2.073215
-1.9035788 -0.93118072 -0.56781816
-1.9600415 -0.95880079 -0.56526649
-2.0447206 -1.0002236 -0.56954271
-2.1135662 -1.0339011 -0.56798244
-2.1862779 -1.0694698 -0.56615818
-2.2771704 -1.113932 -0.5675292
-2.3673723 -1.1580564 -0.56705081
-2.4750962 -1.2107521 -0.56893569
-2.5958517 -1.2698225 -0.57169414
-2.6964426 -1.319029 -0.56796521
-2.8398614 -1.3891857 -0.57100075
-2.9713562 -1.4535094 -0.56909353
-3.1365073 -1.534297 -0.5708878
-3.3273628 -1.6276585 -0.57405996
-3.5123947 -1.7181712 -0.57274723
-3.7148178 -1.8171912 -0.5706895
-3.9577656 -1.9360349 -0.57073903
-4.2530184 -2.0804648 -0.5733487
-4.5776377 -2.2392602 -0.57417864
-4.9533491 -2.4230483 -0.57493585
-5.3806486 -2.6320722 -0.57425106
-5.9239783 -2.8978546 -0.57696736
-6.5755048 -3.2165644 -0.57916266
-7.3594155 -3.6000328 -0.57973516
-8.3780937 -4.0983434 -0.58212137
-9.707243 -4.7485285 -0.5843541
-11.546755 -5.6483693 -0.58798921
-14.256791 -6.9740477 -0.59385568
-18.613567 -9.1052685 -0.60292637
-26.813948 -13.116678 -0.62030792
-47.884548 -23.423864 -0.66458911
-15.841368 -7.7491808 1.9870019
-12.553388 -6.1407876 1.6923202
-12.033883 -5.8866596 1.7353747
-11.645035 -5.6964455 1.7889705
-11.344877 -5.5496159 1.8499478
-11.10635 -5.4329348 1.9161454
-10.964345 -5.3634696 1.9956628
-10.950409 -5.3566527 2.0972939
-1.8938004 -0.95543152 -0.56836283
-1.9472882 -0.98241633 -0.56502962
-2.034157 -1.0262421 -0.57007217
-2.1122522 -1.0656415 -0.57110751
-2.1798487 -1.0997442 -0.56795222
-2.2678394 -1.1441361 -0.56866699
-2.3582833 -1.1897653 -0.56833506
-2.4608302 -1.2415007 -0.56912255
-2.5728004 -1.2979903 -0.5700894
-2.6908102 -1.3575268 -0.57025176
-2.8253822 -1.4254191 -0.57157052
-2.9627335 -1.4947134 -0.57091904
-3.1102939 -1.5691583 -0.5695855
-3.2893972 -1.6595168 -0.57098734
-3.4780021 -1.754669 -0.57061416
-3.6995924 -1.8664623 -0.57183313
-3.9486678 -1.9921221 -0.57291621
-4.2241607 -2.1311097 -0.57294786
-4.5478978 -2.2944365 -0.57394379
-4.9187484 -2.4815326 -0.57441807
-5.3547764 -2.7015107 -0.57499164
-5.8818364 -2.9674151 -0.57637316
-6.5234323 -3.2911034 -0.57809693
-7.3063703 -3.6860993 -0.57908326
-8.3111181 -4.1929998 -0.58100629
-9.6493988 -4.8681684 -0.58443135
-11.479993 -5.7917123 -0.5881716
-14.167418 -7.1475315 -0.59374905
-18.489592 -9.3280888 -0.60258037
-26.628605 -13.43426 -0.61979496
-47.535007 -23.981644 -0.66378045
-15.63455 -7.8877063 1.6788256
-15.555191 -7.8476696 1.8165562
-15.499946 -7.819798 1.95609
-12.693061 -6.4037113 1.7216349
-12.153671 -6.1315866 1.7633886
-11.747415 -5.9266281 1.815757
-11.411723 -5.7572699 1.8722504
-11.151894 -5.6261845 1.9357924
-10.999043 -5.5490708 2.0142455
-11.01076 -5.5549822 2.1217747
-1.8805698 -0.97794783 -0.56795818
-1.9423707 -1.0100859 -0.56716388
-2.0096607 -1.0450785 -0.56676561
-2.076607 -1.0798925 -0.56501746
-2.1571412 -1.1217725 -0.56558704
-2.2661638 -1.1784673 -0.57183725
-2.3475296 -1.2207797 -0.56931812
-2.4378436 -1.2677454 -0.56736875
-2.557795 -1.3301234 -0.57034552
-2.6776192 -1.3924353 -0.5710417
-2.8014162 -1.4568131 -0.57030296
-2.9381204 -1.5279031 -0.56975347
-3.1013141 -1.6127682 -0.57152951
-3.2598965 -1.6952355 -0.56944191
-3.4510562 -1.7946438 -0.56977075
-3.6747406 -1.9109657 -0.57158065
-3.9278514 -2.0425904 -0.57349682
-4.1996417 -2.1839287 -0.57322133
-4.5222673 -2.3517029 -0.57431525
-4.8769336 -2.536139 -0.57313347
-5.316812 -2.764888 -0.57452238
-5.8357687 -3.0347595 -0.57547212
-6.4830089 -3.3713422 -0.57814467
-7.261107 -3.7759745 -0.57913208
-8.2756634 -4.3035717 -0.58218312
-9.5994549 -4.9919796 -0.58507997
-11.400635 -5.9286423 -0.58779633
-14.068953 -7.3162403 -0.59334785
-18.37471 -9.5553522 -0.60262007
-26.445169 -13.752213 -0.61941457
-47.194016 -24.542181 -0.6631828
-15.092445 -7.848485 1.6308546
-14.789268 -7.6908245 1.7380233
-14.732249 -7.6611733 1.8709542
-12.863188 -6.6892099 1.7557338
-12.253451 -6.3721304 1.7890991
-11.823464 -6.1485252 1.8390586
-11.472417 -5.965971 1.8941007
-11.198761 -5.8236623 1.9562104
-11.045573 -5.7440004 2.0355473
-11.069809 -5.7566037 2.1466315
-1.8590704 -0.99599648 -0.56512117
-1.9378372 -1.0381957 -0.56952477
-2.0005808 -1.0718106 -0.5678789
-2.0610325 -1.1041976 -0.56443149
-2.146682 -1.1500843 -0.56650984
-2.2471573 -1.2039138 -0.57073361
-2.3396163 -1.2534487 -0.57109368
-2.4352374 -1.3046777 -0.57045281
-2.544045 -1.3629713 -0.57097346
-2.6541884 -1.4219806 -0.56973064
-2.7740538 -1.4861985 -0.56841004
-2.9126027 -1.560426 -0.568483
-3.0806103 -1.650436 -0.57141089
-3.2460289 -1.739059 -0.57071173
-3.4282558 -1.836687 -0.56969208
-3.6545963 -1.9579489 -0.57214898
-3.8915601 -2.0849023 -0.57189798
-4.1646762 -2.2312241 -0.57215035
-4.4892731 -2.4051266 -0.57383752
-4.863071 -2.6053889 -0.57522583
-5.2825308 -2.8301144 -0.57453507
-5.8151097 -3.1154432 -0.577169
-6.4302258 -3.4449916 -0.57717162
-7.2125607 -3.8641272 -0.57900602
-8.1994648 -4.3928609 -0.58057874
-9.5158615 -5.0981202 -0.58376175
-11.319105 -6.0642071 -0.58739305
-13.961287 -7.4797559 -0.59264129
-18.249779 -9.7773132 -0.60242021
-26.266466 -14.072252 -0.6192351
-46.827869 -25.088018 -0.66232258
-14.37109 -7.6993074 1.6998769
-14.078172 -7.5423765 1.7995305
-13.042484 -6.9875073 1.7917988
-12.349521 -6.6162524 1.8148675
-11.913186 -6.3824859 1.8650807
-11.537394 -6.1811552 1.917232
-11.260095 -6.0325928 1.9797324
-11.115097 -5.9549103 2.061698
-11.156151 -5.9769044 2.1774621
-1.858218 -1.0251427 -0.5686509
-1.9174391 -1.0578139 -0.56730968
-1.9902649 -1.0979905 -0.56874013
-2.0645249 -1.1389582 -0.56918031
-2.1359448 -1.1783593 -0.5674572
-2.2204173 -1.224961 -0.56772488
-2.3155217 -1.2774284 -0.56900352
-2.4102886 -1.3297094 -0.56839573
-2.5224023 -1.3915603 -0.56991339
-2.6369309 -1.4547436 -0.56982303
-2.7561851 -1.5205338 -0.56853682
-2.9039285 -1.6020409 -0.57059175
-3.0529444 -1.6842501 -0.57007766
-3.2163551 -1.7744006 -0.56928772
-3.419477 -1.886459 -0.57204479
-3.6326993 -2.0040896 -0.57253563
-3.8698258 -2.1349077 -0.57251859
-4.1421871 -2.2851641 -0.57287782
-4.4561839 -2.4583902 -0.57342869
-4.8119321 -2.6546495 -0.57299471
-5.2568555 -2.900105 -0.57557762
-5.7483745 -3.1712666 -0.57437229
-6.3924823 -3.5266082 -0.57763255
-7.1540003 -3.946723 -0.57815719
-8.1626883 -4.5031967 -0.58185154
-9.4441423 -5.2101498 -0.58324814
-11.238137 -6.199862 -0.58710313
-13.870104 -7.6518664 -0.59271991
-18.116119 -9.9943113 -0.60201937
-26.067074 -14.380698 -0.61865646
-46.474545 -25.639103 -0.66173428
-13.787256 -7.6061611 1.7741655
-13.267703 -7.3195338 1.8349661
-12.46908 -6.8789492 1.8447291
-11.999275 -6.6197672 1.8911592
-11.61326 -6.4068098 1.9427838
-11.307336 -6.2380371 2.0013733
-11.154764 -6.1538663 2.0829341
-11.235956 -6.1986589 2.2077487
-1.8372856 -1.0432642 -0.56612819
-1.909748 -1.0844103 -0.56893635
-1.9702902 -1.118788 -0.56692052
-2.0450463 -1.1612368 -0.5677039
-2.1199615 -1.2037756 -0.56710058
-2.1999965 -1.2492218 -0.56638837
-2.2934074 -1.3022634 -0.56746143
-2.4007976 -1.3632425 -0.57006752
-2.5013967 -1.4203657 -0.56907052
-2.618721 -1.4869858 -0.56979609
-2.7361572 -1.5536695 -0.56830341
-2.8820965 -1.636538 -0.57021296
-3.0272532 -1.7189622 -0.56918424
-3.2038279 -1.8192264 -0.57098669
-3.3799343 -1.9192249 -0.56933463
-3.5991368 -2.0436945 -0.57116348
-3.8342645 -2.1772068 -0.5711751
-4.1107502 -2.3342032 -0.5724563
-4.423903 -2.5120206 -0.57320625
-4.785872 -2.717557 -0.57382727
-5.2040205 -2.9549937 -0.57372773
-5.7119389 -3.2434046 -0.57467324
-6.347147 -3.6040943 -0.57749689
-7.1102071 -4.0373821 -0.5785864
-8.0861397 -4.5915446 -0.58037573
-9.3815899 -5.3271389 -0.58338642
-11.169578 -6.3424106 -0.58755136
-13.773395 -7.8209333 -0.59265208
-17.97924 -10.209134 -0.60159695
-25.875732 -14.692992 -0.61835647
-46.097492 -26.175493 -0.66089851
-15.513648 -8.8091002 2.0101073
-13.279847 -7.5406828 1.8493298
-12.565413 -7.135006 1.8718193
-12.08016 -6.8594656 1.9170558
-11.683299 -6.6341162 1.9679989
-11.35879 -6.449851 2.0243652
-11.203826 -6.3618574 2.1065438
-11.344915 -6.4419727 2.2445531
-1.8422403 -1.0762453 -0.57168949
-1.8823826 -1.0996966 -0.56476969
-1.9506382 -1.1395718 -0.56525517
-2.0302289 -1.186069 -0.56759632
-2.0947056 -1.2237366 -0.56432712
-2.2059247 -1.2887114 -0.57195109
-2.2831693 -1.3338379 -0.56894338
-2.3721406 -1.3858155 -0.5672664
-2.4893467 -1.4542878 -0.57035428
-2.6004598 -1.5192006 -0.56984431
-2.7137561 -1.5853888 -0.56765682
-2.8563888 -1.6687155 -0.56914347
-3.0032222 -1.7544962 -0.56867933
-3.1812046 -1.8584743 -0.57098436
-3.3699412 -1.9687351 -0.57168591
-3.5777333 -2.0901282 -0.57180226
-3.8137186 -2.2279918 -0.57215232
-4.087831 -2.3881297 -0.57331073
-4.3990788 -2.569962 -0.57404095
-4.7488441 -2.7742965 -0.57343459
-5.1794953 -3.0258851 -0.57508248
-5.6728759 -3.3141201 -0.57479978
-6.3004322 -3.6807413 -0.57732093
-7.0603695 -4.1247005 -0.57861441
-8.0380974 -4.6958933 -0.58102798
-9.3273525 -5.4490824 -0.58413619
-11.089089 -6.4782968 -0.58746338
-13.680574 -7.9922543 -0.59284204
-17.842104 -10.423439 -0.60125154
-25.67474 -14.999301 -0.61791414
-45.711891 -26.705095 -0.66002822
-13.404613 -7.831037 0.45171493
-13.234208 -7.7314854 0.57349896
-13.185431 -7.7029891 0.6985206
-13.302505 -7.7713842 0.83308464
-14.790322 -8.6405745 1.9300065
-14.764469 -8.6254711 2.0706894
-12.683997 -7.410049 1.9029138
-12.145843 -7.0956569 1.9411788
-11.754707 -6.8671541 1.9941003
-11.424995 -6.6745348 2.0506365
-11.265313 -6.5812478 2.1331592
-1.8109651 -1.0880588 -0.56609315
-1.8693603 -1.1231437 -0.56496358
-1.9354371 -1.1628437 -0.564951
-2.0127239 -1.2092791 -0.56681675
-2.0917757 -1.2567747 -0.56765825
-2.1704185 -1.3040247 -0.56685972
-2.2664084 -1.361697 -0.56889623
-2.3501043 -1.4119829 -0.56610584
-2.4558325 -1.4755062 -0.56678975
-2.5749359 -1.5470656 -0.56837684
-2.7041686 -1.6247108 -0.56978726
-2.8504655 -1.7126085 -0.57211602
-2.9928787 -1.7981727 -0.57086444
-3.1477585 -1.8912272 -0.5691123
-3.3359332 -2.0042858 -0.57005459
-3.5458229 -2.1303911 -0.57084584
-3.8035612 -2.2852447 -0.57480079
-4.0558391 -2.4368176 -0.57298303
-4.3502598 -2.6137106 -0.57182121
-4.7175579 -2.8343894 -0.57382184
-5.1560545 -3.097846 -0.5766657
-5.6463156 -3.3924031 -0.57629168
-6.2634625 -3.7631955 -0.57812977
-7.0036855 -4.2079344 -0.57816577
-7.9828672 -4.7962432 -0.58125496
-9.2487364 -5.5567994 -0.58344781
-10.999873 -6.608912 -0.58699781
-13.581698 -8.1601171 -0.5928607
-17.705015 -10.637476 -0.60099429
-25.47858 -15.307967 -0.61767673
-45.339001 -27.240448 -0.65943074
-13.220109 -7.9428678 0.19227919
-12.563926 -7.5486217 0.30458701
-12.148153 -7.2988186 0.4123674
-11.984485 -7.2004838 0.52314001
-11.89176 -7.144773 0.63459253
-11.898122 -7.1485953 0.7505818
-11.967325 -7.1901741 0.87137449
-12.212306 -7.3373628 1.0081459
-14.400933 -8.6523275 1.6106354
-14.284124 -8.5821466 1.7374548
-14.171679 -8.5145874 1.8628005
-14.072404 -8.4549417 1.9880593
-12.806222 -7.6941972 1.9352984
-12.23805 -7.3528304 1.970217
-11.820395 -7.1018963 2.0199058
-11.469062 -6.8908086 2.0735974
-11.31741 -6.7996936 2.1586933
-1.7959504 -1.1093172 -0.56562096
-1.8651042 -1.1520319 -0.56791556
-1.9317193 -1.1931785 -0.56810558
-2.0053909 -1.2386838 -0.5689981
-2.0686929 -1.2777839 -0.5656153
-2.1531494 -1.3299507 -0.56657773
-2.2527437 -1.3914679 -0.569718
-2.3399606 -1.4453397 -0.56790066
-2.4519663 -1.514523 -0.57015252
-2.5583363 -1.5802253 -0.56895888
-2.6805348 -1.6557046 -0.56905431
-2.8221564 -1.743181 -0.57069319
-2.9659636 -1.8320074 -0.56998444
-3.1385415 -1.9386047 -0.57171249
-3.3193944 -2.0503132 -0.57149339
-3.5166447 -2.1721504 -0.5704053
-3.7579281 -2.3211856 -0.57217473
-4.0257697 -2.4866252 -0.5730114
-4.3184929 -2.6674335 -0.57191372
-4.6809554 -2.8913183 -0.5736509
-5.0981688 -3.1490214 -0.57447892
-5.5875592 -3.4513063 -0.57458276
-6.205411 -3.8329394 -0.57707822
-6.9486289 -4.2920079 -0.57793385
-7.9142056 -4.8884225 -0.5805884
-9.1809797 -5.6708794 -0.58352828
-10.914734 -6.7417793 -0.58683395
-13.460142 -8.3140202 -0.59197247
-17.566864 -10.850647 -0.60078841
-25.261713 -15.603578 -0.617024
-44.953896 -27.766985 -0.65874583
-13.184108 -8.1435194 0.064396165
-11.679914 -7.2144136 0.17115523
-11.437634 -7.0647626 0.27936724
-11.312044 -6.9871888 0.38687301
-11.241491 -6.9436097 0.49439692
-11.178669 -6.9048061 0.60102451
-11.166899 -6.8975363 0.70975012
-11.164351 -6.8959622 0.81901997
-11.224476 -6.9331002 0.93356609
-11.344214 -7.0070596 1.0549663
-11.585993 -7.1564007 1.1914169
-13.522754 -8.3526926 1.5237895
-13.431173 -8.2961264 1.6459897
-13.36064 -8.2525587 1.7693982
-13.305654 -8.2185955 1.8938717
-12.896265 -7.9657259 1.9635599
-12.324699 -7.6126828 1.9990858
-11.873899 -7.3342338 2.0443053
-11.530451 -7.1220937 2.1003716
-11.387418 -7.0337453 2.1883783
-1.7745079 -1.1264485 -0.56318754
-1.8451231 -1.1712745 -0.56617409
-1.9149683 -1.2156119 -0.5675323
-1.9925801 -1.2648796 -0.5697332
-2.065207 -1.3109828 -0.56902683
-2.1447473 -1.3614745 -0.56872916
-2.2293923 -1.4152067 -0.56817043
-2.3135269 -1.4686149 -0.56582528
-2.4202442 -1.5363586 -0.56712621
-2.546102 -1.6162524 -0.57061481
-2.6515157 -1.6831684 -0.56724471
-2.7935019 -1.7733006 -0.56926513
-2.9407995 -1.8668044 -0.56951684
-3.0968161 -1.9658428 -0.56847221
-3.2866628 -2.0863566 -0.57023191
-3.4992847 -2.221328 -0.57197672
-3.7234662 -2.363637 -0.57130969
-3.9864693 -2.5305901 -0.57180339
-4.3173871 -2.7406549 -0.57618678
-4.6484871 -2.9508357 -0.57407522
-5.0579743 -3.2107761 -0.57435513
-5.5551696 -3.5263929 -0.57566762
-6.163662 -3.9126608 -0.57762629
-6.9050093 -4.3832645 -0.57874507
-7.8513455 -4.9839935 -0.58042902
-9.100275 -5.7768078 -0.58286965
-10.828677 -6.8739882 -0.58670729
-13.356504 -8.4786406 -0.59195495
-17.427738 -11.063038 -0.60063738
-25.051168 -15.902352 -0.616611
-44.535789 -28.27109 -0.6576634
-11.198239 -7.1085849 0.055119216
-10.975297 -6.9670615 0.16207305
-10.845325 -6.8845563 0.26694751
-10.758722 -6.8295813 0.37079343
-10.700166 -6.7924099 0.47422707
-10.657671 -6.7654347 0.57744205
-10.645693 -6.7578311 0.68185312
-10.648096 -6.7593565 0.78718531
-10.66315 -6.7689123 0.89373446
-10.698484 -6.7913427 1.0026063
-10.790162 -6.8495393 1.1181561
-10.964301 -6.9600816 1.2450444
-11.434579 -7.2586117 1.4121386
-12.721565 -8.0755835 1.6977856
-12.721511 -8.0755491 1.8247232
-12.73105 -8.081605 1.9533876
-12.405265 -7.8747983 2.0277066
-11.940515 -7.5797772 2.0716643
-11.581567 -7.3519187 2.1259897
-11.435457 -7.2591691 2.214597
-1.7819395 -1.162149 -0.5700385
-1.8348371 -1.1966478 -0.5674901
-1.8897589 -1.2324669 -0.56450987
-1.9665376 -1.2825406 -0.56675339
-2.0468934 -1.3349472 -0.56846076
-2.1146712 -1.3791506 -0.56520802
-2.2148247 -1.444469 -0.56894153
-2.3163421 -1.5106769 -0.57101387
-2.4191198 -1.5777066 -0.57136554
-2.5222535 -1.6449685 -0.56976014
-2.6447303 -1.7248458 -0.57028741
-2.7855713 -1.8166996 -0.57215804
-2.9168689 -1.9023296 -0.56936949
-3.0791457 -2.0081637 -0.5697183
-3.2796044 -2.1388991 -0.5735271
-3.4629796 -2.2584932 -0.57053876
-3.6968513 -2.41102 -0.57173175
-3.9586992 -2.5817926 -0.57233059
-4.2624593 -2.7798994 -0.57337487
-4.6147809 -3.0096774 -0.57443959
-5.0140343 -3.2700634 -0.57388818
-5.5133967 -3.5957384 -0.57587713
-6.1027765 -3.9801214 -0.5764634
-6.8493047 -4.4669938 -0.57863617
-7.7914343 -5.0814338 -0.58057529
-9.0241337 -5.8853779 -0.58258396
-10.752882 -7.0128365 -0.58722842
-13.254353 -8.6442509 -0.59209371
-17.274576 -11.266169 -0.60008788
-24.829939 -16.193642 -0.61602032
-44.127373 -28.779081 -0.65680844
-10.87396 -7.0918021 -0.05394822
-10.637581 -6.9376392 0.052775487
-10.46813 -6.827127 0.15581159
-10.385589 -6.7732949 0.25766209
-10.292847 -6.71281 0.35755509
-10.255934 -6.688736 0.45814943
-10.208992 -6.6581216 0.55752593
-10.206992 -6.6568174 0.65894747
-10.189209 -6.6452193 0.75924444
-10.17998 -6.6392007 0.86001509
-10.222066 -6.6666484 0.96556818
-10.274685 -6.7009654 1.0731962
-10.382269 -6.7711296 1.1883168
-10.520654 -6.861382 1.309592
-10.854993 -7.079432 1.4601854
-12.193265 -7.952229 1.7628462
-12.197409 -7.9549317 1.8863745
-12.11372 -7.900351 1.9957803
-11.839842 -7.7217326 2.0705149
-11.622778 -7.5801678 2.1505022
-11.497079 -7.498189 2.2442167
-1.7484181 -1.1711786 -0.56387943
-1.8213725 -1.2200471 -0.56792277
-1.8782673 -1.2581582 -0.56565577
-1.9438822 -1.3021104 -0.56479591
-2.0308547 -1.3603688 -0.56860906
-2.105804 -1.4105737 -0.56743115
-2.196636 -1.4714175 -0.56887394
-2.2883267 -1.5328367 -0.56871104
-2.3938684 -1.6035337 -0.57001549
-2.498564 -1.6736641 -0.56901479
-2.6233101 -1.7572255 -0.57028472
-2.7579408 -1.8474079 -0.57110554
-2.9027715 -1.9444227 -0.57124162
-3.0576217 -2.0481493 -0.57035255
-3.2461565 -2.1744392 -0.57231039
-3.4312296 -2.2984107 -0.56992102
-3.65714 -2.4497368 -0.57020575
-3.9341471 -2.6352901 -0.57342249
-4.2084875 -2.8190572 -0.57073456
-4.5765467 -3.0656018 -0.5743292
-4.978837 -3.3350763 -0.57451004
-5.4592605 -3.6568878 -0.57487589
-6.0536385 -4.0550323 -0.5764882
-6.7839584 -4.5442376 -0.57779264
-7.7281103 -5.1766782 -0.58055604
-8.959343 -6.00142 -0.5831213
-10.65007 -7.133954 -0.5863601
-13.119925 -8.7883883 -0.59087151
-17.130468 -11.474853 -0.59993809
-24.616028 -16.489058 -0.61569709
-10.74123 -7.1950178 -0.1611812
-10.386465 -6.9573784 -0.05195016
-10.200258 -6.8326473 0.051018804
-10.07479 -6.7486024 0.1511807
-9.9640684 -6.6744361 0.24922168
