# .PCD v0.7 - Point Cloud Data file format
VERSION 0.7
FIELDS x y z
SIZE 4 4 4
TYPE F F F
COUNT 1 1 1
WIDTH 1483
HEIGHT 1
VIEWPOINT 0 0 0 1 0 0 0
POINTS 1483
DATA ascii
4.7806635 7.4801412 -0.55407017
5.4854198 8.5828495 -0.55080557
6.4616189 10.110274 -0.54885674
7.8634787 12.303717 -0.54636407
10.015007 15.67014 -0.54112071
13.813916 21.614164 -0.53305459
22.216827 34.761913 -0.51433748
1.1056864 1.7778311 -0.56098169
1.1425035 1.8370291 -0.56043315
1.1812174 1.8992772 -0.55962932
1.2290601 1.9762033 -0.5617854
1.2736579 2.0479121 -0.56100088
1.3228071 2.1269391 -0.56074768
1.3784907 2.2164726 -0.56161356
1.4404222 2.316052 -0.5631696
1.4928565 2.4003611 -0.5592168
1.5643145 2.5152583 -0.56044489
1.6261554 2.6146922 -0.55613458
1.7230219 2.7704437 -0.56130385
1.8060285 2.9039099 -0.55912304
1.9127105 3.0754437 -0.56128663
2.0148509 3.2396748 -0.55883145
2.1399775 3.4408658 -0.55917776
2.2804749 3.6667712 -0.55935961
2.4291723 3.9058616 -0.55700392
2.6200135 4.2127147 -0.55896866
2.8292513 4.5491476 -0.55856055
3.0648448 4.9279585 -0.55635756
3.3636422 5.4083939 -0.55721897
3.701987 5.9524183 -0.55460614
4.1474853 6.6687331 -0.55571157
4.6829095 7.5296412 -0.5534296
5.3914471 8.6688976 -0.55203146
6.3492312 10.208917 -0.54993182
7.7150335 12.404988 -0.54660714
9.8373861 15.817513 -0.54199171
13.551414 21.789291 -0.53322375
21.812414 35.07214 -0.51492012
1.0866426 1.7960838 -0.56248242
1.1173055 1.8467656 -0.55916983
1.1634767 1.9230807 -0.56238508
1.2065356 1.9942517 -0.56265604
1.2501384 2.0663216 -0.56179041
1.30214 2.1522737 -0.56316304
1.3492558 2.2301502 -0.56083298
1.4092277 2.3292763 -0.56212914
1.4640377 2.4198704 -0.55952555
1.52674 2.5235093 -0.55805814
1.6108814 2.6625848 -0.56206554
1.6878422 2.7897911 -0.56097639
1.7692276 2.9243109 -0.55882001
1.8623508 3.0782318 -0.55757385
1.974334 3.2633259 -0.55868125
2.0996342 3.4704313 -0.55974448
2.2344325 3.6932361 -0.55916315
2.3836977 3.9399529 -0.55764341
2.5601928 4.2316771 -0.5572654
2.7716613 4.5812078 -0.55827016
3.0154872 4.984221 -0.55848104
3.2931316 5.4431329 -0.55658394
3.6326749 6.004355 -0.55524129
4.0515819 6.6967559 -0.55385327
4.5888605 7.5848093 -0.55329525
5.2853026 8.7359409 -0.55212045
6.2204599 10.281638 -0.54968727
7.5613518 12.497964 -0.54656571
9.6460285 15.943674 -0.54220933
13.307197 21.995123 -0.53421611
21.426855 35.415897 -0.51605982
1.0634929 1.8076366 -0.5619626
1.0886997 1.850481 -0.55619931
1.1426183 1.9421273 -0.56380361
1.1803324 2.0062308 -0.56189841
1.2239684 2.0803995 -0.5614835
1.2720631 2.162147 -0.56161118
1.3179692 2.2401743 -0.55923593
1.3711478 2.3305628 -0.55832845
1.4386139 2.4452362 -0.56125796
1.4998007 2.5492363 -0.55962682
1.5679669 2.6650996 -0.55848414
1.6512213 2.8066084 -0.56023288
1.7441148 2.9645009 -0.56235933
1.8342061 3.1176307 -0.56058264
1.9341564 3.287518 -0.55870897
2.0466871 3.4787884 -0.5569911
2.194428 3.7299061 -0.56058723
2.3325548 3.9646826 -0.55704194
2.5192702 4.2820458 -0.55977666
2.7169025 4.6179647 -0.55863601
2.9424424 5.0013185 -0.55630058
3.225194 5.4819164 -0.55645239
3.558624 6.0486526 -0.55524921
3.9769945 6.7597642 -0.55497789
4.5034118 7.6545238 -0.55429935
5.1831326 8.8098574 -0.55272222
6.0942512 10.3585 -0.5497486
7.4138818 12.601499 -0.54706532
9.4622116 16.08308 -0.5429523
13.048438 22.178648 -0.5347361
21.023745 35.734409 -0.516895
1.0403799 1.8191655 -0.56152713
1.0782417 1.8853692 -0.56265801
1.118916 1.9564908 -0.56393653
1.1568824 2.022877 -0.56253386
1.19844 2.0955429 -0.56155086
1.2514483 2.1882312 -0.56434667
1.2959734 2.2660861 -0.56168389
1.3422118 2.3469367 -0.55825496
1.4083346 2.4625561 -0.56121606
1.4741931 2.5777137 -0.56185639
1.5431144 2.6982267 -0.56140733
1.6107368 2.8164685 -0.55820525
1.7003312 2.9731295 -0.5599876
1.7910039 3.1316762 -0.55910593
1.8980166 3.318794 -0.5600155
2.0091519 3.5131207 -0.55849022
2.144603 3.7499647 -0.55959624
2.2920432 4.0077729 -0.55909401
2.4600539 4.3015494 -0.55832958
2.6570334 4.6459794 -0.55803043
2.8864777 5.0471768 -0.55741131
3.1577835 5.5215707 -0.55649406
3.492403 6.1066728 -0.55659103
3.8913643 6.8042803 -0.55466223
4.4054356 7.7031641 -0.55385691
5.0705624 8.8661776 -0.55230212
5.9776521 10.452277 -0.55078286
7.269403 12.71098 -0.54789621
9.2670631 16.204006 -0.54314673
12.783169 22.352125 -0.53508836
20.617319 36.050598 -0.5177623
1.0156837 1.8277713 -0.56028605
1.0562401 1.9007546 -0.56333083
1.0877819 1.9575155 -0.56033409
1.1310173 2.0353196 -0.56208396
1.1695266 2.104619 -0.56008691
1.2175099 2.1909671 -0.56114882
1.2660903 2.2783899 -0.56083226
1.314181 2.3649313 -0.55864918
1.3761803 2.4765022 -0.56049544
1.4310679 2.5752752 -0.55744714
1.5035217 2.7056592 -0.55906481
1.5836648 2.8498805 -0.56092536
1.6658632 2.9978001 -0.56073374
1.7541146 3.1566129 -0.55966479
1.8571966 3.342114 -0.56005472
1.969561 3.5443189 -0.5595575
2.0923841 3.7653449 -0.55800974
2.239809 4.0306435 -0.55840015
2.3971353 4.3137593 -0.55604643
2.5942647 4.6685033 -0.55686206
2.8287604 5.0904894 -0.55831105
3.0881393 5.5572543 -0.55622125
3.4197197 6.1539488 -0.55702519
3.811053 6.8581719 -0.55519325
4.3184199 7.771203 -0.55488896
4.9640727 8.9330864 -0.55262589
5.8479848 10.523727 -0.55071706
7.1098061 12.794436 -0.54768366
9.068656 16.319479 -0.5432384
12.526762 22.542505 -0.53591794
20.216818 36.381126 -0.5188998
0.99576241 1.8449925 -0.56176919
1.027469 1.90374 -0.56042886
1.0586616 1.9615349 -0.55771613
1.1010435 2.0400617 -0.55961233
1.1451437 2.1217728 -0.56086218
1.1862112 2.1978645 -0.55913728
1.2402396 2.2979705 -0.56185567
1.2910612 2.3921349 -0.56128269
1.3502557 2.5018134 -0.56242371
1.4090577 2.6107645 -0.56133628
1.468371 2.7206626 -0.55839193
1.5451115 2.8628507 -0.55969638
1.6265613 3.0137644 -0.55993634
1.718905 3.1848629 -0.56088364
1.8121138 3.3575642 -0.55886751
1.9190159 3.5556371 -0.55757684
2.0467272 3.7922666 -0.55822748
2.1882334 4.0544553 -0.5579291
2.3486094 4.3516073 -0.55716032
2.5446448 4.7148299 -0.55861342
2.7639818 5.1212273 -0.55791253
3.0213795 5.598145 -0.55655336
3.3411474 6.1906252 -0.55658418
3.7262855 6.9042258 -0.55517024
4.2205868 7.8200889 -0.55463195
4.856534 8.9984007 -0.5529303
5.7225652 10.603022 -0.55114251
6.9608316 12.897335 -0.54838306
8.8831148 16.459026 -0.54420638
12.261296 22.718271 -0.53647161
19.795965 36.678837 -0.51963484
0.97313774 1.8573556 -0.56184757
1.0150158 1.9372853 -0.56658697
1.0429567 1.9906138 -0.56229514
1.0810901 2.0633962 -0.56232411
1.119388 2.1364927 -0.56107235
1.1638981 2.2214458 -0.56145298
1.2121556 2.3135514 -0.56197834
1.2615467 2.4078205 -0.56128085
1.3129537 2.5059371 -0.55967897
1.3768232 2.62784 -0.56132513
1.440079 2.7485716 -0.56044322
1.5084401 2.8790476 -0.55919433
1.5933741 3.0411546 -0.5613426
1.673986 3.1950126 -0.55900371
1.774012 3.3859246 -0.55991483
1.8819491 3.5919361 -0.55959785
2.0120249 3.8402023 -0.56159937
2.1455188 4.0949917 -0.55983454
2.305228 4.399817 -0.55966127
2.4841013 4.7412195 -0.55807883
2.7078829 5.1683345 -0.55937469
2.9600935 5.6497102 -0.55801898
3.2647171 6.2311225 -0.55657381
3.6392198 6.9459085 -0.55488163
4.1189575 7.8615479 -0.55393833
4.746099 9.058526 -0.55299699
5.5944357 10.677684 -0.55140597
6.8066459 12.991339 -0.54877973
8.6852331 16.576859 -0.54453009
11.992983 22.890114 -0.5370065
19.376743 36.982948 -0.52052838
0.95074695 1.8702034 -0.56215501
0.9864645 1.9404628 -0.56392604
1.013329 1.9933078 -0.55949414
1.0528032 2.0709569 -0.56081414
1.1004328 2.1646485 -0.56487024
1.1312441 2.2252569 -0.55885828
1.1811163 2.3233602 -0.56079078
1.2362069 2.4317281 -0.56326789
1.2823409 2.5224779 -0.55980921
1.3456715 2.6470549 -0.56185251
1.4012976 2.7564762 -0.55849928
1.4741515 2.8997862 -0.55965936
1.5521812 3.0532777 -0.56001496
1.6329566 3.2121699 -0.55845022
1.7241379 3.3915317 -0.55729407
1.8360935 3.6117582 -0.55912632
1.9557557 3.8471444 -0.55905539
2.0949228 4.1208982 -0.55981219
2.2417984 4.4098153 -0.55738449
2.42397 4.7681637 -0.55769974
2.637177 5.1875601 -0.55790359
2.8868458 5.6786809 -0.55733216
3.1876268 6.2703438 -0.55653393
3.5609877 7.0047774 -0.55604446
4.0314598 7.9302378 -0.55524337
4.6397567 9.126811 -0.55364084
5.4623942 10.745012 -0.55137253
6.6428394 13.067052 -0.54848605
8.4793692 16.679668 -0.5444411
11.731281 23.076468 -0.5379535
18.963192 37.302273 -0.5217014
0.92773497 1.8818635 -0.56218839
0.95698369 1.9411931 -0.5606761
0.99317402 2.0146034 -0.56200111
1.0226114 2.0743155 -0.5582763
1.0635778 2.1574137 -0.55952716
1.1015749 2.2344892 -0.55773288
1.1546189 2.3420861 -0.56184119
1.2041074 2.442471 -0.56228417
1.252998 2.5416431 -0.56060082
1.3065182 2.6502061 -0.55906916
1.3741506 2.7873952 -0.56129789
1.432712 2.906184 -0.55745178
1.5189984 3.0812113 -0.56167006
1.5934553 3.2322438 -0.55849147
1.6952859 3.4388018 -0.56159359
1.7956902 3.6424668 -0.56041962
1.9086287 3.871557 -0.55915016
2.0433049 4.1447411 -0.55959564
2.1932728 4.4489431 -0.55887896
2.3738711 4.8152776 -0.55975389
2.5722358 5.2176509 -0.55769593
2.8208702 5.721993 -0.55813646
3.1106579 6.3098125 -0.55660003
3.4739718 7.0467763 -0.55594534
3.9347224 7.9813857 -0.55539495
4.5359559 9.2009573 -0.55471319
5.3366342 10.825093 -0.55207276
6.4947834 13.17434 -0.54959565
8.2826204 16.800877 -0.54503185
11.451515 23.228821 -0.53818184
18.539886 37.607224 -0.5227384
0.90157664 1.8869548 -0.56035507
0.93050873 1.9475082 -0.55915302
0.97323728 2.036937 -0.56485021
0.99736834 2.0874419 -0.55846614
1.0351037 2.1664202 -0.55851972
1.0798168 2.2600026 -0.56074446
1.1261348 2.3569438 -0.56204104
1.1716946 2.4522982 -0.56118721
1.2221322 2.5578616 -0.560821
1.2769765 2.6726477 -0.56044841
1.3393066 2.8031018 -0.56110197
1.4059749 2.9426351 -0.56108505
1.4812759 3.1002364 -0.56177533
1.5605305 3.2661123 -0.56098551
1.650082 3.4535391 -0.56064433
1.7472861 3.6569822 -0.55930489
1.8620869 3.8972547 -0.55951232
1.9921758 4.1695242 -0.55959207
2.1425331 4.4842143 -0.55995792
2.30638 4.8271379 -0.55779362
2.5140746 5.2618322 -0.55907172
2.7518063 5.7593927 -0.5584417
3.0411611 6.3649979 -0.55812711
3.3944249 7.1043615 -0.55715334
3.8332644 8.02283 -0.55495697
4.4133277 9.2368736 -0.55356497
5.2017775 10.887059 -0.55192924
6.337379 13.263817 -0.55003589
8.0878544 16.927473 -0.5458712
11.181401 23.402113 -0.53897059
18.104702 37.892235 -0.52356601
0.8831163 1.908289 -0.56342316
0.9103511 1.9671395 -0.56153297
0.94313604 2.0379832 -0.56188184
0.9783541 2.1140842 -0.56233293
1.0117824 2.1863182 -0.56039977
1.0491849 2.2671397 -0.55927199
1.0905572 2.3565395 -0.55870467
1.1416345 2.4669101 -0.56127614
1.1871455 2.5652528 -0.55919868
1.2472516 2.6951337 -0.56190515
1.3038375 2.8174078 -0.56071395
1.3638 2.9469783 -0.55867338
1.4431139 3.1183643 -0.56180221
1.520909 3.2864685 -0.5612272
1.6117435 3.4827487 -0.56212634
1.705943 3.6863008 -0.56053829
1.8146762 3.9212575 -0.55971247
1.9438661 4.2004189 -0.56048805
2.0837188 4.5026207 -0.5590145
2.2442775 4.849565 -0.55715418
2.4457588 5.2849379 -0.55828917
2.6831717 5.7979536 -0.55893928
2.9596617 6.3954086 -0.55756032
3.3090241 7.1503315 -0.55752534
3.7406173 8.082943 -0.55589139
4.3065138 9.3057652 -0.55447811
5.0784883 10.973893 -0.55312365
6.1718655 13.336525 -0.54986233
7.8854828 17.03941 -0.54631269
10.909402 23.573669 -0.53979135
17.671972 38.186623 -0.52459145
0.85636866 1.9118203 -0.56131423
0.87838984 1.960982 -0.55664992
0.92200434 2.0583501 -0.56432873
0.94971961 2.1202238 -0.56081724
0.98471129 2.1983418 -0.56033564
1.0255377 2.2894857 -0.5616312
1.0632386 2.373652 -0.55961978
1.1105694 2.4793165 -0.56094939
1.1622744 2.5947466 -0.56247002
1.2120495 2.7058682 -0.56099343
1.2691005 2.8332334 -0.56071538
1.3281317 2.9650187 -0.55895513
1.3974706 3.1198161 -0.55892563
1.476292 3.2957828 -0.55967551
1.5663936 3.496932 -0.56126434
1.657741 3.7008626 -0.55961061
1.7689427 3.9491177 -0.56054199
1.8905686 4.220644 -0.56004244
2.0297763 4.5314217 -0.5594492
2.1882153 4.8851323 -0.5581069
2.379518 5.3122106 -0.5580371
2.6132298 5.8339663 -0.55927098
2.8808813 6.4314914 -0.55757552
3.2161314 7.1799278 -0.55670738
3.6403177 8.1269131 -0.55579484
4.1892085 9.3522968 -0.55413944
4.9419971 11.032877 -0.55299187
6.0199637 13.439408 -0.55101049
7.6867542 17.160475 -0.54712242
10.625607 23.721386 -0.54014111
17.233746 38.473881 -0.52558678
0.82947057 1.9145273 -0.5590722
0.86782777 2.0030608 -0.56552261
0.89529538 2.0664597 -0.56349117
0.92535269 2.1358359 -0.56189454
0.9617998 2.2199607 -0.56278896
0.99519676 2.2970452 -0.56044126
1.0333077 2.3850102 -0.55925977
1.0830907 2.4999158 -0.56255418
1.1301682 2.608577 -0.56241304
1.184528 2.7340465 -0.5637731
1.2372724 2.8557875 -0.56212556
1.2964411 2.9923565 -0.56106108
1.3639413 3.1481562 -0.56095576
1.4369872 3.3167558 -0.56019408
1.5217546 3.5124099 -0.56070286
1.6162859 3.7306006 -0.56105965
1.7187794 3.9671693 -0.56006199
1.8384746 4.2434416 -0.56002539
1.9717323 4.5510178 -0.55883294
2.1326058 4.9223351 -0.5593189
2.3191175 5.3528285 -0.55926597
2.5376728 5.8572831 -0.55847257
2.7998598 6.4624448 -0.5572322
3.130965 7.2266793 -0.55730504
3.5425808 8.1767435 -0.55618155
4.0819345 9.4216423 -0.55523229
4.8097186 11.101464 -0.5534234
5.8472071 13.496124 -0.55034637
7.4791226 17.2628 -0.54741126
10.348603 23.885939 -0.54094958
16.790907 38.755627 -0.52657527
0.81767648 1.9527832 -0.56726456
0.83995807 2.0059962 -0.56339276
0.87117517 2.0805492 -0.56436944
0.8971622 2.1426117 -0.56073248
0.93591779 2.2351682 -0.56368417
0.97019023 2.317018 -0.56236106
1.0174232 2.4298203 -0.56679076
1.0499672 2.5075421 -0.56132257
1.0969549 2.6197586 -0.5618732
1.1490657 2.7442102 -0.56291276
1.1979629 2.8609867 -0.56020707
1.2637722 3.0181534 -0.56294167
1.3244944 3.1631708 -0.56068677
1.3980272 3.3387825 -0.56096846
1.4747196 3.52194 -0.55928713
1.5648285 3.7371392 -0.55910689
1.6707692 3.9901478 -0.56036323
1.7906102 4.2763534 -0.56142062
1.9173232 4.5789704 -0.55932814
2.072108 4.9486289 -0.55936915
2.2504735 5.3746033 -0.55860752
2.4658897 5.8890624 -0.55856937
2.7265418 6.5115547 -0.55853361
3.0407593 7.261972 -0.55710113
3.4436324 8.2241173 -0.55648154
3.9690707 9.4789743 -0.55569273
4.6719842 11.15768 -0.55332011
5.6878681 13.583823 -0.55102885
7.2736096 17.370907 -0.54796183
10.071068 24.051825 -0.54186088
16.346111 39.037949 -0.52764034
0.78430068 1.9396806 -0.56061447
0.81275409 2.0100496 -0.56168187
0.83922982 2.0755277 -0.56016564
0.87655169 2.1678298 -0.56446868
0.90693241 2.2429652 -0.56279552
0.94494641 2.3369792 -0.56434298
0.97779649 2.4182217 -0.56123817
1.017881 2.5173562 -0.56067526
1.0631993 2.6294341 -0.56110191
1.114666 2.7567182 -0.56262439
1.1672403 2.8867414 -0.56239712
1.2210972 3.0199368 -0.56043136
1.2913741 3.1937411 -0.56324822
1.3546335 3.3501897 -0.56004405
1.4297498 3.5359628 -0.55867982
1.5152193 3.7473404 -0.55780339
1.6187572 4.0034032 -0.55938715
1.7381135 4.2985878 -0.56149131
1.8610173 4.6025453 -0.55937016
2.0042808 4.9568548 -0.55747098
2.1843996 5.4023128 -0.55865347
2.3930438 5.9183178 -0.55851096
2.6435132 6.5377617 -0.55795115
2.9549732 7.3080449 -0.55780596
3.3419843 8.2651749 -0.55643702
3.8486335 9.5181856 -0.55517513
4.5366063 11.219635 -0.55358428
5.5296416 13.675544 -0.55194956
7.0669746 17.477575 -0.54854399
9.776721 24.17914 -0.54197979
15.895992 39.312916 -0.52867496
0.76322067 1.9564284 -0.56269997
0.78901404 2.0225468 -0.56242037
0.8140341 2.0866828 -0.56043237
0.84679645 2.1706653 -0.56245327
0.87409586 2.2406442 -0.55947387
0.9088456 2.3297212 -0.55984926
0.94487369 2.422075 -0.55939364
0.98702377 2.530122 -0.56077296
1.0313914 2.6438532 -0.56143004
1.0772611 2.761435 -0.56084114
1.1337625 2.9062696 -0.56344295
1.1829588 3.0323789 -0.55999851
1.2483672 3.2000458 -0.5616104
1.316835 3.3755553 -0.561535
1.3941139 3.5736506 -0.56188345
1.4734265 3.7769592 -0.55947304
1.5717968 4.0291204 -0.56023753
1.6833104 4.3149724 -0.56088543
1.8055532 4.6283278 -0.55976307
1.9537061 5.008101 -0.56049019
2.1215742 5.4384112 -0.55964643
2.3181438 5.9422951 -0.55804151
2.5597045 6.5615082 -0.55724943
2.8595893 7.3302283 -0.55677319
3.2362537 8.295764 -0.55577523
3.7330389 9.5692158 -0.5554322
4.3995981 11.277864 -0.55374616
5.3554664 13.728122 -0.55137205
6.8510189 17.5618 -0.54850191
9.4972639 24.345144 -0.543042
15.446997 39.5966 -0.52989548
0.73532099 1.9555941 -0.55981708
0.76697171 2.0397696 -0.56454444
0.78847224 2.0969505 -0.56054372
0.8204602 2.1820228 -0.56273943
0.84775543 2.2546148 -0.56031698
0.88506556 2.3538413 -0.56298769
0.92409509 2.4576409 -0.56494075
0.95874178 2.5497842 -0.56247538
0.99928766 2.6576164 -0.56170094
1.0417973 2.7706711 -0.5600729
1.0972991 2.9182787 -0.56311274
1.146884 3.0501504 -0.56063366
1.2076315 3.211709 -0.56100881
1.2752439 3.391525 -0.5615406
1.3466154 3.5813384 -0.56044632
1.428648 3.7995048 -0.56016815
1.5207806 4.0445323 -0.55973804
1.626574 4.325891 -0.55966252
1.7500874 4.6543765 -0.5602684
1.8844699 5.0117679 -0.55826503
2.0528235 5.4595065 -0.55917734
2.2457237 5.9725266 -0.55824506
2.4856267 6.6105509 -0.5587765
2.7743065 7.3782983 -0.55779105
3.1390803 8.3484182 -0.55667478
3.6193786 9.6257763 -0.55608988
4.2674589 11.349353 -0.55463785
5.1992273 13.827401 -0.55274999
6.6424718 17.665726 -0.54915524
9.2016926 24.472002 -0.54330677
14.984679 39.851917 -0.5308063
0.71252161 1.9680818 -0.56084138
0.74020135 2.0445371 -0.56330216
0.76479673 2.112473 -0.56213671
0.79301906 2.1904268 -0.56234944
0.81742257 2.2578328 -0.55857646
0.85340428 2.357219 -0.56124318
0.8907063 2.4602523 -0.56298071
0.92716366 2.5609524 -0.56238163
0.96503597 2.665561 -0.56082958
1.0131296 2.7984023 -0.56311768
1.0586652 2.9241774 -0.56169653
1.1108465 3.0683095 -0.56141829
1.1670367 3.2235143 -0.56052184
1.2356949 3.4131577 -0.56256402
1.3043742 3.6028595 -0.56126177
1.3801914 3.8122771 -0.55950671
1.4751978 4.0746975 -0.56135982
1.5762115 4.3537107 -0.5607118
1.6911539 4.6711974 -0.5597477
1.8359129 5.0710416 -0.5623104
1.9807178 5.4710126 -0.55781907
2.1764979 6.0117836 -0.55937058
2.4011562 6.6323204 -0.55807865
2.6840897 7.4138217 -0.55793923
3.0387485 8.3934374 -0.55714297
3.5048869 9.680975 -0.55674684
4.1258512 11.396163 -0.5544042
5.0321202 13.899402 -0.5531128
6.4306507 17.762335 -0.54965878
8.915657 24.626261 -0.54425639
14.524579 40.118866 -0.53194284
0.68913496 1.9791806 -0.56154692
0.71695459 2.059078 -0.56483674
0.73990381 2.1249876 -0.56300324
0.76356751 2.1929493 -0.56054419
0.79506171 2.2833998 -0.56244051
0.83176249 2.3888037 -0.56628537
0.85918796 2.4675691 -0.562195
0.89710289 2.5764599 -0.56332201
0.9337092 2.6815925 -0.56174451
0.97398108 2.7972524 -0.56043392
1.0231662 2.9385111 -0.56199062
1.0755842 3.0890543 -0.56275153
1.1226847 3.2243261 -0.55822033
1.1924642 3.4247315 -0.56201231
1.2557292 3.606427 -0.5593698
1.3357124 3.8361371 -0.56055564
1.4221702 4.0844417 -0.5602507
1.5211003 4.368567 -0.56017387
1.6322304 4.6877303 -0.55928147
1.7665769 5.0735703 -0.56013972
1.9218767 5.5195875 -0.56031984
2.1022885 6.0377269 -0.55933684
2.3212066 6.6664543 -0.55850691
2.5905454 7.43999 -0.55746919
2.9367428 8.4342613 -0.55741364
3.3836105 9.7176552 -0.55642152
3.9873452 11.451569 -0.55467242
4.8595853 13.956624 -0.55297017
6.2126942 17.842722 -0.54974079
8.6195183 24.75507 -0.54471952
14.052629 40.358845 -0.53279334
0.67067593 2.0052288 -0.56655478
0.68973005 2.0621979 -0.5633235
0.70936924 2.1209161 -0.55957121
0.74058932 2.2142601 -0.5636211
0.7667349 2.2924318 -0.56230044
0.79651511 2.3814704 -0.56218261
0.82810694 2.4759257 -0.56173646
0.86654431 2.590848 -0.56409544
0.89775378 2.6841602 -0.55992752
0.94038939 2.8116348 -0.56095624
0.98564786 2.9469512 -0.56124443
1.0362457 3.098232 -0.56205964
1.0936277 3.2697961 -0.5637216
1.1469245 3.4291463 -0.5603801
1.216387 3.6368296 -0.56172299
1.2838231 3.8384542 -0.55854517
1.3746656 4.1100607 -0.56140369
1.470165 4.3955908 -0.56127852
1.5807512 4.7262282 -0.56151307
1.7011889 5.0863204 -0.55919558
1.8514431 5.5355597 -0.55958784
2.0268071 6.0598741 -0.55903751
2.2413924 6.7014546 -0.55908787
2.5023315 7.481626 -0.55824119
2.8370202 8.4822989 -0.55824065
3.2637651 9.7582083 -0.55640346
3.8491554 11.508445 -0.55509281
4.6942844 14.035264 -0.55375707
6.000598 17.940962 -0.55045259
8.3298597 24.905134 -0.54572648
13.584679 40.616318 -0.53394675
0.64428931 2.0080855 -0.56508082
0.66522753 2.0733447 -0.56409132
0.69081146 2.1530831 -0.56577402
0.71023029 2.2136068 -0.56118941
0.73596132 2.2938039 -0.56037486
0.76702917 2.3906343 -0.56207693
0.79677618 2.4833481 -0.5611552
0.83495402 2.6023388 -0.56431925
0.86760467 2.7041025 -0.56181967
0.90645099 2.8251767 -0.56139183
0.94909716 2.9580939 -0.5611015
1.0021161 3.1233401 -0.56433648
1.0470885 3.2635078 -0.56037539
1.1075915 3.4520802 -0.56185979
1.1693631 3.6446068 -0.5606609
1.2432632 3.8749344 -0.5615865
1.3212712 4.1180654 -0.56023556
1.4157114 4.4124117 -0.5611611
1.5172507 4.7288837 -0.55956966
1.6446749 5.1260324 -0.56129569
1.7882859 5.5736313 -0.56117111
1.9504385 6.0790195 -0.55854899
2.1571398 6.7232552 -0.55865151
2.4115217 7.516098 -0.55855852
2.7299457 8.5085449 -0.55771655
3.1428514 9.7954664 -0.55628228
3.7109571 11.566107 -0.55563104
4.5209637 14.090691 -0.55370867
5.7877545 18.038956 -0.55123395
8.0297537 25.026695 -0.54618531
13.113057 40.870056 -0.53512222
0.61297339 1.9944566 -0.55908227
0.64344525 2.0936043 -0.56740773
0.65801269 2.1410029 -0.56043112
0.68351471 2.2239799 -0.56164593
0.71224701 2.3174672 -0.56397355
0.73606473 2.394964 -0.56092441
0.76371193 2.484921 -0.5593462
0.79878598 2.5990427 -0.56143206
0.83767557 2.7255795 -0.56409907
0.87131137 2.8350215 -0.56117672
0.91445333 2.9753942 -0.5622077
0.95920372 3.1210005 -0.56174016
1.0116574 3.2916713 -0.56303269
1.0647253 3.4643402 -0.56168181
1.128451 3.6716876 -0.56264967
1.193548 3.883496 -0.56065792
1.2742423 4.1460543 -0.56186914
1.3628622 4.434401 -0.56178385
1.4609905 4.753685 -0.56033623
1.5769281 5.1309156 -0.55966485
1.7121621 5.5709324 -0.55873746
1.8751388 6.1012158 -0.55842763
2.0773299 6.7590938 -0.55946463
2.3197453 7.5478501 -0.55875611
2.6269786 8.5475082 -0.55811095
3.026345 9.8469429 -0.55705017
3.5721591 11.622881 -0.55620629
4.3533168 14.164565 -0.55446625
5.5703073 18.124338 -0.55170822
7.7364407 25.172375 -0.54724711
12.639702 41.126316 -0.53640193
0.59415025 2.0213921 -0.56454206
0.61246121 2.0836887 -0.56263685
0.63385141 2.1564615 -0.56239486
0.65454197 2.2268541 -0.56029683
0.68058145 2.3154442 -0.5614022
0.70843524 2.4102073 -0.56241179
0.73730713 2.5084341 -0.56255567
0.7688998 2.6159172 -0.56299233
0.8034597 2.7334955 -0.56365001
0.83957618 2.8563693 -0.56331623
0.87800008 2.9870934 -0.56233579
0.9200331 3.1300964 -0.56129861
0.96532911 3.2842004 -0.55968219
1.0202363 3.4710031 -0.56068569
1.0827268 3.6836057 -0.56239331
1.147862 3.9052057 -0.56171197
1.2204847 4.1522794 -0.56063658
1.306722 4.4456725 -0.5611338
1.4046745 4.7789221 -0.56123263
1.5127141 5.1464896 -0.55929238
1.6464444 5.6014614 -0.55972648
1.8017168 6.1297221 -0.55896664
1.9959677 6.7905941 -0.55999815
2.2243395 7.5675507 -0.55814749
2.5298967 8.6071033 -0.55992866
2.9045687 9.8817959 -0.55695927
3.4275839 11.661176 -0.55597991
4.1798153 14.220384 -0.55459738
5.3507299 18.20402 -0.55208921
7.4301176 25.278421 -0.54752493
12.156531 41.358421 -0.53743893
0.56778997 2.0233374 -0.56309289
0.58793229 2.0951152 -0.5637275
0.6072883 2.1640909 -0.56239462
0.62682772 2.2337203 -0.56004274
0.65173942 2.3224938 -0.56112593
0.68002534 2.4232914 -0.56347114
0.7069571 2.5192637 -0.56299227
0.73629099 2.623796 -0.56269687
0.76693106 2.7329829 -0.56155729
0.8050648 2.8688736 -0.56378734
0.83944637 2.9913933 -0.56115961
0.88009125 3.1362326 -0.56041598
0.92929363 3.3115668 -0.562356
0.97441971 3.4723752 -0.55892962
1.0342203 3.6854765 -0.56069499
1.0974246 3.910707 -0.56051987
1.169935 4.1690998 -0.56092286
1.2499728 4.4543171 -0.56024253
1.3432591 4.7867455 -0.56016934
1.4522041 5.1749749 -0.56040502
1.5744427 5.6105762 -0.55866051
1.7320664 6.1722727 -0.5608623
1.9114441 6.8114905 -0.55974078
2.1371093 7.6156554 -0.55971497
2.4141061 8.6027422 -0.55767167
2.7878704 9.9346628 -0.55796462
3.2892568 11.72137 -0.55687934
4.0059814 14.275439 -0.5547815
5.127171 18.270834 -0.55216175
7.1294222 25.40592 -0.54834622
11.67013 41.586876 -0.53850216
0.53965133 2.0181324 -0.55975533
0.56290931 2.1051102 -0.56451172
0.57896048 2.1651368 -0.56077391
0.60424733 2.259702 -0.56465131
0.61901104 2.3149137 -0.5574134
0.6469382 2.4193528 -0.56066316
0.67740834 2.5333021 -0.56422532
0.7013256 2.6227453 -0.56057966
0.73369658 2.743803 -0.56188428
0.76314485 2.8539305 -0.55896431
0.80533499 3.0117087 -0.56307036
0.84266531 3.1513131 -0.56121671
0.88515705 3.3102193 -0.56023645
0.93305427 3.4893403 -0.5597713
0.9908458 3.7054632 -0.56183958
1.0477661 3.9183278 -0.5597232
1.1188992 4.1843443 -0.56108034
1.2000958 4.4879942 -0.56257975
1.286271 4.8102636 -0.56102812
1.3938032 5.2124014 -0.56255949
1.5096294 5.6455564 -0.56025285
1.6541955 6.1861901 -0.56023628
1.8282409 6.8370671 -0.5599528
2.0410779 7.6330128 -0.55910379
2.3091552 8.635541 -0.55791497
2.6649532 9.9661179 -0.55784863
3.1470039 11.768842 -0.55725408
3.8347161 14.340676 -0.55544227
4.9119668 18.369268 -0.55326939
6.8237844 25.518885 -0.54893184
11.180293 41.810909 -0.53958219
0.51692432 2.0329838 -0.562069
0.53367335 2.0988548 -0.56103212
0.55216646 2.1715856 -0.5606432
0.57209033 2.249943 -0.56041259
0.59503061 2.3401637 -0.56168908
0.62089604 2.4418883 -0.56407362
0.64616621 2.5412722 -0.56418812
0.6713295 2.6402354 -0.56251109
0.70212108 2.7613337 -0.56366372
0.73481238 2.8899038 -0.5641976
0.76440066 3.0062697 -0.5602538
0.80417174 3.1626832 -0.5614382
0.85093409 3.3465924 -0.56457889
0.8949815 3.5198243 -0.56285357
0.94639313 3.7220182 -0.56254268
1.005424 3.9541776 -0.56303561
1.0710728 4.2123637 -0.56302893
1.1405442 4.4855843 -0.5604772
1.2289451 4.833252 -0.56190431
1.325473 5.2128806 -0.56080973
1.4427577 5.6741438 -0.56128681
1.5803512 6.2152777 -0.56106818
1.7439414 6.8586526 -0.55992204
1.9479626 7.6610365 -0.55935967
2.2087166 8.6865416 -0.55941296
2.5467169 10.015845 -0.55883694
3.0034521 11.812114 -0.55751216
3.6590691 14.390554 -0.55558944
4.6913204 18.450239 -0.55392885
6.5205946 25.644491 -0.54986745
10.68924 42.039135 -0.54079032
0.49556553 2.0544288 -0.56627047
0.50851911 2.1081295 -0.56179732
0.52882284 2.1923013 -0.56426996
0.54560417 2.2618704 -0.56166995
0.56522429 2.3432081 -0.56070918
0.58996618 2.4457786 -0.56325388
0.61250144 2.5392013 -0.5620138
0.63718969 2.6415493 -0.56107932
0.6691699 2.7741275 -0.5645529
0.69689119 2.8890495 -0.56231534
0.73080307 3.0296357 -0.56289107
0.76643014 3.1773322 -0.56232309
0.80679548 3.3446715 -0.56253862
0.84646076 3.5091088 -0.5594334
0.90201485 3.7394154 -0.56345314
0.95365024 3.9534764 -0.56122363
1.0193769 4.2259541 -0.5631274
1.0853412 4.4994178 -0.56049579
1.1680313 4.8422198 -0.56123471
1.2643626 5.2415729 -0.56218141
1.3754696 5.7021813 -0.56234467
1.5017214 6.225574 -0.56028831
1.6603757 6.8832951 -0.56022471
1.8559079 7.6938982 -0.56005043
2.0989506 8.7014627 -0.55866951
2.4233973 10.046496 -0.55884224
2.8585882 11.850636 -0.55762911
3.4890909 14.464463 -0.5567444
4.466002 18.51437 -0.55416358
6.2126069 25.75514 -0.5505603
10.195415 42.266369 -0.54205972
0.46758085 2.0485947 -0.56303507
0.48264924 2.1146133 -0.56190115
0.50016999 2.1913764 -0.56240636
0.51859909 2.2721193 -0.56258887
0.53737301 2.3543727 -0.56175715
0.55795372 2.4445422 -0.56134671
0.58237547 2.5515404 -0.56311727
0.60647303 2.6571181 -0.56275964
0.63528848 2.7833662 -0.56480062
0.66461533 2.911855 -0.56512076
0.68996793 3.0229313 -0.56002676
0.72590423 3.1803777 -0.56123996
0.7641691 3.348026 -0.56147993
0.80780345 3.5391996 -0.56260443
0.85483676 3.745265 -0.56270814
0.90493953 3.9647782 -0.56120592
0.96692139 4.2363372 -0.56288409
1.0326114 4.5241423 -0.56195152
1.1097057 4.8619132 -0.56189317
1.1956925 5.2386441 -0.56024802
1.3017265 5.7032061 -0.56082481
1.4241428 6.2395449 -0.55992728
1.5766909 6.9078979 -0.56060672
1.7643217 7.7299576 -0.56105363
1.9928881 8.7313671 -0.55897391
2.2994442 10.074471 -0.55878329
2.7142637 11.891904 -0.5579583
3.3101509 14.502643 -0.55660522
4.2407436 18.579815 -0.55451971
5.9026227 25.860945 -0.55122882
9.694521 42.474251 -0.54315591
0.44344848 2.059258 -0.56442446
0.45620692 2.1185048 -0.56140214
0.47966552 2.2274404 -0.5701052
0.48898005 2.2706947 -0.56070495
0.51039606 2.3701451 -0.56398034
0.52988434 2.4606435 -0.56350529
0.55306929 2.5683084 -0.56527424
0.57315975 2.661603 -0.56217432
0.59864336 2.779942 -0.5625695
0.62670273 2.9102423 -0.56326962
0.65555072 3.044205 -0.56243205
0.68655527 3.1881819 -0.56108493
0.72618073 3.3721921 -0.56399256
0.76547915 3.5546837 -0.56352693
0.80982965 3.7606356 -0.56347877
0.85460019 3.9685383 -0.56020838
0.9128927 4.2392335 -0.56173491
0.97630703 4.5337129 -0.56160665
1.0481957 4.8675451 -0.56101209
1.1337864 5.2650056 -0.56153381
1.2327586 5.724607 -0.56139618
1.3482379 6.2608619 -0.56031018
1.4884746 6.9120841 -0.55941886
1.6676466 7.7441125 -0.56055027
1.8871347 8.7633572 -0.55949402
2.1765819 10.107472 -0.55908698
2.5674675 11.922644 -0.55787712
3.1342528 14.554646 -0.55707973
4.0175481 18.656435 -0.55529004
5.5904307 25.960487 -0.55184364
9.1933861 42.691666 -0.54444945
0.4174037 2.0611398 -0.56349081
0.43242761 2.1353281 -0.56440848
0.4446519 2.1956916 -0.5605374
0.46119219 2.2773674 -0.56090993
0.47866577 2.363652 -0.56099236
0.49941736 2.4661233 -0.56331128
0.52295685 2.5823612 -0.56690907
0.54231769 2.6779652 -0.56417912
0.56739837 2.8018136 -0.56554097
0.59191525 2.922878 -0.56426382
0.61916465 3.0574358 -0.56342721
0.64738423 3.1967838 -0.56115538
0.68344033 3.3748291 -0.56298548
0.71893752 3.5501139 -0.56135863
0.76220113 3.7637498 -0.56249851
0.80997956 3.9996798 -0.56315583
0.86150652 4.2541203 -0.56226134
0.92308259 4.5581827 -0.56318921
0.98931527 4.8852396 -0.56160694
1.0678478 5.2730341 -0.56094718
1.1599555 5.7278614 -0.56027418
1.2711409 6.276895 -0.56030387
1.4073275 6.9493847 -0.56099474
1.5696493 7.7509298 -0.55960435
1.7809975 8.7945671 -0.56004608
2.0520236 10.132895 -0.55905521
2.4243116 11.971253 -0.55871457
2.9575448 14.60436 -0.55754846
3.7905369 18.717674 -0.55568349
5.2783117 26.064308 -0.55262911
8.6833792 42.878532 -0.54542959
0.39308769 2.0716941 -0.5650121
0.40487915 2.1338389 -0.5626564
0.41856232 2.2059534 -0.56180078
0.43647966 2.3003833 -0.56521404
0.45086008 2.3761725 -0.56260562
0.4675357 2.4640584 -0.56148392
0.48973975 2.5810807 -0.56526315
0.50553697 2.6643369 -0.55995601
0.53211212 2.8043962 -0.56469882
0.55702722 2.9357064 -0.56537527
0.58117133 3.0629535 -0.56308454
0.60751688 3.2018027 -0.56068271
0.63818657 3.3634412 -0.5597344
0.67543322 3.5597427 -0.5615254
0.71509862 3.7687917 -0.56189537
0.75975323 4.0041356 -0.56242526
0.80962658 4.2669835 -0.56260312
0.86619318 4.5651069 -0.5626862
0.93197322 4.911788 -0.56329894
1.0047983 5.2955995 -0.56199086
1.0914236 5.7521415 -0.56129402
1.1975405 6.3114104 -0.56202787
1.3193099 6.9531732 -0.55994856
1.475369 7.7756529 -0.56003714
1.6718458 8.8111458 -0.55975038
1.931017 10.17706 -0.56013948
2.2796693 12.014565 -0.55938542
2.7790899 14.646667 -0.5578168
3.562228 18.774048 -0.5560146
4.963644 26.159946 -0.55332094
8.1745834 43.082596 -0.54670537
0.36772054 2.0771344 -0.56521988
0.37851807 2.1381261 -0.56251705
0.39258704 2.217597 -0.56349409
0.4077971 2.3035138 -0.56470847
0.42378378 2.3938174 -0.56550682
0.43587038 2.4620907 -0.55977196
0.45384565 2.5636272 -0.56017625
0.47218147 2.6672003 -0.55929524
0.49567756 2.7999222 -0.56252807
0.51791674 2.925544 -0.56214917
0.54365617 3.0709379 -0.56328088
0.57164824 3.2290556 -0.56418151
0.60144889 3.3973901 -0.56411064
0.63124275 3.565686 -0.56119609
0.66922247 3.780221 -0.56233001
0.71189547 4.0212669 -0.56355941
0.7574544 4.2786145 -0.56286609
0.80778563 4.5629196 -0.56114984
0.86653191 4.8947587 -0.5600816
0.94072837 5.31387 -0.56265968
1.0209748 5.7671561 -0.56149161
1.1192888 6.3225002 -0.56174737
1.2334634 6.9674354 -0.55983341
1.384119 7.8184404 -0.56185061
1.5678942 8.8565273 -0.56136608
1.805486 10.198606 -0.5600611
2.1328642 12.04786 -0.55967218
2.6011574 14.693096 -0.55832475
3.3338253 18.831701 -0.55646592
4.6453142 26.239878 -0.55376154
7.656189 43.247334 -0.5475598
0.34164044 2.0783789 -0.56437272
0.35159397 2.1389315 -0.56154907
0.36476678 2.2190688 -0.56268573
0.38067386 2.3158398 -0.56653976
0.3932704 2.3924711 -0.56400377
0.40733296 2.4780211 -0.56221253
0.42458656 2.582984 -0.56322253
0.44272327 2.6933191 -0.56358802
0.46219194 2.8117573 -0.56372142
0.47825065 2.9094508 -0.55788469
0.50531334 3.0740874 -0.56267625
0.52962708 3.2220008 -0.56176853
0.55822068 3.3959506 -0.56268936
0.58883452 3.5821908 -0.56261164
0.62430745 3.7979915 -0.56378889
0.66073298 4.019587 -0.56214285
0.70373833 4.2812114 -0.5620268
0.75122702 4.5701103 -0.56085569
0.80681145 4.9082594 -0.56044888
0.87586129 5.3283262 -0.56300741
0.95163435 5.7892938 -0.56246513
1.0429516 6.3448248 -0.56254888
1.1511331 7.0029497 -0.56150717
1.286908 7.8289399 -0.56142551
1.4596041 8.8795414 -0.56164479
1.6826917 10.236701 -0.56097442
1.9865749 12.085382 -0.56023812
2.421993 14.734261 -0.55871499
3.1061704 18.896471 -0.55720913
4.331738 26.352245 -0.55496687
7.1419864 43.448471 -0.548953
0.31503421 2.075665 -0.56254131
0.32718009 2.1556904 -0.56484997
0.3385146 2.23037 -0.56445324
0.34872961 2.2976737 -0.56100428
0.36384362 2.3972557 -0.56403428
0.37831908 2.49263 -0.56442887
0.39244309 2.5856886 -0.5627175
0.41112807 2.7087984 -0.56572652
0.42553329 2.80371 -0.56101656
0.44532773 2.9341297 -0.56152433
0.4672792 3.0787611 -0.56243753
0.4918409 3.2405908 -0.56391269
0.51525402 3.3948529 -0.5614152
0.5458411 3.5963817 -0.56374365
0.57521731 3.7899325 -0.56150019
0.61102623 4.0258665 -0.5619278
0.65367424 4.3068619 -0.56429625
0.69732249 4.5944467 -0.56274754
0.74952173 4.9383717 -0.5627923
0.80812937 5.3245201 -0.56151277
0.87879014 5.790082 -0.56144941
0.96345252 6.3478971 -0.56172842
1.0650866 7.0175333 -0.56158394
1.1894064 7.8366385 -0.56088632
1.3484687 8.8846521 -0.56087679
1.554065 10.239264 -0.56002533
1.8393823 12.119133 -0.5607118
2.2415237 14.768721 -0.55893433
2.8758123 18.947857 -0.55763942
4.0120301 26.434052 -0.55560875
6.6220131 43.63044 -0.55018175
0.29118329 2.091552 -0.56583381
0.29896122 2.1474202 -0.56167722
0.30792147 2.2117813 -0.55874836
0.32226864 2.3148358 -0.56418437
0.33404803 2.3994467 -0.56354076
0.34513953 2.4791162 -0.56036544
0.36055025 2.5898106 -0.56260717
0.37441149 2.6893752 -0.56066608
0.39191324 2.8150887 -0.56228662
0.41188067 2.9585137 -0.56517893
0.42791298 3.073673 -0.56050438
0.45091248 3.2388768 -0.56260705
0.47486433 3.4109216 -0.56306434
0.49800012 3.5771046 -0.55971968
0.53089827 3.81341 -0.56396866
0.56306696 4.0444756 -0.5635162
0.59959966 4.3068876 -0.56329107
0.64040476 4.5999885 -0.56241924
0.68937278 4.9517226 -0.5633052
0.74241871 5.3327484 -0.56137538
0.80933237 5.813385 -0.56270152
0.88606203 6.3645296 -0.56219363
0.98036838 7.0419264 -0.56252879
1.0952591 7.8671794 -0.56206578
1.2412227 8.9156275 -0.56182629
1.4300874 10.272231 -0.56082428
1.6902437 12.140918 -0.56071573
2.0623732 14.813901 -0.55964208
2.6459346 19.005587 -0.5583387
3.6918116 26.518059 -0.55637825
6.1000414 43.816227 -0.55153692
0.26424068 2.0854728 -0.56326765
0.27463388 2.1674995 -0.56600308
0.28304696 2.2338982 -0.5634138
0.29362571 2.3173892 -0.56388408
0.30548361 2.4109755 -0.56532347
0.31633499 2.4966183 -0.56339967
0.33077708 2.6105998 -0.56619698
0.34367216 2.7123718 -0.56453663
0.35788891 2.8245752 -0.56325984
0.37461722 2.9566002 -0.56389076
0.39241958 3.0971022 -0.56385428
0.41095644 3.2434011 -0.56247264
0.43384835 3.4240716 -0.56431174
0.45681471 3.6053293 -0.5632146
0.4832443 3.8139203 -0.56312275
0.51321453 4.0504551 -0.56342745
0.54531986 4.3038411 -0.56197309
0.58441031 4.6123552 -0.5630101
0.62939316 4.9673748 -0.56416267
0.67650723 5.3392138 -0.56113786
0.73876053 5.8305373 -0.56343985
0.8072961 6.3714423 -0.56188488
0.89488399 7.0627141 -0.56326771
0.99933624 7.887085 -0.56256747
1.131323 8.9287672 -0.56173515
1.3034847 10.287523 -0.56074166
1.5424469 12.17349 -0.56130159
1.8810734 14.84604 -0.5599401
2.4149926 19.059902 -0.55901968
3.3695107 26.593269 -0.5570448
5.5716901 43.973583 -0.5526135
0.23577756 2.0640428 -0.55665439
0.24780945 2.1693723 -0.56565362
0.25503302 2.2326086 -0.56225514
0.26656085 2.3335257 -0.56697011
0.27513143 2.4085541 -0.56391978
0.28509584 2.4957843 -0.56237793
0.2966834 2.5972242 -0.56246233
0.30945492 2.7090287 -0.56300628
0.32227859 2.8212895 -0.56177187
0.33711776 2.9511945 -0.56202668
0.35409492 3.0998158 -0.56351304
0.3723934 3.2600045 -0.56451517
0.39045215 3.4180942 -0.56249285
0.41201597 3.606868 -0.56262094
0.43503383 3.8083708 -0.5614711
0.46392092 4.061254 -0.56409347
0.49274471 4.3135834 -0.56241149
0.52896488 4.6306615 -0.564408
0.56638503 4.9582448 -0.56229222
0.61119485 5.3505192 -0.56149369
0.66554272 5.8262906 -0.56219608
0.73140866 6.402894 -0.56382275
0.80665529 7.0616174 -0.5623467
0.90196186 7.8959498 -0.56236619
1.0203823 8.9326258 -0.56114614
1.1777257 10.31004 -0.5611372
1.3929837 12.19445 -0.56143588
1.7010986 14.891748 -0.56083274
2.1832983 19.11302 -0.55974787
3.0448654 26.655344 -0.55751866
5.0409694 44.129627 -0.55375367
0.21368881 2.0992794 -0.56540602
0.22057384 2.166918 -0.56426382
0.2275839 2.2357848 -0.56230778
0.23758158 2.334002 -0.56633323
0.24394551 2.3965213 -0.56035787
0.25543448 2.5093889 -0.56469303
0.26577684 2.6109924 -0.56469351
0.27595934 2.7110252 -0.56267345
0.28722593 2.8217082 -0.5611096
0.30037457 2.9508805 -0.561221
0.3151679 3.0962105 -0.5621106
0.33213568 3.2629018 -0.56426704
0.34948304 3.4333224 -0.56424904
0.36961004 3.6310501 -0.56564134
0.38970089 3.8284225 -0.56367826
0.41351753 4.0623975 -0.56350338
0.44042447 4.3267312 -0.56337708
0.47078457 4.624989 -0.56296849
0.50625175 4.9734182 -0.56326449
0.54688096 5.37256 -0.5630585
0.59395748 5.8350401 -0.56229311
0.64998204 6.3854251 -0.56153828
0.72094375 7.0825534 -0.56326538
0.80416906 7.9001594 -0.56191921
0.91276002 8.9669571 -0.56255519
1.0532622 10.347252 -0.56241506
1.2432657 12.213845 -0.56158251
1.5193168 14.925773 -0.56136811
1.9490083 19.147064 -0.56000072
2.7200131 26.721416 -0.55815887
4.5090265 44.296692 -0.5551123
0.18770005 2.0999489 -0.56492198
0.1934633 2.1644268 -0.56295311
0.20078598 2.2463515 -0.56430167
0.20718782 2.3179741 -0.56178343
0.21555555 2.4115903 -0.56321901
0.22423401 2.5086832 -0.56387109
0.23291828 2.6058409 -0.56291741
0.2425846 2.7139857 -0.56262624
0.25335601 2.8344941 -0.56299007
0.2656928 2.9725153 -0.56467164
0.27805972 3.1108742 -0.56410939
0.29088274 3.2543352 -0.56212455
0.30639347 3.427866 -0.56269056
0.32400656 3.6249175 -0.56402272
0.34358388 3.8439445 -0.56529886
0.36294657 4.0605702 -0.56258839
0.38713789 4.3312178 -0.56329882
0.41275272 4.6177912 -0.56143212
0.44482177 4.976573 -0.56295973
0.48061243 5.3769913 -0.56286097
0.52436429 5.8664784 -0.56465864
0.57199728 6.3993859 -0.56210494
0.63341755 7.0865426 -0.56292069
0.70900989 7.9322543 -0.56353939
0.8011964 8.9636183 -0.5616852
0.9256919 10.356447 -0.56225371
1.0922253 12.219589 -0.56118661
1.3354646 14.940898 -0.56127691
1.7151359 19.188581 -0.56055576
2.3967285 26.814096 -0.55943686
3.9734387 44.454002 -0.55642933
0.16172764 2.1003032 -0.56443959
0.16723873 2.1718738 -0.56431246
0.17191894 2.2326541 -0.56028736
0.17917576 2.3268962 -0.56336927
0.18583626 2.4133937 -0.56306392
0.19349311 2.5128307 -0.56422591
0.20031604 2.6014378 -0.56139171
0.20870982 2.7104449 -0.5613178
0.21936263 2.8487897 -0.56525093
0.22863603 2.9692202 -0.56346899
0.23929016 3.1075819 -0.56293625
0.25133148 3.2639585 -0.56321037
0.26478896 3.4387262 -0.56389618
0.27929294 3.6270847 -0.56378293
0.29507247 3.8320079 -0.5629673
0.31320858 4.0675359 -0.56297725
0.33374536 4.3342404 -0.5631156
0.35693246 4.6353631 -0.56299233
0.38395083 4.9862418 -0.5634768
0.4146463 5.3848734 -0.56310976
0.45099702 5.8569484 -0.56316501
0.4942607 6.4187994 -0.56323373
0.54624373 7.0938854 -0.56292778
0.61099291 7.934762 -0.56314117
0.69161439 8.9817657 -0.56224698
0.79713613 10.352141 -0.56144536
0.9434517 12.252294 -0.56211334
1.1520448 14.961222 -0.5614658
1.4803141 19.224348 -0.56102645
2.0681818 26.858789 -0.55979639
3.433075 44.584206 -0.55748856
0.13513072 2.0903711 -0.5612815
0.14042215 2.1722255 -0.56391257
0.14563966 2.2529364 -0.56488514
0.1516151 2.3453722 -0.56734824
0.15693608 2.4276838 -0.56590492
0.16225146 2.5099087 -0.56307918
0.16936857 2.6200051 -0.56490636
0.17616376 2.7251217 -0.56386602
0.18385902 2.8441615 -0.56384146
0.19256543 2.978843 -0.56480312
0.20092539 3.1081655 -0.56255186
0.21084452 3.2616069 -0.56231469
0.22214796 3.4364626 -0.56303447
0.23449397 3.6274462 -0.56334835
0.24805407 3.8372109 -0.563241
0.26329076 4.0729113 -0.56323057
0.27936208 4.3215222 -0.56097454
0.30073768 4.6521869 -0.56454384
0.32269266 4.9918137 -0.56361544
0.34933251 5.4039125 -0.56460881
0.37786028 5.8452158 -0.56154764
0.41521159 6.4230123 -0.56311285
0.45919997 7.1034799 -0.56319851
0.51455438 7.9597712 -0.5644244
0.58103842 8.9882288 -0.5621618
0.67135054 10.385291 -0.5627529
0.79291463 12.265796 -0.56224298
0.96906757 14.990749 -0.56208426
1.2450914 19.260633 -0.5615961
1.7407254 26.927719 -0.56074452
2.8897223 44.701843 -0.55847299
0.11048137 2.1121993 -0.56673491
0.11353216 2.1705248 -0.56306607
0.1169597 2.236053 -0.56024897
0.12152435 2.3233206 -0.56160998
0.12624624 2.4135945 -0.56221622
0.13153507 2.5147069 -0.56375021
0.13686518 2.6166089 -0.56376863
0.14298913 2.7336876 -0.56523186
0.14917994 2.8520443 -0.56499779
0.15588154 2.9801664 -0.56464791
0.16303229 3.1168756 -0.56372285
0.17083409 3.2660317 -0.56267285
0.18006583 3.4425254 -0.56362242
0.19004449 3.6332989 -0.56385171
0.20124196 3.8473737 -0.56432682
0.21385245 4.0884628 -0.56497484
0.22703876 4.3405609 -0.56304097
0.24294777 4.644712 -0.56323165
0.26136434 4.9968028 -0.56377327
0.28211418 5.3935013 -0.56311601
0.30658379 5.8613148 -0.56268954
0.33593863 6.4225249 -0.5626654
0.37204614 7.112834 -0.5635348
0.41622522 7.9574556 -0.56385469
0.47098535 9.0043678 -0.56276643
0.54378629 10.396187 -0.56293845
0.64290196 12.291096 -0.5629977
0.78501087 15.007955 -0.56232488
1.0091575 19.293224 -0.56214207
1.4110399 26.976471 -0.56135601
2.3468649 44.867714 -0.56014234
0.08396703 2.100009 -0.56314445
0.087394044 2.1857183 -0.56668586
0.090330578 2.2591608 -0.56571758
0.093261108 2.332453 -0.56349778
0.096686654 2.4181256 -0.56295222
0.10067194 2.5177975 -0.56412286
0.10465369 2.6173806 -0.56361502
0.10925933 2.7325673 -0.56467974
0.11366863 2.8428435 -0.56285566
0.1192696 2.9829235 -0.56484967
0.12444763 3.1124253 -0.56259871
0.13057742 3.2657311 -0.56230193
0.13867782 3.4683213 -0.56752372
0.14518854 3.6311541 -0.56319922
0.15387657 3.8484411 -0.56416321
0.16330339 4.0842047 -0.56406629
0.17390867 4.349442 -0.56387299
0.18659279 4.6666708 -0.56557351
0.19996709 5.0011611 -0.56394494
0.21619108 5.4069223 -0.56419706
0.23503771 5.8782749 -0.56399769
0.25789168 6.4498506 -0.56473887
0.28452849 7.1160359 -0.56346869
0.31810483 7.9557772 -0.563416
0.36028564 9.0107155 -0.56284374
0.41609094 10.406402 -0.56317198
0.49206913 12.306611 -0.56338865
0.60094696 15.029636 -0.56281781
0.77231181 19.315458 -0.56247067
1.080718 27.028675 -0.5621233
1.7987521 44.986649 -0.56130862
0.05831781 2.1073101 -0.56486732
0.060388155 2.1821218 -0.56551814
0.062265418 2.2499566 -0.56317842
0.064606279 2.3345435 -0.56376821
0.067246832 2.4299595 -0.56547201
0.069470853 2.5103242 -0.56221455
0.072403081 2.6162803 -0.56314379
0.075404115 2.7247226 -0.56282449
0.079015248 2.8552105 -0.56506914
0.082951754 2.9974558 -0.56736553
0.08631108 3.1188447 -0.56352466
0.091070704 3.2908337 -0.56638855
0.095517948 3.4515345 -0.564542
0.10056932 3.6340654 -0.56341636
0.10644906 3.8465292 -0.56364846
0.11288742 4.0791788 -0.56313789
0.12040998 4.351006 -0.56384116
0.12862775 4.6479545 -0.56307089
0.13820456 4.9940119 -0.5629046
0.14950754 5.4024444 -0.5634954
0.16252396 5.8727918 -0.56323725
0.17816582 6.4380093 -0.56346762
0.19691524 7.1155186 -0.56319344
0.22060893 7.9716883 -0.56430799
0.25012955 9.038414 -0.5643391
0.28827485 10.416792 -0.56349981
0.34089327 12.318154 -0.56368262
0.41652581 15.051131 -0.56338841
0.53590512 19.364895 -0.56367576
0.74955672 27.08518 -0.56306422
1.2479465 45.09446 -0.56241983
0.032264274 2.098851 -0.562451
0.033446919 2.1757841 -0.56372648
0.03430143 2.2313716 -0.55837876
0.035978116 2.3404434 -0.56504345
0.037287526 2.4256229 -0.56431341
0.038640395 2.5136294 -0.56280583
0.04038544 2.6271479 -0.56533337
0.041723385 2.7141838 -0.56049925
0.04378609 2.8483665 -0.56356543
0.045713 2.9737153 -0.56272292
0.047679845 3.1016624 -0.5602718
0.050346658 3.2751436 -0.56353897
0.052985646 3.4468148 -0.56362087
0.055849515 3.6331146 -0.56311995
0.059098676 3.8444784 -0.56319886
0.062684253 4.0777273 -0.56278849
0.066990733 4.3578715 -0.56458139
0.071549714 4.6544414 -0.56370753
0.076856658 4.9996681 -0.56339306
0.08318162 5.4111185 -0.56425077
0.090480253 5.8859081 -0.56434584
0.099119447 6.4479041 -0.56418431
0.10960941 7.1302953 -0.56421369
0.1223408 7.9584956 -0.56322503
0.13884874 9.0323687 -0.56381243
0.16027477 10.426171 -0.56385797
0.18940708 12.321282 -0.56367654
0.23157226 15.064204 -0.56372851
0.29770663 19.366369 -0.56356955
0.41727066 27.144232 -0.56414247
0.69506842 45.215492 -0.56378013
0.0064622764 2.1013486 -0.56305647
0.0067381589 2.1910579 -0.56761944
0.0069013331 2.2441175 -0.5615046
0.0072149294 2.3460901 -0.56634247
0.0074640266 2.4270895 -0.56459057
0.0077367667 2.5157769 -0.56322277
0.0080539407 2.6189129 -0.56349736
0.0083697299 2.7215984 -0.56196666
0.0087485146 2.8447683 -0.56278974
0.0091606425 2.9787807 -0.56361753
0.0095933788 3.1194944 -0.56342894
0.010083547 3.2788832 -0.56411839
0.010592934 3.4445214 -0.563182
0.011197749 3.6411898 -0.56430751
0.011810497 3.8404384 -0.56254321
0.012642603 4.1110158 -0.5673185
0.013410919 4.3608499 -0.56490326
0.014317566 4.6556659 -0.56379187
0.015383624 5.0023174 -0.5636276
0.016615465 5.4028773 -0.56332749
0.018056991 5.8716207 -0.56291211
0.019829329 6.4479351 -0.56412303
0.021885403 7.1165113 -0.56305909
0.024482055 7.9608688 -0.5633291
0.02781114 9.0433931 -0.56443655
0.032095898 10.436675 -0.56436199
0.037926536 12.332632 -0.5641318
0.046367537 15.077407 -0.56415856
0.05959671 19.379158 -0.5638777
0.083516166 27.157085 -0.5643456
0.13938406 45.323738 -0.56506568
-0.019447537 2.1090889 -0.56515187
-0.019972825 2.1660566 -0.56116378
-0.02082959 2.2589729 -0.56524295
-0.021504456 2.3321621 -0.56300163
-0.022439832 2.433604 -0.56612736
-0.023083085 2.5033648 -0.56046516
-0.024010602 2.6039543 -0.56029999
-0.025150388 2.7275646 -0.56321985
-0.026315436 2.853914 -0.56462038
-0.027455226 2.9775243 -0.5634011
-0.028755546 3.1185443 -0.56327862
-0.03030701 3.2868009 -0.56550199
-0.031743433 3.4425814 -0.56288606
-0.033586059 3.6424143 -0.56451869
-0.035373524 3.8362653 -0.56195319
-0.037688751 4.0873523 -0.56407422
-0.040124938 4.3515573 -0.56372076
-0.042846251 4.6466842 -0.56272548
-0.046170969 5.0072503 -0.56420475
-0.049896255 5.4112582 -0.56422269
-0.054371916 5.8966446 -0.56533247
-0.059412591 6.4433069 -0.56373942
-0.065799393 7.1359568 -0.564619
-0.073493816 7.9704185 -0.56402618
-0.083236352 9.0269976 -0.56343454
-0.096134551 10.425811 -0.5637958
-0.11373882 12.334996 -0.56426126
-0.13904457 15.079411 -0.56425488
-0.17921184 19.435558 -0.56554019
-0.25085506 27.20528 -0.56536847
-0.41883814 45.423077 -0.5663256
-0.045532882 2.1158664 -0.56707507
-0.046729881 2.1714897 -0.56267762
-0.048635546 2.2600441 -0.56561786
-0.050106216 2.3283846 -0.5621959
-0.05224514 2.4277782 -0.56487888
-0.054372363 2.526628 -0.56578034
-0.056701623 2.6348662 -0.56705856
-0.059096057 2.7461333 -0.56716132
-0.061192825 2.8435678 -0.56267983
-0.063957416 2.9720354 -0.56246883
-0.067119762 3.1189868 -0.56346506
-0.070597284 3.2805834 -0.5645389
-0.074323192 3.4537227 -0.56481451
-0.078626439 3.6536901 -0.56637323
-0.082586013 3.8376875 -0.56226778
-0.088119984 4.0948453 -0.56521511
-0.09380246 4.3589044 -0.56477922
-0.1000641 4.6498766 -0.56321853
-0.10782923 5.0107136 -0.56470174
