# .PCD v0.7 - Point Cloud Data file format
VERSION 0.7
FIELDS x y z
SIZE 4 4 4
TYPE F F F
COUNT 1 1 1
WIDTH 1452
HEIGHT 1
VIEWPOINT 0 0 0 1 0 0 0
POINTS 1452
DATA ascii
1.2878556 3.8505108 -0.56029958
1.3707004 4.0982051 -0.55978435
1.4716483 4.4000258 -0.56184489
1.5813278 4.7279525 -0.56171787
1.7072512 5.1044459 -0.56118828
1.8561971 5.5497737 -0.56102473
2.026706 6.0595717 -0.55900961
2.2421148 6.7036142 -0.55926806
2.4993277 7.4726458 -0.55757111
2.835269 8.4770632 -0.55789608
3.2598059 9.7463703 -0.5557285
3.8517346 11.516156 -0.55546474
4.691143 14.025871 -0.55338651
6.0003824 17.940317 -0.5504328
8.3275862 24.898336 -0.54557753
13.588058 40.626419 -0.53407955
0.64196092 2.0008285 -0.56303865
0.66531193 2.0736077 -0.56416285
0.68285751 2.1282928 -0.55925977
0.70693541 2.2033374 -0.55858594
0.73671937 2.2961664 -0.56095201
0.76680517 2.3899362 -0.56191278
0.79807675 2.4874017 -0.56207114
0.83289784 2.5959303 -0.56292957
0.86670774 2.7013071 -0.56123883
0.90975773 2.8354831 -0.56343979
0.9496153 2.9597089 -0.5614078
1.0017867 3.122314 -0.56415105
1.0485203 3.2679706 -0.56114167
1.1062522 3.4479063 -0.56118041
1.1709542 3.6495659 -0.56142378
1.2421107 3.8713427 -0.56106597
1.3250949 4.1299834 -0.56185687
1.4138505 4.4066119 -0.56042349
1.5217437 4.742887 -0.56122667
1.6422069 5.11834 -0.56045341
1.7817825 5.5533619 -0.55913031
1.9505882 6.0794864 -0.55859184
2.1588259 6.7285099 -0.55908811
2.4096246 7.5101857 -0.55811912
2.7335937 8.5199146 -0.55846179
3.1422584 9.7936182 -0.55617738
3.7097032 11.562199 -0.55544335
4.5251813 14.103837 -0.55422527
5.7905664 18.04772 -0.55150175
8.0331898 25.037405 -0.54641902
13.111631 40.865612 -0.53506404
0.61709058 2.0078528 -0.56283748
0.63903731 2.0792618 -0.56352067
0.66212797 2.154393 -0.56393617
0.68339592 2.2235935 -0.56154829
0.70732075 2.3014386 -0.56007284
0.73693109 2.3977828 -0.56158465
0.76592517 2.4921222 -0.56096721
0.79661936 2.5919931 -0.55990928
0.83433467 2.7147088 -0.56184924
0.87449193 2.8453703 -0.56322515
0.91663456 2.9824915 -0.56354874
0.95767874 3.1160388 -0.5608471
1.0055094 3.271667 -0.55961102
1.0617768 3.4547467 -0.56012642
1.1236634 3.6561098 -0.56026256
1.1933663 3.882905 -0.56057256
1.2710031 4.1355152 -0.5604409
1.3585591 4.4203997 -0.56001008
1.4609342 4.7535014 -0.5603146
1.5779674 5.1342974 -0.56003374
1.7171869 5.5872817 -0.56037718
1.8752062 6.1014357 -0.55844772
2.0729895 6.7449713 -0.55829567
2.3197706 7.5479331 -0.55876225
2.6260676 8.5445442 -0.55791742
3.0233598 9.8372297 -0.55650073
3.5722208 11.623081 -0.55621588
4.3473878 14.145274 -0.55371106
5.567976 18.116753 -0.55147737
7.7343874 25.165693 -0.54710186
12.636021 41.114338 -0.5362457
0.59376514 2.0200818 -0.56417614
0.61550951 2.0940595 -0.56543714
0.63397485 2.1568813 -0.56250441
0.6587159 2.2410543 -0.56386977
0.68443334 2.3285491 -0.56457961
0.70814711 2.4092269 -0.56218302
0.73516119 2.5011332 -0.56091827
0.76768196 2.611774 -0.56210059
0.79978377 2.7209892 -0.56107128
0.83942991 2.8558717 -0.56321812
0.87834853 2.9882789 -0.56255895
0.92252403 3.1385708 -0.56281829
0.97008842 3.3003924 -0.56244153
1.020072 3.4704444 -0.56059545
1.0837504 3.687088 -0.56292498
1.1489658 3.9089613 -0.5622521
1.2224452 4.1589499 -0.56153715
1.3070166 4.4466748 -0.56126028
1.4040123 4.776669 -0.56096804
1.5195633 5.1697917 -0.56182474
1.6477835 5.6060171 -0.56018174
1.8020788 6.1309538 -0.55907899
1.9926759 6.7793946 -0.55907452
2.2283628 7.5812383 -0.55915701
2.5209937 8.5768147 -0.55795825
2.9102483 9.9011192 -0.55804837
3.4290497 11.666162 -0.55621767
4.1789889 14.217574 -0.55448776
5.3490353 18.198254 -0.55191439
7.4306836 25.280346 -0.54756659
12.149202 41.333485 -0.53711492
0.56791574 2.0237854 -0.56321758
0.58851504 2.0971916 -0.56428623
0.60643137 2.1610372 -0.56160098
0.62588257 2.2303522 -0.55919826
0.65165401 2.3221896 -0.56105238
0.67961895 2.4218433 -0.56313437
0.70502311 2.512372 -0.56145209
0.73371553 2.6146183 -0.56072861
0.76542485 2.7276156 -0.56045443
0.80147195 2.8560703 -0.56127119
0.84321159 3.0048108 -0.5636766
0.88277537 3.1457977 -0.56212521
0.92883444 3.3099306 -0.56207812
0.98075444 3.4949491 -0.56256318
1.0376234 3.6976032 -0.56253988
1.0975181 3.9110401 -0.56056762
1.1677454 4.1612968 -0.55987304
1.2504505 4.4560194 -0.56045669
1.3438151 4.7887273 -0.5604012
1.4562649 5.1894455 -0.56197208
1.5794652 5.6284733 -0.56044257
1.7296712 6.1637373 -0.56008667
1.9080684 6.7994618 -0.5587523
2.1372929 7.6163106 -0.55976313
2.4157393 8.6085625 -0.55804896
2.7837982 9.9201517 -0.55714965
3.2874603 11.714968 -0.55657518
4.0088291 14.285588 -0.5551759
5.12955 18.279312 -0.55241799
7.1233568 25.384304 -0.54787964
11.662222 41.558693 -0.5381372
0.543459 2.032372 -0.56370485
0.56084591 2.0973938 -0.56244242
0.58281511 2.1795521 -0.56450748
0.60216486 2.2519143 -0.56270534
0.6307379 2.3587685 -0.56797332
0.64989728 2.430419 -0.56322759
0.67501158 2.5243387 -0.56222898
0.70536774 2.6378617 -0.56381065
0.7310127 2.7337661 -0.55982894
0.76620269 2.865366 -0.56120402
0.80406249 3.0069501 -0.5621807
0.84109473 3.1454394 -0.56017071
0.8867895 3.316324 -0.5612697
0.93709093 3.5044363 -0.56219304
0.98887956 3.6981099 -0.56072462
1.0494586 3.9246573 -0.56062734
1.1223382 4.1972046 -0.56280482
1.1982384 4.4810486 -0.56170905
1.2858529 4.8087006 -0.56084579
1.390852 5.201365 -0.56136835
1.5080726 5.6397343 -0.5596751
1.6536311 6.1840792 -0.56004506
1.8274738 6.8341985 -0.55971789
2.0444109 7.6454773 -0.56001681
2.3131971 8.6506567 -0.55889153
2.6633174 9.960001 -0.5575062
3.1460707 11.765351 -0.55708885
3.8277302 14.314551 -0.55443037
4.9110494 18.365837 -0.55316603
6.8210697 25.508734 -0.54871351
11.171905 41.779537 -0.5391773
0.51703954 2.0334368 -0.56219423
0.53173608 2.0912359 -0.55899554
0.55526263 2.1837621 -0.56378686
0.57260042 2.2519493 -0.56091231
0.59749919 2.3498721 -0.56401932
0.6200034 2.4383779 -0.5632627
0.64256048 2.5270913 -0.56103981
0.66782469 2.6264515 -0.55957437
0.70169652 2.7596641 -0.56332284
0.73015076 2.8715701 -0.56061834
0.76939517 3.0259125 -0.56391448
0.80289894 3.1576777 -0.56054962
0.84932405 3.3402605 -0.56351066
0.89531875 3.5211504 -0.56306565
0.94408691 3.7129483 -0.56117189
1.0075098 3.9623806 -0.56420368
1.068576 4.2025442 -0.56171644
1.144094 4.4995451 -0.56222165
1.2283819 4.8310366 -0.56164676
1.3228338 5.2025008 -0.5596931
1.4409903 5.6671925 -0.56059921
1.5780159 6.2060933 -0.56023908
1.7436399 6.8574667 -0.55982524
1.9460882 7.6536646 -0.55882144
2.204987 8.671874 -0.5584684
2.5498686 10.028239 -0.55952847
2.999244 11.795564 -0.55673105
3.662122 14.402561 -0.55605298
4.6872101 18.434074 -0.55344349
6.5145535 25.620735 -0.54935807
10.678471 41.99678 -0.54024547
0.49338022 2.0453694 -0.56377339
0.50659698 2.1001613 -0.55967385
0.52653718 2.1828258 -0.56183112
0.5457443 2.2624512 -0.56181419
0.56736839 2.3520966 -0.56283617
0.58744162 2.4353127 -0.56084365
0.6111114 2.5334387 -0.56073833
0.64102715 2.6574583 -0.56445843
0.66505939 2.757087 -0.56108505
0.69861609 2.8962004 -0.56370717
0.73139733 3.0320992 -0.56334877
0.76732028 3.1810222 -0.56297618
0.80982703 3.3572392 -0.56465238
0.85083985 3.5272629 -0.56232756
0.89858192 3.7251837 -0.56130868
0.95396405 3.9547772 -0.56140828
1.0193534 4.2258573 -0.56311452
1.0877622 4.5094543 -0.56174606
1.1674073 4.839633 -0.5609349
1.2595313 5.2215447 -0.56003326
1.37508 5.7005663 -0.56218541
1.5020585 6.2269716 -0.56041408
1.6620575 6.8902674 -0.56079215
1.8530952 7.6822381 -0.55920166
2.1022673 8.7152119 -0.55955225
2.4205544 10.034711 -0.55818665
2.855654 11.83847 -0.55705673
3.4866579 14.454376 -0.55635613
4.4616222 18.496214 -0.5536201
6.2060308 25.727877 -0.54997754
10.179301 42.199566 -0.54120302
0.47214773 2.0686035 -0.56853426
0.48424262 2.1215944 -0.56375617
0.49903455 2.1864018 -0.56112969
0.51967895 2.2768502 -0.56376034
0.53697914 2.3526471 -0.5613454
0.55860609 2.4474003 -0.56200302
0.57975137 2.5400436 -0.56057996
0.60704696 2.6596327 -0.56329215
0.63250685 2.771179 -0.56232756
0.66096663 2.895869 -0.56201822
0.69427007 3.04178 -0.5635187
0.7317211 3.2058628 -0.56573731
0.759942 3.3295059 -0.55837405
0.80899215 3.5444076 -0.56343234
0.85326666 3.7383859 -0.56167459
0.9058814 3.968905 -0.56179005
0.96348709 4.2212906 -0.56088483
1.0313419 4.5185804 -0.56126064
1.1105996 4.8658295 -0.5623458
1.1980991 5.2491879 -0.56137556
1.3008144 5.6992106 -0.5604319
1.4279799 6.2563558 -0.56143594
1.5769582 6.9090691 -0.56070179
1.7602624 7.712173 -0.55976278
1.9930909 8.7322559 -0.55903077
2.3011649 10.082009 -0.55920142
2.7116699 11.88054 -0.55742508
3.3058498 14.483799 -0.55588198
4.2382545 18.568909 -0.55419421
5.8948603 25.826937 -0.55050397
9.6765623 42.395569 -0.54214972
0.442891 2.0566692 -0.56371486
0.45838106 2.1286008 -0.56407756
0.47403318 2.2012854 -0.56341094
0.48889998 2.2703228 -0.56061316
0.50972205 2.3670149 -0.56323552
0.52822423 2.4529343 -0.5617398
0.5465439 2.5380061 -0.55860484
0.57486403 2.6695173 -0.56384593
0.59893066 2.7812762 -0.56283951
0.62443179 2.8996968 -0.56122857
0.65606219 3.0465801 -0.56287086
0.68846095 3.1970313 -0.56264234
0.72463691 3.3650231 -0.56279355
0.76125532 3.5350695 -0.56041747
0.80906177 3.7570698 -0.56294447
0.85760587 3.982496 -0.56217867
0.91537583 4.2507644 -0.56326288
0.97721064 4.537909 -0.56212646
1.045616 4.855566 -0.55963141
1.1348311 5.2698565 -0.56205118
1.2305444 5.714325 -0.56038785
1.3475562 6.2576966 -0.56002694
1.4915153 6.9262042 -0.5605616
1.6676295 7.7440324 -0.56054449
1.8890117 8.7720737 -0.56005049
2.1753345 10.101681 -0.5587666
2.5687547 11.92862 -0.55815679
3.1361928 14.563654 -0.5574246
4.0127735 18.634264 -0.55463016
5.5860944 25.940351 -0.55141562
9.1729298 42.596672 -0.54323798
0.41701984 2.0592444 -0.56297261
0.4336454 2.1413412 -0.5659979
0.44398189 2.1923828 -0.55969274
0.46179247 2.2803316 -0.56164002
0.48223093 2.3812568 -0.56517065
0.49909374 2.4645255 -0.56294626
0.52037203 2.5695975 -0.564107
0.54191226 2.6759632 -0.56375736
0.56595534 2.794688 -0.56410265
0.59125638 2.9196246 -0.56363571
0.61698967 3.0466955 -0.56144804
0.64733642 3.196548 -0.56111401
0.68235546 3.3694718 -0.56209183
0.71993142 3.555022 -0.56213468
0.75950974 3.7504599 -0.5605123
0.80459267 3.9730792 -0.55941045
0.86042166 4.2487626 -0.56155324
0.91909301 4.5384822 -0.56075507
0.99049377 4.8910594 -0.56227595
1.0723629 5.2953291 -0.56331897
1.1621823 5.7388573 -0.56134981
1.2715982 6.2791533 -0.56050545
1.4039029 6.9324737 -0.55962956
1.5722758 7.7638993 -0.56054074
1.7812853 8.7959881 -0.56013656
2.0528796 10.137122 -0.55928838
2.419992 11.949922 -0.55771899
2.9538388 14.58606 -0.55684984
3.7868288 18.699364 -0.5551399
5.2720532 26.033403 -0.55197382
8.6645374 42.785492 -0.54424608
0.39041743 2.057621 -0.56117392
0.40641168 2.1419158 -0.56478614
0.41949186 2.2108524 -0.56304836
0.43478718 2.2914636 -0.56302238
0.45316827 2.3883376 -0.56548595
0.46886554 2.471067 -0.56308103
0.48909691 2.5776927 -0.56452119
0.50812763 2.6779902 -0.5628255
0.53262371 2.8070924 -0.56524175
0.55626601 2.9316947 -0.56460273
0.58041322 3.0589581 -0.56235003
0.60832733 3.2060738 -0.56143063
0.64029747 3.3745663 -0.56158578
0.67814684 3.5740445 -0.56378144
0.71530616 3.7698855 -0.56205851
0.75803828 3.9950972 -0.56115574
0.80997705 4.2688308 -0.56284666
0.86292857 4.5479016 -0.56056547
0.92717141 4.8864813 -0.56039667
1.0017935 5.2797627 -0.56031018
1.0904928 5.7472363 -0.56081533
1.19656 6.3062429 -0.56156772
1.3230129 6.9726892 -0.56152022
1.4732985 7.7647409 -0.55925125
1.6729041 8.8167238 -0.56010473
1.9290833 10.166868 -0.55957854
2.2753668 11.991889 -0.55832964
2.7763972 14.632476 -0.55727637
3.5598502 18.761517 -0.5556435
4.9556894 26.118023 -0.55243421
8.1553392 42.981167 -0.54541832
0.36593047 2.0670228 -0.56246835
0.37831968 2.1370056 -0.56222224
0.39446381 2.2281985 -0.56618786
0.40581411 2.2923126 -0.56196243
0.42265651 2.3874497 -0.56400257
0.43907014 2.4801652 -0.56388128
0.45610932 2.5764139 -0.56297028
0.47845298 2.702626 -0.56672382
0.49665537 2.8054454 -0.56363773
0.51773053 2.9244921 -0.56194705
0.54305452 3.0675392 -0.56265742
0.57094061 3.2250588 -0.56348318
0.59689194 3.3716493 -0.55983657
0.63153267 3.5673237 -0.56145388
0.66670758 3.7660153 -0.56021684
0.71121788 4.0174398 -0.56302303
0.75396359 4.2588964 -0.56027204
0.80988789 4.5747948 -0.56261027
0.86844414 4.90556 -0.5613175
0.93991125 5.3092546 -0.56217098
1.0212812 5.768887 -0.56166017
1.1161152 6.3045735 -0.56015462
1.2353966 6.9783559 -0.56071085
1.382313 7.8082385 -0.56111747
1.5655237 8.8431368 -0.56051737
1.8055273 10.198839 -0.56007391
2.1309259 12.036911 -0.55916357
2.5988266 14.679931 -0.55782443
3.3309619 18.815525 -0.55598795
4.6388659 26.203453 -0.55299282
7.6407633 43.160198 -0.54645658
0.34046751 2.0712433 -0.56243509
0.35289901 2.1468709 -0.56363344
0.36454225 2.2177026 -0.56233937
0.37956706 2.3091066 -0.56489259
0.39315349 2.3917599 -0.5638361
0.40929949 2.4899848 -0.5649268
0.42277992 2.5719931 -0.56082594
0.44372416 2.6994081 -0.56486219
0.45974052 2.796844 -0.56073147
0.4815177 2.9293261 -0.56169575
0.50410569 3.0667405 -0.56133157
0.52938598 3.2205341 -0.56151283
0.55831206 3.3965065 -0.56278145
0.58851063 3.5802207 -0.56230217
0.62380189 3.7949159 -0.56333238
0.66378713 4.038167 -0.56474125
0.70398831 4.282732 -0.56222641
0.75459272 4.5905857 -0.5633685
0.80903107 4.9217625 -0.56199074
0.87424707 5.3185058 -0.56196976
0.95099509 5.7854047 -0.5620873
1.040743 6.331388 -0.56135756
1.1492081 6.9912386 -0.56056815
1.2865802 7.8269458 -0.56128246
1.4567574 8.8622236 -0.56054938
1.6781821 10.209267 -0.55947101
1.9827677 12.062222 -0.55916446
2.4189353 14.715658 -0.55800962
3.1027274 18.875526 -0.55659151
4.3237524 26.303667 -0.55394381
7.123909 43.338493 -0.54756355
0.3150796 2.0759642 -0.56262243
0.32829046 2.1630065 -0.56676698
0.33941045 2.2362726 -0.56594706
0.35056782 2.3097854 -0.56396145
0.36284593 2.390682 -0.56248766
0.37899011 2.4970512 -0.56542999
0.39218768 2.5840061 -0.56235129
0.4093962 2.6973877 -0.56334341
0.42708817 2.8139546 -0.56306648
0.44663215 2.942724 -0.56316912
0.46761248 3.0809569 -0.56283867
0.48999113 3.2284031 -0.56179184
0.51823533 3.4144957 -0.56466359
0.54729593 3.605967 -0.56524616
0.57677126 3.8001714 -0.56301713
0.61132836 4.0278573 -0.56220567
0.65297216 4.3022356 -0.56369013
0.6958161 4.5845218 -0.5615319
0.74642944 4.9179978 -0.5604704
0.80985552 5.3358932 -0.56271219
0.87714738 5.7792587 -0.56039989
0.96333885 6.3471479 -0.56166214
1.0647781 7.0155001 -0.56142122
1.1881092 7.8280911 -0.5602746
1.3470389 8.8752308 -0.56028211
1.556078 10.252527 -0.56075072
1.8365225 12.100291 -0.55984002
2.239579 14.755907 -0.55844939
2.8727028 18.927368 -0.55703646
4.0039406 26.380753 -0.55448842
6.6029487 43.504829 -0.54859781
0.28800896 2.0687509 -0.55966532
0.30022731 2.1565146 -0.56405592
0.31074661 2.232074 -0.56387484
0.32083786 2.3045588 -0.5616796
0.33236322 2.3873448 -0.56069851
0.34701744 2.492605 -0.56341439
0.36156633 2.5971091 -0.56419265
0.37720683 2.7094536 -0.56485194
0.39301172 2.8229792 -0.56386268
0.41100845 2.9522488 -0.56398207
0.4299174 3.0880704 -0.56312984
0.45055521 3.2363107 -0.56216127
0.47407359 3.4052417 -0.5621267
0.49992436 3.5909264 -0.56188238
0.53068399 3.8118708 -0.56374103
0.56037515 4.0251403 -0.56082225
0.59908491 4.3031907 -0.5628075
0.63894129 4.5894766 -0.56113398
0.68950325 4.9526601 -0.56341183
0.74285907 5.3359113 -0.56170833
0.80849695 5.8073845 -0.56212068
0.88511902 6.3577561 -0.56159532
0.97924465 7.0338545 -0.56188399
1.0921862 7.8451066 -0.56048882
1.2397709 8.9051991 -0.56116909
1.4294014 10.267303 -0.56055522
1.6883647 12.127421 -0.56009239
2.0622115 14.81274 -0.55959827
2.6432891 18.986586 -0.55778044
3.6851618 26.470293 -0.55537605
6.0813899 43.682251 -0.54985058
0.26409379 2.0843136 -0.56295449
0.27528086 2.1726055 -0.56733644
0.28244859 2.2291756 -0.56222272
0.29327932 2.3146553 -0.56321883
0.30346504 2.3950441 -0.56158793
0.31606403 2.4944797 -0.56291711
0.32912597 2.5975688 -0.56337076
0.34366167 2.7122891 -0.56451941
0.35900292 2.8333671 -0.56501311
0.37275729 2.9419212 -0.56109113
0.39129391 3.0882182 -0.56223685
0.41182244 3.2502358 -0.56365788
0.43190485 3.4087329 -0.56178385
0.45668939 3.6043406 -0.5630601
0.48354277 3.8162761 -0.5634706
0.51199597 4.0408378 -0.56208968
0.54642278 4.3125453 -0.56310964
0.58491945 4.6163735 -0.56350058
0.62559098 4.9373665 -0.56075454
0.67925441 5.3608956 -0.5634166
0.73698109 5.816493 -0.56208265
0.80756187 6.3735399 -0.56206983
0.88948703 7.0201192 -0.55987072
0.99731982 7.8711705 -0.56143236
1.1307369 8.9241419 -0.56144416
1.3029412 10.283234 -0.56050789
1.5390102 12.146366 -0.56005102
1.8803641 14.840441 -0.55972892
2.4098053 19.018963 -0.55781895
3.3628788 26.540928 -0.55594844
5.553616 43.830933 -0.55082083
0.23852552 2.088099 -0.56314212
0.24745868 2.1663015 -0.56485295
0.25658056 2.2461562 -0.56566691
0.26369765 2.3084605 -0.56088012
0.27426144 2.4009383 -0.56213671
0.2860814 2.5044122 -0.56432205
0.29729968 2.6026194 -0.56363064
0.3101882 2.7154479 -0.56434035
0.32467404 2.8422596 -0.56594747
0.33892897 2.9670503 -0.56504625
0.35414755 3.1002767 -0.56359679
0.37210634 3.2574914 -0.56408
0.39129382 3.4254622 -0.56370538
0.41207692 3.6074014 -0.56270415
0.43799597 3.8343019 -0.56529415
0.46193597 4.0438776 -0.5616799
0.49297065 4.3155613 -0.5626694
0.5263375 4.6076608 -0.56160456
0.56824082 4.9744906 -0.56413466
0.6139608 5.3747325 -0.5640347
0.66637278 5.8335567 -0.56289726
0.72772825 6.3706751 -0.56098562
0.80519766 7.0488572 -0.56133056
0.90057158 7.883779 -0.56149936
1.0215271 8.942647 -0.56177568
1.1772766 10.306108 -0.56092322
1.3906925 12.174393 -0.56051242
1.6971354 14.857054 -0.55952615
2.1799729 19.083906 -0.55889529
3.0394876 26.608267 -0.55653399
5.0244269 43.98481 -0.55193645
0.21317089 2.0941916 -0.56403565
0.21876909 2.149188 -0.55964696
0.22759344 2.2358785 -0.56233132
0.236544 2.3238089 -0.56385994
0.24629214 2.4195747 -0.56574827
0.25432065 2.4984467 -0.56223065
0.26461926 2.5996203 -0.56223398
0.27593744 2.7108102 -0.56262881
0.28651908 2.8147643 -0.55972874
0.3006793 2.9538743 -0.56179041
0.31558716 3.1003292 -0.56285834
0.33146334 3.2562969 -0.56312484
0.34891891 3.4277806 -0.56333822
0.36678562 3.603303 -0.56131893
0.39022961 3.8336167 -0.56444305
0.41321474 4.059423 -0.5630908
0.43804982 4.3034029 -0.56033951
0.47048703 4.622066 -0.56261271
0.50584972 4.9694691 -0.56281716
0.54690421 5.3727884 -0.5630824
0.59432065 5.8386078 -0.56263691
0.65056801 6.3911819 -0.5620445
0.71868026 7.060317 -0.56149691
0.80256784 7.8844285 -0.56080037
0.91109931 8.9506416 -0.56153166
1.0519838 10.334692 -0.56173241
1.2419751 12.201166 -0.56099951
1.5157995 14.891219 -0.56006849
1.9466902 19.12429 -0.55933464
2.7137978 26.660357 -0.55688339
4.4906616 44.116272 -0.55285138
0.18742557 2.0968781 -0.56409585
0.19325459 2.162092 -0.5623458
0.20025389 2.2403986 -0.56280625
0.20702676 2.3161721 -0.56134677
0.21540235 2.4098763 -0.56281871
0.22392096 2.5051808 -0.56308389
0.2330984 2.607856 -0.5633527
0.2421896 2.7095666 -0.56171012
0.25319323 2.8326728 -0.56262833
0.26687002 2.9856861 -0.5671736
0.27782139 3.1082077 -0.56362581
0.2902765 3.2475529 -0.56095296
0.3063001 3.4268215 -0.56251907
0.32303211 3.6140156 -0.56232643
0.34248066 3.8316019 -0.56348372
0.36303294 4.0615368 -0.56272227
0.38764331 4.3368721 -0.56403422
0.4140245 4.6320195 -0.56316197
0.44374758 4.9645553 -0.56160027
0.48033202 5.3738542 -0.56253254
0.52336556 5.8553042 -0.56358314
0.57161117 6.3950663 -0.5617255
0.63303512 7.0822644 -0.56258082
0.70778918 7.9185972 -0.56256908
0.80168271 8.969058 -0.56202608
0.92367566 10.33389 -0.56102908
1.0918386 12.215261 -0.56098789
1.3334663 14.918542 -0.56043702
1.7121069 19.154696 -0.55956584
2.3886847 26.724106 -0.55755931
3.9575047 44.275734 -0.55419797
0.1604484 2.0836902 -0.55997497
0.16719908 2.1713588 -0.56417871
0.17243852 2.2394018 -0.56198072
0.1799124 2.3364625 -0.56568539
0.18544848 2.4083579 -0.56188899
0.19377832 2.5165348 -0.56505758
0.19990054 2.5960417 -0.56022722
0.20915964 2.7162867 -0.56252754
0.21876408 2.8410163 -0.5637086
0.22923604 2.9770122 -0.56494772
0.23903953 3.104327 -0.56234664
0.25039214 3.2517595 -0.56110537
0.26482221 3.4391582 -0.56396699
0.27967349 3.6320264 -0.56455106
0.29555607 3.8382883 -0.56388992
0.31302041 4.0650921 -0.56263906
0.33404312 4.3381066 -0.56361794
0.35734379 4.6407051 -0.56364113
0.38419685 4.9894366 -0.56383789
0.41509193 5.3906612 -0.56371498
0.45011389 5.8454795 -0.56206226
0.49272206 6.398818 -0.5614804
0.54550833 7.0843358 -0.56217003
0.60984617 7.9198694 -0.56208426
0.69090128 8.9725056 -0.56166726
0.79815489 10.365373 -0.56216294
0.9424147 12.238827 -0.56149548
1.150295 14.938499 -0.56061304
1.4781255 19.195923 -0.56019694
2.0634363 26.797161 -0.55851197
3.4188969 44.400078 -0.55518621
0.1356045 2.0977001 -0.56324935
0.13999349 2.1655946 -0.56219119
0.14467992 2.23809 -0.56116265
0.14982052 2.3176115 -0.56063288
0.15568915 2.4083948 -0.56140852
0.16228385 2.5104096 -0.56319159
0.16926973 2.6184759 -0.56457669
0.17600931 2.7227323 -0.5633716
0.1837312 2.8421843 -0.56344944
0.19234908 2.9754963 -0.56416857
0.20081934 3.1065249 -0.56225497
0.21165974 3.2742178 -0.56448889
0.22192694 3.4330437 -0.56247431
0.23443568 3.6265445 -0.56320828
0.24779288 3.8331704 -0.56264788
0.26286507 4.0663261 -0.56231993
0.28042218 4.3379211 -0.56310326
0.29981637 4.6379352 -0.56281435
0.32304361 4.9972429 -0.56422848
0.34808922 5.3846793 -0.56259936
0.37903547 5.8633952 -0.56329417
0.41527218 6.4239497 -0.56319505
0.45832008 7.0898685 -0.56211936
0.51337922 7.9415922 -0.56313533
0.58148998 8.9952145 -0.56259876
0.67062515 10.374069 -0.56214488
0.79152364 12.244278 -0.56125665
0.96886879 14.987676 -0.56196898
1.2438947 19.242119 -0.56105632
1.7367198 26.865757 -0.55945426
2.8791442 44.538204 -0.55642861
0.10936199 2.0907989 -0.56099284
0.11328246 2.165751 -0.56182772
0.11775691 2.2512941 -0.56406766
0.12203743 2.3331296 -0.56398118
0.12645893 2.4176607 -0.5631634
0.1317558 2.5189269 -0.56469625
0.13618553 2.603615 -0.560969
0.14209366 2.7165678 -0.56169206
0.14883801 2.8455074 -0.56370282
0.15500581 2.9634242 -0.56147575
0.16257228 3.1080811 -0.5621323
0.17074326 3.2642951 -0.5623737
0.18003553 3.441946 -0.56352758
0.19052914 3.6425645 -0.56528968
0.20130819 3.84864 -0.56451255
0.21300828 4.0723243 -0.56274468
0.22652149 4.3306718 -0.56175816
0.24293439 4.6444559 -0.56320059
0.26047832 4.9798632 -0.56186205
0.28204045 5.3920913 -0.56296879
0.30658376 5.8613143 -0.56268948
0.33631745 6.4297671 -0.56329989
0.37112129 7.0951519 -0.56213397
0.4151181 7.9362898 -0.56235486
0.47118318 9.0081501 -0.56300288
0.54346597 10.390063 -0.56260687
0.6416744 12.267627 -0.56192273
0.78325009 14.974292 -0.56106359
1.0069122 19.250298 -0.56089133
1.4071717 26.902519 -0.55981714
2.3351336 44.643433 -0.55734235
0.083432779 2.0866473 -0.55956137
0.086971566 2.1751521 -0.56394643
0.089816771 2.2463105 -0.5624997
0.093142793 2.329494 -0.56278288
0.096195526 2.4058425 -0.56009263
0.10086565 2.5226421 -0.56520838
0.10424702 2.6072097 -0.56142485
0.10950802 2.7387869 -0.565965
0.11378144 2.845665 -0.56341428
0.11875448 2.9700401 -0.56241012
0.1248731 3.1230664 -0.56452221
0.13069527 3.2686784 -0.56280941
0.13792744 3.4495547 -0.56445295
0.14556409 3.6405466 -0.56465602
0.15368371 3.8436177 -0.56345612
0.16353987 4.0901194 -0.56488317
0.1738455 4.3478622 -0.56366819
0.18500552 4.6269736 -0.56076241
0.1995142 4.9898343 -0.56266773
0.21527652 5.3840489 -0.56181031
0.23392144 5.8503571 -0.56131905
0.25672513 6.4206753 -0.56218433
0.28423122 7.1086006 -0.56287998
0.3180415 7.9541936 -0.56330383
0.36024988 9.0098209 -0.56278789
0.41607103 10.405904 -0.56314504
0.49146172 12.291419 -0.56269318
0.60041213 15.016261 -0.56231695
0.7708329 19.278471 -0.56139362
1.0781224 26.963757 -0.56077319
1.7902715 44.774551 -0.55866224
0.058124293 2.1003172 -0.56299293
0.060461316 2.1847653 -0.5662033
0.062153209 2.2459018 -0.56216353
0.064534873 2.3319633 -0.56314516
0.06674625 2.4118712 -0.56126261
0.06963826 2.5163736 -0.56356943
0.072487637 2.6193357 -0.56380147
0.075491764 2.7278898 -0.56347871
0.078858599 2.8495498 -0.56394881
0.082351774 2.9757757 -0.56326187
0.086387128 3.121593 -0.56402117
0.090275086 3.262084 -0.56144041
0.094894007 3.4289885 -0.56085432
0.10095155 3.6478772 -0.56555772
0.1066642 3.8543036 -0.56478763
0.11292902 4.0806823 -0.56334543
0.12045005 4.3524542 -0.5640288
0.12899327 4.6611629 -0.56467104
0.13824411 4.9954414 -0.56306571
0.14982823 5.4140325 -0.56470406
0.16285361 5.8847041 -0.56437975
0.17796341 6.4306951 -0.56282747
0.19689299 7.1147146 -0.56312984
0.21973947 7.9402699 -0.56208396
0.24929242 9.0081644 -0.56245035
0.28804228 10.408387 -0.5630452
0.34036463 12.299052 -0.56280851
0.41611725 15.036368 -0.56283575
0.53414732 19.301376 -0.56182688
0.74738765 27.0068 -0.56143475
1.2421336 44.884411 -0.55980009
0.032252152 2.0980623 -0.56223965
0.033389356 2.1720397 -0.5627563
0.034557253 2.2480135 -0.56254321
0.035751272 2.3256865 -0.56148076
0.037159931 2.4173226 -0.5623824
0.038549948 2.5077457 -0.56148845
0.04032518 2.6232278 -0.56448978
0.042018756 2.7333982 -0.56446713
0.043908533 2.8563316 -0.56514138
0.045696512 2.9726429 -0.56251997
0.047892045 3.1154664 -0.56276524
0.050380904 3.2773714 -0.56392229
0.053024609 3.4493492 -0.5640353
0.055827629 3.6316907 -0.56289923
0.059055176 3.8416488 -0.56278431
0.062592864 4.0717821 -0.56196797
0.066961743 4.3559856 -0.56433707
0.071659341 4.6615734 -0.56457132
0.076851882 4.9993577 -0.56335807
0.08285334 5.3897638 -0.562024
0.09023051 5.8696623 -0.56278813
0.098785318 6.4261684 -0.5622825
0.10957921 7.1283307 -0.56405824
0.1224577 7.9661007 -0.56376326
0.13868208 9.0215273 -0.56313568
0.16012509 10.416434 -0.56333137
0.18923932 12.310369 -0.56317729
0.23100245 15.027138 -0.56234145
0.29717329 19.331673 -0.56255984
0.41562262 27.037024 -0.56191432
0.69174469 44.999275 -0.56108415
0.0064583709 2.1000788 -0.56271625
0.0066924468 2.1761937 -0.56376863
0.0069283205 2.2528932 -0.56370038
0.007180478 2.3348875 -0.56363821
0.0074576735 2.4250238 -0.56411004
0.0077026519 2.5046837 -0.56073928
0.0080544222 2.6190693 -0.56353104
0.0083679687 2.7210259 -0.56184846
0.0087457579 2.8438721 -0.56261241
0.0091594243 2.9783847 -0.5635426
0.0095765796 3.1140316 -0.5624423
0.010057747 3.2704937 -0.56267506
0.010529938 3.4240367 -0.55983275
0.011175877 3.634078 -0.56320536
0.01186674 3.8587267 -0.56522208
0.012572364 4.0881758 -0.56416661
0.013368915 4.3471913 -0.5631339
0.014282745 4.6443429 -0.56242073
0.015409644 5.0107784 -0.56458098
0.016593998 5.3958969 -0.56259972
0.018034467 5.8642964 -0.5622099
0.019854454 6.4561043 -0.56483775
0.0218677 7.110755 -0.56260365
0.024518464 7.9727082 -0.56416684
0.027784079 9.0345936 -0.56388736
0.032004356 10.406908 -0.56275231
0.03785618 12.309754 -0.56308532
0.046300054 15.055462 -0.56333745
0.059530273 19.357553 -0.56324911
0.083301686 27.087343 -0.56289631
0.13864586 45.083694 -0.56207299
-0.019459719 2.1104102 -0.56550586
-0.020030649 2.1723278 -0.56278843
-0.020868747 2.2632196 -0.56630552
-0.021459002 2.3272328 -0.56181163
-0.022308441 2.4193547 -0.56281257
-0.023246668 2.5211055 -0.56443709
-0.024233498 2.6281273 -0.56550139
-0.025256379 2.739059 -0.56559336
-0.02624635 2.8464217 -0.56313807
-0.027590461 2.9921908 -0.56617624
-0.02878961 3.1222386 -0.56394589
-0.03019459 3.2746091 -0.56340432
-0.031760477 3.4444296 -0.56318825
-0.033473972 3.6302586 -0.56263471
-0.035425719 3.8419261 -0.56278241
-0.037739888 4.0928979 -0.5648396
-0.040062547 4.3447909 -0.56284422
-0.042856548 4.6478009 -0.56286073
-0.046196308 5.0099983 -0.5645144
-0.049931169 5.4150448 -0.56461746
-0.054245174 5.8828998 -0.56401467
-0.059327103 6.4340353 -0.56292826
-0.065645732 7.1192923 -0.56330043
-0.073423952 7.962841 -0.56348997
-0.083143122 9.0168867 -0.56280345
-0.096140973 10.426507 -0.56383348
-0.11352387 12.311686 -0.56319493
-0.13889074 15.062728 -0.56363064
-0.1784578 19.353783 -0.56316066
-0.2500053 27.113123 -0.56345332
-0.41655979 45.175987 -0.56324494
-0.045335505 2.1066945 -0.56461692
-0.046730842 2.1715343 -0.56268919
-0.048604816 2.258616 -0.56526047
-0.050254565 2.3352783 -0.56386036
-0.052217796 2.4265075 -0.56458318
-0.054212399 2.5191946 -0.56411582
-0.056215439 2.6122739 -0.56219637
-0.058799349 2.7323456 -0.56431371
-0.061604366 2.8626919 -0.56646401
-0.064380139 2.991679 -0.56618643
-0.06686461 3.1071301 -0.56132305
-0.070686214 3.2847159 -0.5652501
-0.074109182 3.4437778 -0.56318814
-0.07800664 3.6248887 -0.5619086
-0.083086729 3.860955 -0.56567675
-0.088034779 4.0908861 -0.5646686
-0.093821943 4.3598099 -0.56489652
-0.10046832 4.6686602 -0.5654937
-0.10751209 4.9959769 -0.56304085
-0.11632869 5.4056749 -0.56374705
-0.12648724 5.8777323 -0.56362581
-0.13847536 6.4348083 -0.5631023
-0.1533163 7.1244516 -0.56381524
-0.17167646 7.9776292 -0.56464314
-0.19406138 9.0178337 -0.56296891
-0.22438194 10.426799 -0.56395584
-0.26533735 12.329955 -0.56413728
-0.32463717 15.085557 -0.56459159
-0.41695634 19.375534 -0.56390017
-0.58410013 27.142536 -0.5641712
-0.9741748 45.268906 -0.56451011
-0.071057662 2.1007342 -0.56321108
-0.073973119 2.1869261 -0.56687039
-0.076155037 2.2514319 -0.5636543
-0.07869789 2.3266084 -0.56195819
-0.081660315 2.4141889 -0.56190819
-0.085310943 2.5221152 -0.56496203
-0.088488527 2.6160567 -0.56320208
-0.092545368 2.7359922 -0.56525922
-0.096038453 2.8392613 -0.56201881
-0.10062319 2.9748034 -0.5631842
-0.10557487 3.1211939 -0.56405568
-0.11091378 3.2790322 -0.56446403
-0.116718 3.4506273 -0.56450027
-0.12335686 3.6468968 -0.5655126
-0.13005991 3.8450646 -0.56354034
-0.13770999 4.0712299 -0.56214672
-0.14702678 4.3466697 -0.56338567
-0.15775524 4.6638436 -0.56510258
-0.16947289 5.010262 -0.56484294
-0.18311305 5.413517 -0.56475699
-0.19887547 5.8795137 -0.56398851
-0.21747768 6.4294658 -0.56282622
-0.24084426 7.1202707 -0.56367612
-0.26936674 7.9635034 -0.56383514
-0.30556005 9.033515 -0.56413984
-0.35258245 10.423676 -0.56397873
-0.41730052 12.336987 -0.56465107
-0.50986308 15.073488 -0.56433189
-0.65563053 19.382927 -0.56430727
-0.91885042 27.164705 -0.56482416
-1.5339868 45.350471 -0.56571972
-0.09681052 2.0981536 -0.56279582
-0.10001238 2.1675467 -0.56212336
-0.10421375 2.2586021 -0.56572741
-0.10812361 2.3433397 -0.56627768
-0.11268713 2.4422438 -0.56871748
-0.11639122 2.5225217 -0.56533092
-0.12130886 2.6291008 -0.56628865
-0.12620459 2.7352049 -0.56537437
-0.13097495 2.8385918 -0.56216258
-0.13805354 2.9920046 -0.56671923
-0.14415783 3.1243014 -0.56489491
-0.15108259 3.2743802 -0.56394041
-0.15885262 3.4427786 -0.56349325
-0.16786465 3.6380942 -0.56442499
-0.17730172 3.842622 -0.56345922
-0.18828885 4.0807438 -0.56373739
-0.20121311 4.3608479 -0.56550133
-0.21405691 4.6392093 -0.56239408
-0.22981898 4.9808173 -0.56179959
-0.24975178 5.4128165 -0.56496155
-0.27131104 5.8800654 -0.56431878
-0.2972036 6.4412293 -0.56413329
-0.32885486 7.1272001 -0.56450212
-0.36773297 7.9697976 -0.56455827
-0.41707739 9.0392284 -0.56477422
-0.48105645 10.425833 -0.56437284
-0.56830895 12.316838 -0.56400609
-0.69611454 15.08674 -0.56510574
-0.89515853 19.400578 -0.56509888
-1.2543217 27.184643 -0.56551665
-2.0947762 45.399632 -0.56661141
-0.12238333 2.0930796 -0.56179601
-0.12671503 2.1671631 -0.56238544
-0.13142666 2.2477443 -0.56336999
-0.13646974 2.3339944 -0.56438226
-0.14149731 2.4199793 -0.5638954
-0.14751002 2.5228126 -0.5657599
-0.15177155 2.595696 -0.55945313
-0.15934792 2.7252722 -0.56368369
-0.166246 2.8432474 -0.56344688
-0.17390467 2.9742312 -0.56371516
-0.18142121 3.1027837 -0.56136525
-0.19034591 3.25542 -0.56103557
-0.20185292 3.4522202 -0.56540209
-0.21207762 3.6270897 -0.56307977
-0.22505829 3.8490937 -0.56477129
-0.23875917 4.083415 -0.5644694
-0.25380409 4.340723 -0.5632537
-0.27184811 4.6493239 -0.56398284
-0.29167539 4.9884224 -0.56301939
-0.31630924 5.4097271 -0.56500238
-0.34384441 5.8806515 -0.56473809
-0.37619859 6.4339938 -0.56386209
-0.41685358 7.129302 -0.56503183
-0.4661774 7.9728699 -0.56513923
-0.52878749 9.0436678 -0.56541508
-0.6095494 10.424911 -0.56468606
-0.72120905 12.334587 -0.56518221
-0.88178438 15.080852 -0.56524861
-1.1345992 19.404655 -0.56558132
-1.5900288 27.193708 -0.56606913
-2.6578 45.455425 -0.56767273
-0.14823236 2.0931497 -0.56226152
-0.15384637 2.1724236 -0.56419879
-0.15850487 2.2382052 -0.56142515
-0.16515733 2.3321428 -0.56438291
-0.17083324 2.4122908 -0.56255078
-0.17777912 2.5103717 -0.56341749
-0.18398866 2.5980549 -0.56040686
-0.19234245 2.7160165 -0.56221598
-0.20131621 2.8427324 -0.56379277
-0.21017288 2.9677951 -0.56294262
-0.2207261 3.1168146 -0.56435215
-0.231813 3.2733696 -0.56457758
-0.2445928 3.4538298 -0.5661155
-0.25708419 3.6302171 -0.56401336
-0.27258325 3.8490756 -0.56521773
-0.28795907 4.0661931 -0.5625357
-0.30806333 4.3500805 -0.56491673
-0.32930207 4.6499867 -0.56451178
-0.35362837 4.9934921 -0.56403965
-0.38295877 5.4076586 -0.56523544
-0.41541931 5.8660254 -0.56378144
-0.45580706 6.4363298 -0.56451535
-0.50423962 7.1202335 -0.56476182
-0.56275254 7.9464788 -0.56371641
-0.63905829 9.0239716 -0.5646323
-0.73824835 10.424608 -0.56511861
-0.87334776 12.332311 -0.56552726
-1.0677562 15.0775 -0.56557232
-1.3732692 19.391569 -0.56564927
-1.9277235 27.220871 -0.56708515
-3.2238908 45.523701 -0.56897748
-0.17525747 2.1067953 -0.56646305
-0.18088388 2.1744311 -0.56525511
-0.18690775 2.2468448 -0.56412613
-0.19252045 2.314316 -0.56059933
-0.20161459 2.4236379 -0.56573236
-0.20904896 2.5130074 -0.56454337
-0.21789159 2.6193061 -0.56552595
-0.22709332 2.7299213 -0.56562954
-0.2371375 2.8506639 -0.56590128
-0.24740991 2.9741499 -0.56468242
-0.25943288 3.1186798 -0.56522477
-0.27127981 3.2610936 -0.56299305
-0.28573513 3.4348629 -0.56353998
-0.30179322 3.6278996 -0.56418723
-0.31839606 3.8274846 -0.56257957
-0.33864468 4.0708966 -0.56371981
-0.36056933 4.3344555 -0.56342083
-0.38560003 4.6353536 -0.5632683
-0.41493765 4.9880247 -0.56395584
-0.45050156 5.415544 -0.56659585
-0.48905337 5.8789806 -0.56556177
-0.53522831 6.4340563 -0.56485045
-0.59207159 7.1173778 -0.56507009
-0.66174299 7.9549074 -0.5648489
-0.75042564 9.0209742 -0.56497937
-0.86609983 10.41151 -0.56494319
-1.0249892 12.321543 -0.56556863
-1.2538333 15.07251 -0.56592071
-1.6151187 19.415573 -0.56688601
-2.2637713 27.213121 -0.56746072
-3.7915332 45.578564 -0.57020277
-0.20169154 2.1101635 -0.56799257
-0.2067723 2.1633201 -0.56298506
-0.21391208 2.2380188 -0.56252807
-0.22163658 2.318835 -0.56231165
-0.23023282 2.4087718 -0.56288052
-0.23923405 2.5029457 -0.56290126
-0.24888444 2.6039112 -0.56282032
-0.25927788 2.7126508 -0.56266922
-0.27094617 2.8347285 -0.5633567
-0.2835438 2.9665287 -0.56385475
-0.29752818 3.112838 -0.56478637
-0.31281954 3.2728212 -0.56563902
-0.32805032 3.4321709 -0.56371748
-0.34805954 3.6415138 -0.56692713
-0.36621231 3.831434 -0.56377935
-0.39036125 4.0840883 -0.56616843
-0.41520643 4.344027 -0.56528592
-0.4436869 4.6419988 -0.56469613
-0.47652158 4.9855261 -0.56429315
-0.51513821 5.3895459 -0.56449586
-0.55939883 5.8526154 -0.56364453
-0.61459464 6.4300919 -0.56512314
-0.67790526 7.0924687 -0.5637117
-0.76072133 7.9589176 -0.56575507
-0.86083496 9.0063391 -0.56468308
-0.99502265 10.410255 -0.56549627
-1.1763725 12.307597 -0.56554973
-1.4410262 15.076492 -0.56669265
-1.8535708 19.39267 -0.56683987
-2.6020758 27.223776 -0.5683071
-4.3613076 45.629436 -0.57146692
-0.22556187 2.0884504 -0.56285214
-0.23501234 2.1759512 -0.56698143
-0.24252738 2.2455323 -0.56512338
-0.2510924 2.3248346 -0.56447256
-0.2616179 2.4222891 -0.56674814
-0.27026716 2.5023715 -0.56347698
-0.28150558 2.6064267 -0.56406957
-0.29296201 2.7125006 -0.56334269
-0.30725995 2.8448832 -0.56608284
-0.32014191 2.9641559 -0.56410933
-0.33431134 3.0953491 -0.56231654
-0.35078585 3.2478843 -0.56203216
-0.37096429 3.4347141 -0.56484175
-0.39006907 3.6116033 -0.56297469
-0.414327 3.8362045 -0.56518823
-0.43985808 4.0725937 -0.56528199
-0.46850052 4.3377905 -0.56518131
-0.50064552 4.635417 -0.56460166
-0.53814507 4.9826212 -0.56467062
-0.5810141 5.37954 -0.56415355
-0.63313222 5.8620958 -0.56526464
-0.69301236 6.4165192 -0.56463653
-0.76566297 7.0891819 -0.56415612
-0.85738695 7.9384437 -0.56500643
-0.97405088 9.0186214 -0.56616133
-1.1225771 10.393807 -0.56530988
-1.3278148 12.29408 -0.5656361
-1.6263145 15.057853 -0.56670088
-2.0938361 19.386578 -0.56737149
-2.9392657 27.214312 -0.56882101
-4.9318223 45.663155 -0.57260543
-0.25118837 2.085228 -0.56277353
-0.25978619 2.1566024 -0.5627296
-0.26833075 2.2275348 -0.561382
-0.27736899 2.3025651 -0.55985129
-0.28890479 2.398329 -0.56193089
-0.30088827 2.4978094 -0.56324023
-0.31325644 2.6004832 -0.56357431
-0.32518852 2.6995366 -0.56143826
-0.34018534 2.8240321 -0.56272364
-0.35728303 2.9659677 -0.56524754
-0.37420207 3.1064205 -0.56512105
-0.39132196 3.2485402 -0.56293577
-0.41216883 3.4215996 -0.56347591
-0.43521279 3.6128979 -0.56396806
-0.4612518 3.8290594 -0.56492847
-0.48931101 4.0619912 -0.56460291
-0.52237409 4.336463 -0.56580245
-0.55668586 4.6213007 -0.56367344
-0.60001171 4.9809675 -0.56527668
-0.64692765 5.3704386 -0.56399065
-0.70455968 5.8488679 -0.56478179
-0.77319032 6.418602 -0.56561369
-0.85314983 7.0823817 -0.56440711
-0.95576513 7.934238 -0.5655008
-1.0858904 9.0144663 -0.56669587
-1.2517455 10.391304 -0.5659681
-1.4814591 12.298261 -0.56662381
-1.8118112 15.040662 -0.56684953
-2.3339684 19.375326 -0.56783915
-3.279249 27.222525 -0.56979245
-5.5039039 45.690388 -0.57375222
-0.27804494 2.0912824 -0.56528753
-0.28625467 2.1530311 -0.56267363
-0.29785454 2.240278 -0.56547385
-0.30871609 2.3219719 -0.56545019
-0.31931654 2.4017019 -0.56359851
-0.33311102 2.5054555 -0.56584525
-0.34627786 2.6044884 -0.56532234
-0.35897782 2.7000096 -0.5624122
-0.3753415 2.8230872 -0.56341249
-0.39260578 2.9529383 -0.56364185
-0.41130769 3.0936027 -0.5636667
-0.43072528 3.2396498 -0.56227046
-0.45511603 3.4231019 -0.56460226
-0.48070398 3.6155589 -0.56526339
-0.50689137 3.8125241 -0.56336594
-0.54083002 4.0677896 -0.56629032
-0.57486719 4.3237963 -0.56502932
-0.61385345 4.6170268 -0.56403011
-0.66021913 4.9657607 -0.56442952
-0.71318263 5.3641195 -0.56420535
-0.77693713 5.8436418 -0.56515694
-0.85297668 6.4155645 -0.5662275
-0.94338948 7.0955935 -0.56634164
-1.054757 7.9332314 -0.56631064
-1.1961745 8.9968863 -0.56647253
-1.3800683 10.380022 -0.56623513
-1.6324277 12.278113 -0.56657755
-1.9980611 15.028183 -0.56726229
-2.5743761 19.362867 -0.56835884
-3.6191909 27.221321 -0.57065558
-6.0796614 45.727463 -0.57511306
-0.30338326 2.0852716 -0.56462848
-0.31264094 2.1489034 -0.5625571
-0.32328385 2.2220562 -0.56183535
-0.33840424 2.3259847 -0.56739777
-0.34948343 2.4021363 -0.56466621
-0.36171454 2.4862053 -0.56245971
-0.37602386 2.584559 -0.56195772
-0.39333361 2.7035358 -0.56411147
-0.41042629 2.8210204 -0.56396455
-0.43013617 2.9564939 -0.56528735
-0.44985449 3.0920258 -0.56434458
-0.47250491 3.2477109 -0.56463528
-0.49778506 3.4214711 -0.56530011
-0.52397519 3.6014862 -0.56402791
-0.55453348 3.8115251 -0.56418324
-0.58971548 4.0533452 -0.56524628
-0.62768096 4.3142967 -0.56475389
-0.67077678 4.6105113 -0.56419915
-0.72019798 4.950202 -0.56362504
-0.78179365 5.3735733 -0.56616807
-0.84828269 5.8305783 -0.56485963
-0.93136168 6.4016128 -0.56596416
-1.0274122 7.0618052 -0.56461048
-1.1502088 7.9058347 -0.56532186
-1.3048037 8.9684258 -0.56564802
-1.5080464 10.365392 -0.56640577
-1.7857103 12.273885 -0.56735277
-2.1840107 15.01156 -0.56760561
-2.8152249 19.350142 -0.5689584
-3.9579751 27.20471 -0.57128447
-6.6545725 45.739479 -0.57624978
-0.32824665 2.0766187 -0.56333584
-0.3406904 2.1553426 -0.56529677
-0.35246739 2.2298486 -0.56485879
-0.36326286 2.2981451 -0.56165379
-0.38161439 2.4142442 -0.56857246
-0.39142427 2.4763052 -0.56126642
-0.41008347 2.5943508 -0.56514037
-0.42564806 2.6928186 -0.5629248
-0.44479924 2.8139765 -0.56360722
-0.46666551 2.9523113 -0.56554204
-0.48708925 3.0815201 -0.56347769
-0.51241267 3.2417262 -0.56464756
-0.54150152 3.4257536 -0.56706494
-0.56946653 3.6026716 -0.5652675
-0.60246128 3.8114092 -0.56521994
-0.63805807 4.0366087 -0.56396383
-0.68109649 4.3088865 -0.5650993
-0.72666138 4.5971484 -0.56361473
-0.78165507 4.9450603 -0.56409132
-0.84650248 5.3553109 -0.56529784
-0.92207468 5.8334103 -0.56618965
-1.0091296 6.3841548 -0.56547499
-1.1173816 7.0689998 -0.56624138
-1.2502794 7.9097638 -0.56665933
-1.4157428 8.9565506 -0.56595427
-1.638798 10.367687 -0.5675894
-1.937042 12.254497 -0.56751466
-2.3722315 15.007678 -0.56851882
-3.0571578 19.340794 -0.56974584
-4.2987499 27.195601 -0.57215995
-7.2292209 45.734921 -0.57726866
-0.35264459 2.0659206 -0.5615676
-0.36626685 2.1457245 -0.56391281
-0.38178346 2.2366266 -0.56772208
-0.3956449 2.317832 -0.56761128
-0.40886438 2.3952768 -0.56524676
-0.42485756 2.4889705 -0.56527841
-0.43980047 2.5765114 -0.56238991
-0.46005809 2.695188 -0.56456006
-0.48061392 2.8156116 -0.56507558
-0.49972612 2.9275777 -0.56193876
-0.5287658 3.0977027 -0.56758285
-0.55234379 3.2358313 -0.5647611
-0.58265293 3.4133933 -0.56616211
-0.61302876 3.5913458 -0.56463051
-0.6482861 3.7978964 -0.56435555
-0.68920475 4.0376124 -0.56524539
-0.73545653 4.3085723 -0.56620133
-0.78601563 4.6047664 -0.56569088
-0.84451795 4.947494 -0.56551075
-0.90989995 5.3305254 -0.56382
-0.99301225 5.8174281 -0.56578076
-1.0894396 6.3823347 -0.56645751
-1.2034446 7.0502172 -0.56587946
-1.3474176 7.8936639 -0.56665003
-1.5279979 8.9515686 -0.56678385
-1.766766 10.350359 -0.56778717
-2.0891562 12.239038 -0.56794554
-2.5573912 14.98213 -0.5686993
-3.2957973 19.307983 -0.56993002
-4.633409 27.144199 -0.57223392
-7.8101869 45.754925 -0.57868958
-0.38115615 2.0785329 -0.56622714
-0.39224678 2.1390128 -0.56337392
-0.40827149 2.2263994 -0.56635761
-0.42164722 2.2993402 -0.5643099
-0.43557632 2.375299 -0.56175387
-0.45660979 2.4899993 -0.56674439
-0.47499305 2.5902476 -0.56662023
-0.49325642 2.689842 -0.56466806
-0.51441276 2.8052123 -0.56421536
-0.53932124 2.9410443 -0.56575376
-0.56507021 3.0814593 -0.56583697
-0.58945823 3.2144527 -0.5622524
-0.62352693 3.4002373 -0.56520897
-0.65764987 3.5863178 -0.56506866
-0.69543809 3.7923856 -0.56476462
-0.73972392 4.0338864 -0.56595433
-0.78633928 4.2880912 -0.56473774
-0.84367603 4.6007614 -0.56643057
-0.90675819 4.9447632 -0.56643027
-0.97840762 5.3354845 -0.56557429
-1.0638573 5.8014612 -0.5654574
-1.1678672 6.3686514 -0.5664748
-1.2899731 7.0345235 -0.5658502
-1.4424921 7.8662448 -0.56591225
-1.6381004 8.9329424 -0.56683695
-1.8919743 10.317376 -0.56721121
-2.2417233 12.224638 -0.56851345
-2.7464488 14.977023 -0.56974429
-3.5374956 19.290787 -0.57066327
-4.977252 27.142111 -0.5734368
-8.3876905 45.740028 -0.5797618
-0.40524766 2.0663655 -0.56422734
-0.41681841 2.1253648 -0.56108677
-0.43243241 2.2049809 -0.56221926
-0.44850963 2.2869589 -0.56258219
-0.46866679 2.3897407 -0.5664894
-0.48816919 2.4891839 -0.56788212
-0.50649059 2.5826049 -0.56626797
-0.5247491 2.6757054 -0.56301242
-0.54768831 2.7926729 -0.56300527
-0.57432777 2.9285083 -0.56465811
-0.5995903 3.0573223 -0.56271607
-0.63399971 3.2327764 -0.56677824
-0.66636896 3.3978276 -0.56612766
-0.7020033 3.5795281 -0.56531626
-0.74166352 3.7817562 -0.56449717
-0.78851205 4.0206375 -0.56541312
-0.84046376 4.2855406 -0.5657202
-0.90076834 4.5930347 -0.56680012
-0.96593684 4.9253302 -0.56552202
-1.0450184 5.3285685 -0.5661605
-1.1359279 5.7921176 -0.56586534
-1.2460563 6.3536644 -0.5664618
-1.376879 7.0207319 -0.56605989
-1.5427389 7.8664546 -0.56724924
-1.7484498 8.9153776 -0.56704384
-2.0217817 10.309103 -0.56808019
-2.3882182 12.177569 -0.56764728
-2.9284112 14.932023 -0.56935924
-3.7793653 19.271053 -0.57141113
-5.3173623 27.113331 -0.57416672
-8.9694653 45.735474 -0.58105814
-0.4305135 2.0606971 -0.56408238
-0.44861481 2.1473408 -0.56830168
-0.45978859 2.2008252 -0.56255871
-0.47942168 2.294801 -0.56591874
-0.49541363 2.3713481 -0.56353092
-0.51552081 2.4675932 -0.56435996
-0.53657633 2.5683777 -0.56455249
-0.55807924 2.6713037 -0.56348759
-0.58173561 2.7845371 -0.56276464
-0.60745519 2.9076464 -0.56203341
-0.64052707 3.0659487 -0.56571072
-0.67169899 3.2151561 -0.56509435
-0.70702749 3.3842597 -0.56527287
-0.74594629 3.5705485 -0.56530398
-0.78792703 3.7714934 -0.56436884
-0.83843166 4.0132389 -0.56577975
-0.89259696 4.2725067 -0.56540579
-0.95280933 4.5607195 -0.56421548
-1.0292826 4.9267664 -0.56709731
-1.1087285 5.3070431 -0.56527925
-1.2081037 5.782712 -0.56635499
-1.3232334 6.3337922 -0.56609797
-1.4627538 7.0016208 -0.56592649
-1.6384544 7.8426304 -0.5669412
-1.8591456 8.8989916 -0.56741273
-2.1476548 10.27997 -0.56788713
-2.5425751 12.170297 -0.56872267
-3.1158557 14.914363 -0.57010365
-4.0163226 19.224541 -0.57145309
-5.6570969 27.078276 -0.57485402
-9.5503254 45.713612 -0.58222836
-0.45361376 2.0453076 -0.56135416
-0.47148362 2.1258812 -0.56411403
-0.48753411 2.1982517 -0.56339067
-0.50706929 2.2863343 -0.56532568
-0.52807158 2.381032 -0.56733239
-0.54770273 2.469547 -0.56630439
-0.56953001 2.5679643 -0.5659582
-0.59106046 2.6650436 -0.56365758
-0.61804068 2.7866952 -0.56469411
-0.6479426 2.9215205 -0.56621248
-0.67761916 3.0553296 -0.56524605
-0.70786244 3.1916943 -0.56245804
-0.74755555 3.3706672 -0.56449521
-0.79249269 3.5732851 -0.5672372
-0.83351964 3.7582722 -0.56388146
-0.88566744 3.9934025 -0.56447589
-0.9461928 4.2663064 -0.56608218
-1.0105021 4.5562716 -0.56515968
-1.0894161 4.9120889 -0.56690693
-1.1749599 5.2977986 -0.56579071
-1.2792242 5.7679181 -0.56640381
-1.4022536 6.322648 -0.56660014
-1.5474107 6.977149 -0.56544369
-1.7346405 7.821353 -0.56690216
-1.9715564 8.8895874 -0.56831598
-2.2753711 10.259463 -0.56825697
-2.6932609 12.143694 -0.56898409
-3.2981374 14.871034 -0.56995457
-4.2588553 19.202833 -0.57232124
-5.9960194 27.035563 -0.57546902
-10.136329 45.703884 -0.58364779
-0.48138097 2.0508797 -0.56446546
-0.49875426 2.124897 -0.56543756
-0.515185 2.1948988 -0.56411231
-0.53456557 2.277468 -0.56471598
-0.55787349 2.3767693 -0.56790829
-0.57686126 2.457665 -0.56516349
-0.60065371 2.5590303 -0.56557429
-0.62531877 2.6641138 -0.56504446
-0.65159011 2.7760403 -0.56411594
-0.6805436 2.899394 -0.56350344
-0.71598572 3.0503922 -0.56591862
-0.74684566 3.1818681 -0.56230229
-0.78807473 3.3575208 -0.56387383
-0.83522379 3.5583949 -0.56646103
-0.88401783 3.7662776 -0.56667072
-0.93592232 3.987412 -0.56521314
-0.99885762 4.2555418 -0.56624073
-1.0706873 4.5615659 -0.56740654
-1.1482227 4.8918982 -0.56616342
-1.2415045 5.2893171 -0.56647247
-1.3486111 5.745635 -0.56580132
-1.4783213 6.2982535 -0.56600028
-1.6364238 6.9718347 -0.56660092
-1.8302349 7.7975492 -0.56676519
-2.0788553 8.8567734 -0.5678094
-2.402715 10.236548 -0.56858122
-2.8453226 12.122238 -0.56957501
-3.4869444 14.855809 -0.57097119
-4.4974351 19.160913 -0.57267684
-6.3349676 26.989553 -0.57610422
-10.718111 45.663536 -0.58477139
-0.50679106 2.0457337 -0.56472158
-0.52567971 2.1219802 -0.5663386
-0.54291725 2.1915619 -0.56492776
-0.56023002 2.2614477 -0.56240922
-0.58386725 2.3568625 -0.56482452
-0.61088145 2.465909 -0.56874371
-0.63247961 2.5530932 -0.56593812
-0.65560114 2.6464264 -0.56296033
-0.68567532 2.7678251 -0.56411719
-0.72119737 2.9112151 -0.56748146
-0.7559188 3.0513728 -0.5677821
-0.789267 3.1859877 -0.56470269
-0.83164722 3.3570614 -0.56547135
-0.88010144 3.5526538 -0.56722695
-0.93004858 3.7542722 -0.56654227
-0.98425937 3.9731016 -0.56485754
-1.0494093 4.2360883 -0.56532657
-1.1223224 4.5304127 -0.56520534
-1.2122089 4.8932519 -0.56800228
-1.3072395 5.2768564 -0.56681669
-1.4224691 5.7419972 -0.56712264
-1.5567813 6.2841668 -0.56641191
-1.7228097 6.9543643 -0.5668599
-1.9313639 7.7962232 -0.56835204
-2.1870797 8.828455 -0.56767517
-2.5291758 10.209374 -0.56875628
-2.9959884 12.093729 -0.5699234
-3.6662257 14.799237 -0.57048643
-4.731492 19.099335 -0.572532
-6.6746655 26.943228 -0.57682365
-11.302818 45.62542 -0.5860188
-0.53394008 2.0471458 -0.566881
-0.55138689 2.1140375 -0.56598556
-0.56814438 2.1782863 -0.56326389
-0.58963025 2.260664 -0.56397486
-0.6111753 2.3432684 -0.56332517
-0.63541049 2.436187 -0.56364799
-0.66633862 2.5547667 -0.56808245
-0.68456894 2.6246624 -0.56007892
-0.72061449 2.7628624 -0.56486905
-0.75727999 2.903439 -0.567738
