# .PCD v0.7 - Point Cloud Data file format
VERSION 0.7
FIELDS x y z
SIZE 4 4 4
TYPE F F F
COUNT 1 1 1
WIDTH 1463
HEIGHT 1
VIEWPOINT 0 0 0 1 0 0 0
POINTS 1463
DATA ascii
1.6963843 -2.80391 -0.56381541
1.768912 -2.923789 -0.55872035
1.8778695 -3.1038823 -0.5622201
1.9787971 -3.2707031 -0.55994421
2.100672 -3.4721467 -0.56002116
2.2353346 -3.6947272 -0.55938888
2.3887796 -3.9483526 -0.55883235
2.5653183 -4.240149 -0.55838108
2.7705793 -4.5794196 -0.55805224
3.0072234 -4.970562 -0.55695057
3.2953038 -5.446723 -0.55695105
3.642693 -6.0209141 -0.55677259
4.0743127 -6.7343264 -0.55696058
4.5907273 -7.5878954 -0.55352038
5.29813 -8.757143 -0.55346048
6.2363958 -10.307979 -0.55109555
7.5830274 -12.533792 -0.54813254
9.6818829 -16.002935 -0.54422474
13.367673 -22.095083 -0.53664392
21.583586 -35.674953 -0.51983464
1.106199 -1.7786553 -0.56124181
1.1355183 -1.8257978 -0.55700672
1.1826416 -1.9015672 -0.56030405
1.2259715 -1.9712372 -0.56037366
1.2728817 -2.046664 -0.56065899
1.3256425 -2.1314981 -0.56194961
1.384266 -2.2257586 -0.56396651
1.4404006 -2.3160174 -0.56316119
1.4974309 -2.4077165 -0.56093037
1.5635571 -2.5140407 -0.56017357
1.6296837 -2.6203654 -0.55734128
1.7247126 -2.7731621 -0.56185466
1.8153875 -2.9189582 -0.56202042
1.9063559 -3.0652261 -0.55942184
2.0122709 -3.2355266 -0.55811596
2.1385934 -3.4386404 -0.55881613
2.2739263 -3.6562419 -0.55775338
2.4421258 -3.9266894 -0.55997413
2.6250136 -4.2207541 -0.56003541
2.8303785 -4.5509601 -0.55878311
3.0761251 -4.9460959 -0.55840522
3.3525546 -5.3905663 -0.55538219
3.7180407 -5.9782305 -0.55701113
4.1433277 -6.6620488 -0.55515456
4.6884661 -7.5385761 -0.55408633
5.3943815 -8.6736164 -0.55233198
6.3617973 -10.229122 -0.55102021
7.7379041 -12.441761 -0.54822749
9.8637533 -15.85991 -0.5434444
13.623506 -21.905209 -0.53606045
21.982124 -35.345016 -0.51892644
1.1266342 -1.7628063 -0.56056976
1.1727974 -1.8350363 -0.5641821
1.2017239 -1.8802963 -0.55834842
1.2428391 -1.944628 -0.55711168
1.2949048 -2.0260935 -0.55934346
1.347451 -2.1083107 -0.56016237
1.4031568 -2.1954715 -0.56062174
1.4633534 -2.289659 -0.56108493
1.5305669 -2.3948259 -0.56226939
1.5890447 -2.4863241 -0.55830938
1.6738369 -2.6189957 -0.56138521
1.7570448 -2.7491879 -0.56133229
1.846994 -2.8899286 -0.56076157
1.9509969 -3.0526583 -0.56146407
2.0504177 -3.2082186 -0.55771238
2.1855888 -3.4197164 -0.56006587
2.3267069 -3.6405187 -0.55967695
2.4927981 -3.9003959 -0.56055337
2.6714969 -4.1799998 -0.55894434
2.8844578 -4.5132127 -0.55846107
3.1315029 -4.899756 -0.55747867
3.4272907 -5.362565 -0.55679715
3.7837739 -5.920342 -0.55591053
4.2295575 -6.6178441 -0.55576283
4.7780905 -7.4761147 -0.55377197
5.4991913 -8.6043968 -0.5521884
6.4791059 -10.137636 -0.55034214
7.8825431 -12.333546 -0.54768866
10.058198 -15.73772 -0.54345441
13.874157 -21.70842 -0.53537917
22.387411 -35.02882 -0.51828665
1.1566588 -1.7616675 -0.56468779
1.1840909 -1.8034484 -0.55890465
1.2251506 -1.8659849 -0.55852997
1.2753817 -1.9424903 -0.56094974
1.3253313 -2.0185668 -0.56172222
1.3740878 -2.0928264 -0.5604952
1.4321237 -2.1812186 -0.56143653
1.4821478 -2.2574086 -0.55760586
1.5566972 -2.3709524 -0.5611161
1.6176862 -2.4638424 -0.55768573
1.6980678 -2.5862691 -0.55880374
1.7875839 -2.7226079 -0.56035089
1.8811725 -2.8651495 -0.56039959
1.9842464 -3.0221379 -0.56029588
2.0996768 -3.1979461 -0.56037253
2.2228537 -3.3855524 -0.55890495
2.366462 -3.6042774 -0.55853671
2.5414658 -3.8708196 -0.56075168
2.7074065 -4.1235585 -0.55580676
2.936554 -4.4725652 -0.55785733
3.1885118 -4.8563132 -0.55695474
3.4887962 -5.3136663 -0.55613226
3.8517981 -5.8665423 -0.55526417
4.2961421 -6.5433073 -0.55389786
4.8700209 -7.4173627 -0.55381393
5.6065516 -8.5391474 -0.55238354
6.6050324 -10.059899 -0.55048949
8.0291758 -12.228963 -0.54738742
10.242071 -15.599349 -0.54298413
14.127256 -21.516741 -0.53489572
22.779743 -34.695049 -0.51745355
1.1773372 -1.7459854 -0.56425887
1.2079269 -1.7913499 -0.55971605
1.2520313 -1.8567567 -0.56033361
1.2983931 -1.925511 -0.56061465
1.3459929 -1.9961013 -0.56003398
1.3960377 -2.0703173 -0.55902207
1.4608394 -2.1664178 -0.56220806
1.508828 -2.2375851 -0.5572499
1.5779492 -2.3400912 -0.55836219
1.6526537 -2.4508777 -0.55930865
1.7296069 -2.5649989 -0.55876106
1.8228163 -2.703228 -0.56093299
1.9104686 -2.833216 -0.55870622
2.0155711 -2.9890823 -0.55872023
2.1406782 -3.1746156 -0.56085449
2.2598236 -3.3513076 -0.55779684
2.4227364 -3.5929067 -0.5613488
2.5804987 -3.8268676 -0.55893904
2.7720158 -4.1108866 -0.55865085
2.9935651 -4.4394431 -0.55827516
3.2507107 -4.8207889 -0.5574227
3.5604329 -5.2801051 -0.55715972
3.9239163 -5.8191495 -0.55530339
4.3895092 -6.5096216 -0.5555734
4.9638543 -7.3613725 -0.55414891
5.704514 -8.4597683 -0.55174452
6.7258391 -9.9743881 -0.55029428
8.1770897 -12.126586 -0.54726422
10.42307 -15.457364 -0.54246217
14.381987 -21.328419 -0.53457004
23.169428 -34.360153 -0.51666886
1.1865066 -1.7137429 -0.55851173
1.2331052 -1.7810478 -0.56119239
1.2707483 -1.835418 -0.55856729
1.3319427 -1.9238048 -0.56484371
1.368806 -1.9770488 -0.55936855
1.4284589 -2.0632091 -0.5618031
1.4792986 -2.1366398 -0.55915856
1.5504911 -2.2394674 -0.5624243
1.6081219 -2.3227072 -0.55889022
1.6945434 -2.4475307 -0.56325746
1.7659811 -2.5507126 -0.56033701
1.8530725 -2.6765039 -0.56007349
1.9409343 -2.8034079 -0.55749243
2.0514178 -2.962986 -0.55851513
2.1786039 -3.1466885 -0.56061101
2.3079145 -3.3334594 -0.55950737
2.4492533 -3.5376036 -0.55737168
2.6270623 -3.7944241 -0.55887634
2.8232977 -4.0778584 -0.55883813
3.0407841 -4.3919873 -0.55696738
3.3045843 -4.7730098 -0.5565545
3.6154237 -5.2219734 -0.55567473
3.9979985 -5.7745495 -0.55569661
4.4582791 -6.4393606 -0.5542137
5.042469 -7.2831411 -0.55288559
5.8043485 -8.3835697 -0.55138808
6.8429308 -9.8836555 -0.54988927
8.3142099 -12.008713 -0.54651719
10.608267 -15.322157 -0.54225403
14.625893 -21.125055 -0.53394026
23.541746 -34.002758 -0.51560867
1.2048165 -1.6952649 -0.55727589
1.2598367 -1.7726824 -0.5633952
1.2990204 -1.8278168 -0.56107283
1.3522891 -1.9027698 -0.56350726
1.398899 -1.9683533 -0.56173271
1.4571092 -2.0502594 -0.56311321
1.507475 -2.1211278 -0.55990779
1.5742769 -2.2151229 -0.56112957
1.6425979 -2.3112555 -0.56095243
1.722304 -2.423408 -0.56253725
1.7924837 -2.5221558 -0.5588634
1.8885676 -2.6573529 -0.5608831
1.9941719 -2.8059459 -0.56283098
2.0962934 -2.9496384 -0.56081563
2.2078187 -3.1065626 -0.5582568
2.3456035 -3.3004358 -0.55876333
2.5019131 -3.5203748 -0.55946207
2.6761818 -3.7655838 -0.5594331
2.8697703 -4.0379772 -0.55816638
3.0994434 -4.3611441 -0.55784702
3.3648767 -4.7346282 -0.55686158
3.6812198 -5.1797457 -0.55595607
4.0655384 -5.7205105 -0.55526519
4.53969 -6.3876762 -0.55452794
5.1333199 -7.2229571 -0.55306679
5.9021482 -8.3047552 -0.5509361
6.9547687 -9.7858686 -0.54916519
8.4624157 -11.907239 -0.54659349
10.793035 -15.186589 -0.54211211
14.864321 -20.915188 -0.53321528
23.934422 -33.677483 -0.51510018
1.2368432 -1.6957798 -0.56240207
1.273872 -1.7465483 -0.56002527
1.320802 -1.8108917 -0.56082046
1.3739729 -1.8837919 -0.56284791
1.4285027 -1.9585553 -0.56390679
1.4816948 -2.0314846 -0.56291819
1.5332863 -2.1022196 -0.55985111
1.6001285 -2.1938639 -0.56068617
1.6690043 -2.2882962 -0.56031877
1.7497398 -2.398989 -0.56182086
1.8189408 -2.4938672 -0.55750906
1.9212484 -2.6341369 -0.56092697
2.0180562 -2.7668655 -0.55992723
2.1300156 -2.920368 -0.56018794
2.2547245 -3.0913508 -0.56046307
2.3897114 -3.2764251 -0.55963093
2.541749 -3.4848769 -0.55874544
2.7207499 -3.7302971 -0.55911881
2.9126656 -3.9934239 -0.55691653
3.1506288 -4.3196845 -0.55745721
3.4273384 -4.6990685 -0.55759388
3.7470381 -5.1373944 -0.55631369
4.1375737 -5.6728396 -0.55553448
4.6146631 -6.3269558 -0.55414081
5.2248769 -7.1635923 -0.55339885
6.0102391 -8.2403669 -0.55152577
7.0773101 -9.7033796 -0.54937828
8.5996284 -11.790562 -0.54605037
10.952656 -15.01669 -0.54081398
15.108635 -20.714766 -0.53280175
24.29987 -33.316452 -0.51410949
1.2532479 -1.674628 -0.56045568
1.3010645 -1.7385222 -0.56253904
1.3420649 -1.793308 -0.56044328
1.3918067 -1.8597746 -0.56074297
1.4492196 -1.9364915 -0.56264246
1.5034738 -2.0089877 -0.56176466
1.552843 -2.0749562 -0.55763352
1.6282849 -2.1757641 -0.56113505
1.6875702 -2.2549829 -0.55720061
1.7802671 -2.3788474 -0.56218803
1.8624328 -2.4886396 -0.56141764
1.9546586 -2.6118746 -0.56126207
2.0561471 -2.7474866 -0.56107968
2.1559269 -2.8808153 -0.55764401
2.2895133 -3.0593178 -0.5597173
2.4355595 -3.2544692 -0.56095368
2.5868387 -3.4566128 -0.55927157
2.7570267 -3.6840231 -0.55722225
2.9638994 -3.9604528 -0.55735892
3.1971564 -4.2721381 -0.55635273
3.4801116 -4.6502314 -0.55683458
3.813133 -5.0952249 -0.55678254
4.2007413 -5.6131587 -0.55470651
4.684062 -6.2589865 -0.55319065
5.3069968 -7.0913715 -0.55281907
6.1161017 -8.1725225 -0.55197674
7.1844563 -9.60009 -0.54849058
8.7404985 -11.679321 -0.54583484
11.144966 -14.892244 -0.5412268
15.354095 -20.516613 -0.53252095
24.677958 -32.975441 -0.51349109
1.2658702 -1.6488369 -0.55699134
1.3190801 -1.7181444 -0.56115133
1.3678668 -1.7816906 -0.56202668
1.4158556 -1.8441976 -0.56125325
1.4710634 -1.9161075 -0.56193316
1.5274345 -1.9895327 -0.56153405
1.5883555 -2.0688844 -0.56120825
1.661356 -2.1639698 -0.56331933
1.7310504 -2.2547491 -0.56235993
1.7999686 -2.3445172 -0.55926329
1.8871115 -2.4580238 -0.55970341
1.9867469 -2.5878019 -0.56129646
2.0825953 -2.7126477 -0.55915242
2.198051 -2.8630323 -0.55939132
2.3275299 -3.031683 -0.55985528
2.4671388 -3.2135277 -0.55908364
2.6258547 -3.4202607 -0.55857182
2.8098989 -3.6599839 -0.55877012
3.0162849 -3.9288087 -0.55808306
3.2506702 -4.2341032 -0.55656284
3.5349391 -4.604372 -0.5565061
3.8711891 -5.0423489 -0.55616421
4.2703686 -5.5622926 -0.55482703
4.7706194 -6.2138858 -0.55434728
5.3971329 -7.0299397 -0.55316192
6.2056727 -8.0830889 -0.55104858
7.3101888 -9.5217571 -0.54910934
8.8709507 -11.5547 -0.54506731
11.320568 -14.745405 -0.5409084
15.588788 -20.304901 -0.53196102
25.047798 -32.625568 -0.51280028
1.2869521 -1.6342959 -0.557383
1.3402334 -1.7019577 -0.56120473
1.3894982 -1.7645189 -0.56195712
1.4330816 -1.8198653 -0.55916876
1.4994153 -1.9041021 -0.56377685
1.5481248 -1.9659582 -0.56021088
1.6136403 -2.0491562 -0.56119663
1.6772311 -2.1299098 -0.55977941
1.7587956 -2.2334883 -0.5624088
1.8337467 -2.3286684 -0.56081909
1.9087827 -2.4239564 -0.55724853
2.0116537 -2.5545917 -0.55941617
2.1084101 -2.6774626 -0.55720174
2.2266896 -2.8276653 -0.55778867
2.3569186 -2.9930427 -0.55802953
2.5049784 -3.1810634 -0.55875224
2.663944 -3.3829329 -0.55778325
2.8491745 -3.6181567 -0.55769092
3.0638525 -3.8907754 -0.55798995
3.2954209 -4.1848431 -0.5553723
3.5829802 -4.550014 -0.55521917
3.9317305 -4.9928904 -0.55599952
4.3346186 -5.5045166 -0.55433875
4.8432002 -6.1503625 -0.55395132
5.4755301 -6.9533563 -0.55239201
6.2992167 -7.9993529 -0.55057901
7.4129615 -9.4136934 -0.54809272
9.0164213 -11.449921 -0.54531348
11.489532 -14.590516 -0.54036832
15.820803 -20.09078 -0.53140789
25.40378 -32.26017 -0.51192826
1.3094331 -1.6214241 -0.55844223
1.359458 -1.6833681 -0.56054473
1.4071373 -1.7424077 -0.56038344
1.4650902 -1.8141687 -0.56291127
1.5150529 -1.8760358 -0.56094044
1.5721307 -1.9467131 -0.56019318
1.6378727 -2.0281191 -0.56090862
1.7075019 -2.1143384 -0.56116271
1.7761896 -2.1993918 -0.55928046
1.8545773 -2.2964566 -0.55851132
1.9472001 -2.4111481 -0.55976617
2.0442014 -2.5312614 -0.55976939
2.157752 -2.6718671 -0.56151652
2.26689 -2.8070087 -0.55917031
2.3936248 -2.9639399 -0.5580489
2.5505612 -3.1582687 -0.56021494
2.7083497 -3.3536525 -0.55840433
2.8983679 -3.5889452 -0.55863947
3.1156375 -3.8579822 -0.55873907
3.3563094 -4.1559978 -0.55697918
3.6443884 -4.5127158 -0.55609417
3.9900601 -4.9407487 -0.55561471
4.4108481 -5.4617953 -0.55545652
4.9164224 -6.0878296 -0.55372226
5.5661163 -6.8923225 -0.55293888
6.3959675 -7.9198976 -0.5504818
7.5360918 -9.3316727 -0.54867113
9.1561413 -11.337722 -0.54529077
11.65975 -14.437851 -0.53998339
16.059811 -19.886288 -0.53118223
25.762678 -31.901001 -0.51121706
1.3391502 -1.6171321 -0.56259286
1.3766668 -1.6624364 -0.55916929
1.4341315 -1.7318296 -0.56261045
1.4756536 -1.781971 -0.55850875
1.5355499 -1.8543005 -0.56004488
1.5977683 -1.9294343 -0.56083226
1.6629233 -2.0081143 -0.56098878
1.7232425 -2.0809546 -0.55788416
1.8101823 -2.1859412 -0.56147784
1.884865 -2.2761266 -0.55916154
1.9724541 -2.3818974 -0.55856401
2.073509 -2.5039296 -0.55932128
2.1724467 -2.623405 -0.55690372
2.3008373 -2.7784467 -0.55907428
2.4351022 -2.9405825 -0.5592466
2.5750215 -3.1095464 -0.55714691
2.7524805 -3.3238425 -0.55903405
2.9376955 -3.5475047 -0.55776966
3.145005 -3.7978475 -0.55558872
3.4038265 -4.1103954 -0.55643493
3.6969135 -4.4643216 -0.55569047
4.0493598 -4.8899293 -0.55545729
4.4733152 -5.4018893 -0.55491626
4.9872746 -6.0225368 -0.55331963
5.6463089 -6.8183742 -0.55253458
6.4955764 -7.8439331 -0.55071181
7.6520615 -9.2404823 -0.54880029
9.2851839 -11.212609 -0.54472351
11.834025 -14.290541 -0.53987551
16.29215 -19.674088 -0.53082514
26.113997 -31.53476 -0.51045525
1.3534484 -1.5940851 -0.56032246
1.4002913 -1.6492565 -0.56048536
1.4518931 -1.7100328 -0.56128687
1.5021766 -1.7692565 -0.56027079
1.5503421 -1.8259856 -0.55720866
1.6195334 -1.9074787 -0.56019664
1.682521 -1.9816651 -0.55933738
1.7505537 -2.0617938 -0.55847591
1.8320538 -2.1577842 -0.55998963
1.9100813 -2.2496846 -0.55839342
2.0005233 -2.3562069 -0.55826586
2.1005943 -2.4740701 -0.55837893
2.2272971 -2.6232998 -0.56265283
2.3384881 -2.7542601 -0.55995119
2.4692407 -2.9082599 -0.55883163
2.6170111 -3.0823033 -0.5579893
2.7810593 -3.2755184 -0.55661595
2.9826674 -3.5129716 -0.55806446
3.1954751 -3.7636154 -0.55628705
3.4493797 -4.0626631 -0.55567312
3.7578142 -4.4259357 -0.55662203
4.1210718 -4.8537784 -0.55706495
4.5329185 -5.3388495 -0.55412436
5.0597682 -5.9593711 -0.55319065
5.7259402 -6.7439852 -0.55217028
6.5800562 -7.749959 -0.54975313
7.7595024 -9.1391048 -0.54840469
9.4168482 -11.091118 -0.54440564
12.005819 -14.140396 -0.53973967
16.515896 -19.452343 -0.53028172
26.461443 -31.166162 -0.50971717
1.3688025 -1.5725627 -0.55863136
1.4252133 -1.6373707 -0.56235933
1.4802271 -1.7005739 -0.5641138
1.521502 -1.747993 -0.55941957
1.5868521 -1.8230711 -0.56223124
1.6380239 -1.8818604 -0.55854607
1.7200034 -1.9760432 -0.56367767
1.7806193 -2.0456824 -0.5600003
1.862322 -2.1395473 -0.56115741
1.9493213 -2.2394974 -0.56177199
2.0374453 -2.3407395 -0.56049478
2.1354077 -2.4532847 -0.5595718
2.2542233 -2.5897875 -0.56136781
2.371335 -2.7243321 -0.55975258
2.4903641 -2.8610799 -0.55560809
2.64906 -3.0433993 -0.55680132
2.8308656 -3.2522688 -0.55853814
3.0302274 -3.4813073 -0.55891132
3.2459745 -3.7291708 -0.55705339
3.5072837 -4.0293784 -0.55697721
3.8065443 -4.3731871 -0.55583274
4.1724577 -4.79357 -0.55600131
4.5963759 -5.2805929 -0.55390215
5.129293 -5.8928399 -0.55282784
5.8120456 -6.6772275 -0.55251414
6.6840339 -7.6790204 -0.55050963
7.8593135 -9.0292521 -0.54757059
9.5630827 -10.986645 -0.54500836
12.156843 -13.966513 -0.5387677
16.732088 -19.222828 -0.52959371
26.81472 -30.806362 -0.50918686
1.3909208 -1.5588483 -0.55979294
1.442547 -1.6167073 -0.56131226
1.4939394 -1.6743044 -0.56145102
1.5490955 -1.7361196 -0.5616734
1.600558 -1.7937952 -0.55922997
1.6628501 -1.863608 -0.55915523
1.7299287 -1.9387851 -0.55907524
1.8040589 -2.0218651 -0.55951071
1.8825897 -2.1098769 -0.55940473
1.9711776 -2.2091601 -0.56019974
2.0678463 -2.3174996 -0.56097615
2.1597612 -2.4205117 -0.55811185
2.2871163 -2.5632427 -0.56166756
2.4028552 -2.6929545 -0.5593341
2.5375164 -2.8438735 -0.55828393
2.7052641 -3.0318739 -0.5607363
2.874953 -3.2220495 -0.55937731
3.0741646 -3.445312 -0.55915904
3.2948751 -3.6926692 -0.55761081
3.5576477 -3.9871666 -0.55714726
3.8599017 -4.325912 -0.55581468
4.2173314 -4.7264948 -0.55419439
4.6537356 -5.2155867 -0.55304408
5.2078567 -5.836607 -0.55351818
5.89469 -6.6063628 -0.5526064
6.7709751 -7.5884428 -0.54994339
7.9684687 -8.9305115 -0.54748327
9.6802893 -10.849002 -0.54404408
12.324861 -13.812856 -0.53864574
16.963474 -19.011496 -0.52947807
27.150843 -30.428795 -0.50842595
1.408942 -1.5404906 -0.55937982
1.4545445 -1.590351 -0.55832911
1.5203787 -1.6623319 -0.56366277
1.5641747 -1.7102169 -0.55947351
1.6260474 -1.7778665 -0.5604552
1.6947374 -1.8529699 -0.56217349
1.7588817 -1.9231031 -0.56074744
1.8263179 -1.9968356 -0.55875671
1.920729 -2.1000617 -0.56302178
1.9964415 -2.1828432 -0.55970913
2.0886173 -2.2836251 -0.55895096
2.1947241 -2.3996387 -0.55947942
2.3069394 -2.5223312 -0.55887657
2.4379427 -2.665566 -0.55982965
2.57377 -2.8140752 -0.55860484
2.7349355 -2.990288 -0.55922264
2.9028745 -3.173907 -0.55717427
3.1120031 -3.4025614 -0.55838907
3.3348789 -3.6462464 -0.55675089
3.5925171 -3.9279397 -0.55500203
3.9127984 -4.2781243 -0.5558145
4.2799816 -4.6795902 -0.55482364
4.7226739 -5.1636157 -0.55364919
5.2649841 -5.7565598 -0.55202484
5.9655967 -6.5225863 -0.55169302
6.8656836 -7.5067115 -0.55009693
8.0751858 -8.8291416 -0.54731482
9.7974415 -10.712199 -0.54318416
12.485053 -13.650744 -0.53827012
17.175348 -18.778959 -0.52884382
27.492161 -30.059021 -0.50785762
1.443368 -1.5396823 -0.56548828
1.4783922 -1.5770437 -0.55999708
1.5324014 -1.6346568 -0.56062567
1.6008146 -1.7076349 -0.56502569
1.6521822 -1.7624303 -0.56195104
1.7088097 -1.8228365 -0.55936396
1.7798274 -1.8985931 -0.55993992
1.8586228 -1.9826465 -0.56113905
1.9439272 -2.0736432 -0.56230497
2.0277946 -2.1631069 -0.56099969
2.1198683 -2.2613244 -0.55983043
2.226939 -2.3755398 -0.56020284
2.3401804 -2.4963379 -0.55945081
2.4749599 -2.640111 -0.5608328
2.6070209 -2.7809842 -0.55835742
2.7643831 -2.9488471 -0.55778742
2.9413126 -3.1375828 -0.55710465
3.146534 -3.3564985 -0.55713719
3.3807619 -3.6063561 -0.55696553
3.6454866 -3.8887455 -0.55575585
3.9673731 -4.232111 -0.55613256
4.3346887 -4.6239371 -0.55450284
4.7857499 -5.1050973 -0.55364263
5.3507757 -5.7078261 -0.55361921
6.0499477 -6.4536533 -0.55211306
6.9440041 -7.4073691 -0.54903275
8.1866636 -8.7329502 -0.54755086
9.926404 -10.588781 -0.54307425
12.632327 -13.475266 -0.53743517
17.382355 -18.542259 -0.52815735
27.807987 -29.663582 -0.50691539
1.4525336 -1.5117686 -0.56175369
1.4902412 -1.5510137 -0.55721891
1.5543705 -1.6177583 -0.56134284
1.6020442 -1.6673762 -0.55818075
1.6732597 -1.741496 -0.56179404
1.7368908 -1.807722 -0.56123728
1.7979631 -1.8712847 -0.55836415
1.8835361 -1.9603474 -0.56134051
1.9659709 -2.046144 -0.56136101
2.0478957 -2.1314096 -0.55926764
2.1536226 -2.2414484 -0.56142336
2.2482765 -2.339962 -0.55829012
2.3627882 -2.4591436 -0.55758435
2.5070705 -2.6093097 -0.56079608
2.6224589 -2.7294037 -0.55443376
2.8062727 -2.9207137 -0.55895078
2.9772198 -3.0986321 -0.55664682
3.1856508 -3.315563 -0.55680245
3.4302275 -3.5701137 -0.55784029
3.6960683 -3.8467953 -0.5562138
4.0035539 -4.1668205 -0.55398011
4.3923235 -4.571444 -0.55464286
4.8376102 -5.0348897 -0.55243814
5.4087815 -5.629354 -0.55241704
6.1130233 -6.3623152 -0.55068815
7.0428534 -7.3300638 -0.54968029
8.2876444 -8.625618 -0.54716945
10.065916 -10.476409 -0.54361796
12.79888 -13.320824 -0.53751171
17.584961 -18.302082 -0.52743548
28.13176 -29.278984 -0.50621623
1.4645275 -1.4872098 -0.55927742
1.5234362 -1.5470309 -0.5624755
1.5712085 -1.595543 -0.56029594
1.6319879 -1.6572638 -0.56147105
1.6940106 -1.7202471 -0.5616166
1.7602233 -1.7874852 -0.56163192
1.8197781 -1.8479624 -0.55803984
1.9073927 -1.9369341 -0.56130975
1.994284 -2.025171 -0.5622924
2.0689008 -2.1009436 -0.55790669
2.1754313 -2.2091238 -0.55998486
2.2747076 -2.309938 -0.55775803
2.3986642 -2.4358141 -0.55894011
2.5430896 -2.5824764 -0.56170738
2.6795475 -2.7210479 -0.55938715
2.8305166 -2.8743551 -0.55669773
3.0177102 -3.0644479 -0.5571298
3.2322226 -3.2822826 -0.55784589
3.4770806 -3.5309329 -0.5583567
3.7391007 -3.7970111 -0.55562139
4.067234 -4.1302266 -0.55572218
4.4438643 -4.5126901 -0.5541023
4.9143791 -4.9904919 -0.55415529
5.4813309 -5.5662246 -0.55279446
6.2056055 -6.3017168 -0.55200607
7.1332245 -7.2437024 -0.54974014
8.3732243 -8.5029078 -0.54587537
10.189039 -10.346846 -0.54335511
12.950622 -13.151198 -0.53705233
17.808073 -18.083879 -0.5274179
28.459635 -28.900414 -0.50568318
1.4755514 -1.4620044 -0.55657995
1.5227712 -1.5087907 -0.55533803
1.5961637 -1.5815095 -0.56221771
1.6550437 -1.6398489 -0.56242329
1.7054839 -1.689826 -0.55848926
1.7870424 -1.7706357 -0.56319952
1.8503523 -1.8333644 -0.56046003
1.9251193 -1.9074448 -0.5595817
2.0051103 -1.9867015 -0.55841476
2.1079261 -2.0885735 -0.56146246
2.1986537 -2.178468 -0.55902487
2.3144524 -2.2932036 -0.56054688
2.437274 -2.4148974 -0.56097507
2.5640547 -2.5405142 -0.55939579
2.7083731 -2.6835077 -0.55847394
2.8704638 -2.8441103 -0.557634
3.0535951 -3.0255601 -0.55684417
3.2769456 -3.24686 -0.55863178
3.5077839 -3.475579 -0.55638218
3.7877235 -3.7529488 -0.55594712
4.1099486 -4.0722156 -0.55467469
4.5105567 -4.4691458 -0.55552381
4.9594955 -4.9139628 -0.55238736
5.5463762 -5.4954553 -0.55249757
6.268434 -6.2108841 -0.55075973
7.2083941 -7.1422143 -0.5487234
8.487565 -8.4096413 -0.5465467
10.311477 -10.216808 -0.54314375
13.121511 -13.001042 -0.53746879
18.016832 -17.851421 -0.52705967
28.775021 -28.510839 -0.50501961
1.5105089 -1.4602757 -0.56295025
1.5497321 -1.4981945 -0.55840963
1.626941 -1.5728357 -0.5662033
1.6737344 -1.6180731 -0.56197101
1.7224656 -1.6651835 -0.55730289
1.7921647 -1.7325648 -0.55805743
1.8651735 -1.8031455 -0.55819118
1.9358141 -1.8714371 -0.5559594
2.0411026 -1.9732242 -0.56163865
2.1420445 -2.0708091 -0.56372511
2.2258298 -2.151808 -0.55916482
2.337949 -2.2601986 -0.55946416
2.4530253 -2.371448 -0.55784661
2.5925343 -2.5063174 -0.55884314
2.7492723 -2.6578431 -0.56012601
2.9016254 -2.8051295 -0.55694467
3.0934455 -2.9905705 -0.55736315
3.3128135 -3.2026434 -0.55799067
3.5473647 -3.4293942 -0.5559296
3.8500791 -3.7220416 -0.5583396
4.1505384 -4.0125089 -0.55345196
4.5504017 -4.3990741 -0.55372715
5.0176611 -4.8507943 -0.55218053
5.6107612 -5.424171 -0.55222547
6.3522606 -6.1410108 -0.55144846
7.3008232 -7.0580282 -0.54911125
8.5857534 -8.3002272 -0.54625589
10.418878 -10.07239 -0.54223603
13.255979 -12.815141 -0.5364815
18.216261 -17.610464 -0.52651912
29.091501 -28.124041 -0.50446647
1.5234692 -1.4369894 -0.56115258
1.5753123 -1.4858896 -0.56100082
1.6301228 -1.5375888 -0.56068832
1.6920053 -1.5959585 -0.56147403
1.7607019 -1.6607556 -0.56302434
1.8138788 -1.7109138 -0.55822569
1.8849174 -1.77792 -0.55751508
1.9689684 -1.8571998 -0.55888021
2.0448253 -1.9287506 -0.55609494
2.1418741 -2.0202906 -0.5571003
2.2597044 -2.1314323 -0.56104809
2.3724859 -2.2378118 -0.56110156
2.4793611 -2.3386199 -0.5572539
2.6205363 -2.4717815 -0.5582853
2.7687318 -2.6115646 -0.55750585
2.9383881 -2.7715905 -0.55741733
3.134227 -2.9563127 -0.55811906
3.3451142 -3.1552289 -0.55685419
3.5929103 -3.3889585 -0.55649447
3.8796797 -3.6594496 -0.55606455
4.2158957 -3.9765804 -0.5556047
4.6131825 -4.351315 -0.55481386
5.0921903 -4.8031321 -0.55384082
5.6764407 -5.3542171 -0.55216807
6.4116101 -6.0476551 -0.55010343
7.3894835 -6.9700193 -0.54929185
8.6783524 -8.1857252 -0.54570204
10.54516 -9.9465637 -0.54240191
13.408049 -12.64694 -0.53630161
18.421312 -17.375626 -0.52623051
29.399549 -27.730682 -0.50385714
1.5351042 -1.4127023 -0.55899745
1.5838531 -1.4575644 -0.55761755
1.6465875 -1.5152966 -0.55990028
1.7187402 -1.5816962 -0.56384903
1.7732841 -1.631891 -0.56058866
1.8388523 -1.6922312 -0.55946523
1.9184208 -1.7654552 -0.56096125
2.0047512 -1.8449019 -0.56255519
2.0791743 -1.9133909 -0.55899549
2.1815379 -2.0075927 -0.5609535
2.2836089 -2.1015251 -0.56052482
2.3835299 -2.1934786 -0.55729234
2.5007057 -2.3013115 -0.5556491
2.6531539 -2.4416041 -0.55879581
2.7997849 -2.5765436 -0.55733705
2.9710267 -2.7341313 -0.55718899
3.1653626 -2.912972 -0.55724287
3.3785698 -3.109179 -0.55601704
3.6332116 -3.3435171 -0.55632669
3.9270146 -3.6138935 -0.55643767
4.2731881 -3.9324648 -0.5567404
4.6624575 -4.2906957 -0.55435276
5.1418595 -4.7318726 -0.55287284
5.7362084 -5.278831 -0.55162609
6.493351 -5.9756026 -0.55077064
7.4658451 -6.8705544 -0.54864663
8.7884922 -8.0877399 -0.54633284
10.655883 -9.8062344 -0.54185379
13.56551 -12.483862 -0.53641921
18.611662 -17.127659 -0.52561206
29.702391 -27.334066 -0.50324887
1.563555 -1.4037733 -0.56302941
1.6031744 -1.439344 -0.55814654
1.6705207 -1.4998081 -0.5617249
1.7222271 -1.5462306 -0.55871326
1.7920784 -1.6089437 -0.56023335
1.8571132 -1.6673325 -0.55874103
1.9371589 -1.7391982 -0.56014466
2.0170162 -1.8108947 -0.55970603
2.1094451 -1.8938783 -0.56083047
2.2060804 -1.9806384 -0.5609594
2.3019657 -2.066725 -0.55875051
2.4185138 -2.1713629 -0.55918688
2.5325899 -2.2737815 -0.5564791
2.6864176 -2.4118893 -0.55951297
2.8355584 -2.5457892 -0.5581845
3.0027931 -2.6959338 -0.55688727
3.213788 -2.8853669 -0.55947959
3.4223623 -3.0726268 -0.55696398
3.6711144 -3.2959588 -0.55588257
3.974575 -3.5684083 -0.55691725
4.3047771 -3.8648667 -0.55462235
4.7152176 -4.2333636 -0.55439466
5.2041435 -4.6723256 -0.55335039
5.7915006 -5.1996598 -0.55075306
6.5496545 -5.8803372 -0.5493716
7.5503216 -6.7787452 -0.54868764
8.8696861 -7.9632821 -0.54525191
10.77532 -9.6741772 -0.54183722
13.703906 -12.303487 -0.53586882
18.822594 -16.89909 -0.52566081
29.99966 -26.933958 -0.50263608
1.5824237 -1.3859549 -0.56364447
1.6319718 -1.4293513 -0.56201088
1.6812606 -1.4725205 -0.55920541
1.7497925 -1.5325435 -0.56149983
1.8162413 -1.5907423 -0.56162965
1.8820826 -1.648409 -0.56011266
1.9573163 -1.7143019 -0.55983561
2.0376992 -1.7847048 -0.55931342
2.135613 -1.8704618 -0.56163019
2.2341285 -1.956746 -0.56193072
2.3268957 -2.0379953 -0.5586766
2.4467852 -2.1429999 -0.55958855
2.5668612 -2.2481678 -0.55789298
2.7104855 -2.37396 -0.55840367
2.8708537 -2.5144174 -0.55900383
3.0448117 -2.6667771 -0.5585562
3.2337809 -2.8322847 -0.55685502
3.4699008 -3.0390887 -0.55857664
3.7113278 -3.2505407 -0.55587739
4.0032763 -3.506242 -0.55485576
4.3580561 -3.8169732 -0.55539763
4.7684278 -4.1763945 -0.55457085
5.2642174 -4.6106281 -0.55366784
5.8691573 -5.140461 -0.55208522
6.6332455 -5.8096819 -0.5503493
7.6391268 -6.6906762 -0.5491209
8.9687319 -7.8552022 -0.54536152
10.892193 -9.5398521 -0.54177445
13.845334 -12.12634 -0.53552794
19.010185 -16.649939 -0.52514225
30.28828 -26.527781 -0.50196856
1.5908756 -1.3591574 -0.56065965
1.6494963 -1.4092398 -0.5620358
1.6976383 -1.4503696 -0.55867869
1.7634239 -1.5065733 -0.55988705
1.8310935 -1.5643866 -0.56023163
1.9066211 -1.6289132 -0.56141204
1.9811995 -1.6926289 -0.56067127
2.0594006 -1.7594396 -0.5592894
2.1567817 -1.8426368 -0.56119615
2.2510123 -1.9231423 -0.56018704
2.3528221 -2.010123 -0.55892467
2.4661839 -2.1069732 -0.55805761
2.5962479 -2.2180927 -0.55830979
2.7282529 -2.3308706 -0.5561173
2.904814 -2.4817147 -0.55963212
3.0709157 -2.6236229 -0.55738455
3.2668569 -2.7910244 -0.55659878
3.4857671 -2.9780495 -0.55519384
3.7644444 -3.2161362 -0.55786759
4.0612993 -3.4697528 -0.55694216
4.4023986 -3.7611694 -0.55511272
4.8122144 -4.1112938 -0.55374193
5.3135052 -4.5395694 -0.55293894
5.9289942 -5.0654092 -0.55181307
6.6991849 -5.7234187 -0.54993951
7.7007685 -6.5791168 -0.54769516
9.0700722 -7.7489753 -0.54568845
10.999186 -9.3971052 -0.54130787
13.993645 -11.955408 -0.53553778
19.196016 -16.40003 -0.5246653
30.59343 -26.137358 -0.50166136
1.6142358 -1.3451345 -0.56302053
1.6584741 -1.3819979 -0.55926222
1.7261024 -1.4383522 -0.56218296
1.7745287 -1.4787058 -0.55759764
1.8466291 -1.5387866 -0.55915338
1.919223 -1.5992787 -0.55928981
1.9953645 -1.6627271 -0.5588516
2.0836945 -1.7363321 -0.56004637
2.1791632 -1.8158857 -0.56116742
2.2687302 -1.8905212 -0.55876887
2.3699031 -1.9748281 -0.55717152
2.4947546 -2.0788662 -0.55869603
2.6184137 -2.1819108 -0.55726475
2.7576597 -2.2979436 -0.55630964
2.9179811 -2.4315388 -0.5563665
3.1071715 -2.5891902 -0.55814421
3.3021593 -2.7516725 -0.55680656
3.5238643 -2.9364181 -0.55546868
3.8009872 -3.1673434 -0.55746919
4.1073198 -3.4226086 -0.55743957
4.4399166 -3.6997597 -0.55406511
4.8637142 -4.0529084 -0.55389142
5.3708558 -4.4755068 -0.55313832
5.9893961 -4.9909329 -0.55168116
6.758975 -5.6322198 -0.5491209
7.781579 -6.4843502 -0.54773027
9.1507483 -7.6252718 -0.54485983
11.108961 -9.25704 -0.54106742
14.129956 -11.77442 -0.53517306
19.384251 -16.152798 -0.5243417
30.861065 -25.71637 -0.50082678
1.6217717 -1.3179673 -0.55995405
1.6811876 -1.3662529 -0.56121391
1.7361187 -1.4108939 -0.5597524
1.7996978 -1.4625628 -0.5598129
1.8690283 -1.5189056 -0.560238
1.9363317 -1.5736012 -0.55859452
2.01794 -1.6399219 -0.55948436
2.1091237 -1.7140243 -0.56117386
2.1950233 -1.7838324 -0.55956072
2.2934802 -1.8638455 -0.55917758
2.393342 -1.9450005 -0.55701715
2.5191662 -2.0472543 -0.55848306
2.6545091 -2.1572435 -0.55925894
2.7877882 -2.2655556 -0.55672556
2.966454 -2.4107521 -0.55991429
3.1315415 -2.544914 -0.55685848
3.3322752 -2.7080443 -0.55622768
3.5762551 -2.9063199 -0.55805159
3.8402164 -3.1208339 -0.55755228
4.1415763 -3.3657403 -0.5564298
4.4996333 -3.6567228 -0.55586398
4.9156342 -3.9947948 -0.55416816
5.4263406 -4.4098315 -0.55322623
6.0438619 -4.9116735 -0.55109328
6.8308673 -5.55125 -0.5493744
7.8630629 -6.3900857 -0.54789358
9.2574644 -7.5232759 -0.54566449
11.222599 -9.120285 -0.54109913
14.262519 -11.59074 -0.53475535
19.573227 -15.906601 -0.52412307
31.142462 -25.308586 -0.50030524
1.6344912 -1.2952621 -0.55880427
1.6955111 -1.3436177 -0.56043774
1.7601395 -1.3948328 -0.5619247
1.8223438 -1.4441271 -0.56129104
1.8898674 -1.4976366 -0.56092203
1.961853 -1.5546819 -0.56039965
2.0469701 -1.6221335 -0.56196034
2.1231434 -1.6824974 -0.55935711
2.212162 -1.7530407 -0.55839235
2.3160439 -1.8353626 -0.55913419
2.4295728 -1.9253292 -0.55989707
2.5495043 -2.0203695 -0.55965889
2.6713562 -2.1169317 -0.55728197
2.8260865 -2.2395489 -0.55883205
2.9789922 -2.3607197 -0.55675966
3.1729825 -2.5144486 -0.55868727
3.3782382 -2.6771045 -0.55836278
3.6038241 -2.8558717 -0.55683172
3.8534372 -3.0536788 -0.55397815
4.1769519 -3.3100498 -0.55567217
4.5293937 -3.5893445 -0.55404621
4.9547648 -3.9264324 -0.55309474
5.478508 -4.3414755 -0.55306029
6.1054797 -4.8383231 -0.55124521
6.9060383 -5.4727302 -0.54996622
7.9411077 -6.2929773 -0.54789835
9.338582 -7.400414 -0.54504085
11.313034 -8.9650803 -0.5401035
14.398339 -11.410048 -0.53454685
19.748781 -15.650037 -0.52363127
31.421488 -24.900143 -0.49983114
1.650584 -1.2752917 -0.55890262
1.7131413 -1.3236253 -0.56084293
1.7780985 -1.3738133 -0.56222248
1.8325216 -1.4158621 -0.55902117
1.9045975 -1.4715502 -0.55988103
1.9924101 -1.5393969 -0.56367856
2.0583746 -1.590363 -0.55968022
2.1467814 -1.658669 -0.56016898
2.228667 -1.7219363 -0.55717182
2.3378148 -1.8062671 -0.55898577
2.4420016 -1.8867651 -0.55737257
2.5675471 -1.9837654 -0.55822265
2.700393 -2.086406 -0.55794519
2.8427596 -2.196403 -0.55674636
3.0194981 -2.3329566 -0.55892628
3.1961749 -2.4694624 -0.55738211
3.4028454 -2.6291423 -0.55704439
3.6366441 -2.8097825 -0.55652225
3.8927438 -3.0076528 -0.55427021
4.2200627 -3.2605495 -0.55603158
4.5726032 -3.532933 -0.55397582
5.0069866 -3.8685508 -0.55357224
5.52913 -4.2719746 -0.55282587
6.1634374 -4.7620602 -0.55114949
6.9574804 -5.3755617 -0.54875743
8.0163603 -6.1936851 -0.54779434
9.4206896 -7.2787123 -0.54456806
11.434983 -8.8350172 -0.54069805
14.53252 -11.228269 -0.53436214
19.929914 -15.398461 -0.52337396
31.67153 -24.47039 -0.4989844
1.6693488 -1.2573175 -0.55997914
1.7268951 -1.3006601 -0.56006736
1.791055 -1.348984 -0.56103194
1.8436215 -1.3885759 -0.55715644
1.9371973 -1.4590552 -0.56414741
2.0143209 -1.5171429 -0.56455678
2.0748186 -1.5627085 -0.55888426
2.1593583 -1.6263821 -0.55819011
2.2712379 -1.7106472 -0.56251329
2.3420942 -1.7640147 -0.55478054
2.4740973 -1.8634366 -0.55942601
2.5892568 -1.9501723 -0.55768681
2.7238133 -2.0515175 -0.55752987
2.8802018 -2.1693058 -0.55881286
3.0347106 -2.2856786 -0.55649757
3.2207298 -2.4257841 -0.55642033
3.4233148 -2.5783668 -0.5551632
3.6747048 -2.7677083 -0.55709648
3.9327939 -2.9620955 -0.55474466
4.2466779 -3.1985059 -0.55431432
4.614264 -3.4753642 -0.55380386
5.0484018 -3.8023472 -0.55294001
5.584866 -4.2064004 -0.55318516
6.2233324 -4.6872797 -0.5513097
7.0407057 -5.3029075 -0.55013698
8.0893936 -6.0927567 -0.54762405
9.5029469 -7.157414 -0.54419434
11.531325 -8.6851454 -0.54016286
14.658998 -11.040841 -0.53398031
20.092644 -15.133346 -0.52272105
31.944166 -24.059656 -0.49858099
1.6888553 -1.2397604 -0.56136632
1.7620593 -1.2934983 -0.56627059
1.7923728 -1.315751 -0.55633467
1.8707207 -1.3732648 -0.56020051
1.9421502 -1.4256999 -0.56044209
2.0100539 -1.475547 -0.55823344
2.0874121 -1.5323342 -0.55715895
2.1870115 -1.6054485 -0.56019294
2.2777019 -1.6720228 -0.55897987
2.3856282 -1.7512498 -0.5599494
2.4970529 -1.8330449 -0.55947769
2.6134961 -1.9185238 -0.55778426
2.7479818 -2.0172474 -0.55735743
2.8935614 -2.124115 -0.55629522
3.0797131 -2.2607658 -0.55960995
3.2554047 -2.3897381 -0.55729204
3.4804394 -2.5549324 -0.55928999
3.7030275 -2.7183306 -0.55628079
3.9685214 -2.9132252 -0.55468935
4.2894816 -3.1488366 -0.55480546
4.6548629 -3.417057 -0.55359167
5.0955501 -3.7405581 -0.55302447
5.6261868 -4.1300898 -0.55220592
6.275454 -4.6067057 -0.5508672
7.1067266 -5.216929 -0.55024159
8.1605473 -5.9905214 -0.54741287
9.5919027 -7.0412555 -0.54428911
11.624963 -8.5336905 -0.53959286
14.78136 -10.850749 -0.53353697
20.27079 -14.880448 -0.52255589
32.21262 -23.646748 -0.49819502
1.7005 -1.2164183 -0.56022274
1.7618182 -1.260281 -0.5611704
1.8194178 -1.3014838 -0.5597195
1.8923074 -1.3536239 -0.56163794
1.9554454 -1.3987883 -0.55927294
2.0224643 -1.4467289 -0.55669743
2.1241803 -1.5194894 -0.56194329
2.206224 -1.5781777 -0.56010103
2.2986944 -1.6443245 -0.55912739
2.4066629 -1.7215576 -0.55987555
2.5173831 -1.8007591 -0.55902922
2.6398718 -1.8883789 -0.55841547
2.7824054 -1.9903375 -0.55933315
2.9353616 -2.0997517 -0.55932528
3.0992286 -2.2169704 -0.55816031
3.2829392 -2.3483841 -0.55702019
3.4959414 -2.500751 -0.55679756
3.7342255 -2.6712027 -0.55599111
4.0243373 -2.8787284 -0.55750102
4.3314013 -3.0983803 -0.55525768
4.7029738 -3.3641775 -0.55435175
5.1541004 -3.6868815 -0.55441672
5.6810555 -4.063828 -0.55264491
6.3430295 -4.5373578 -0.55185974
7.1590161 -5.1210575 -0.54937303
8.2254629 -5.8839188 -0.54687268
9.6745415 -6.9204879 -0.54410845
11.741647 -8.3991499 -0.54017419
14.903731 -10.661083 -0.53318185
20.42469 -14.610389 -0.52185249
32.46711 -23.224691 -0.49767655
1.7073544 -1.1898609 -0.55761862
1.7751136 -1.2370825 -0.56051761
1.8491315 -1.2886659 -0.56394309
1.9012047 -1.3249559 -0.5594008
1.9708413 -1.3734858 -0.55880362
2.0562608 -1.4330151 -0.56110746
2.1333134 -1.4867132 -0.55948091
2.2202175 -1.547277 -0.55878121
2.3247755 -1.6201437 -0.56058311
2.4248605 -1.6898934 -0.55923259
2.5445502 -1.7733055 -0.56017756
2.6621475 -1.8552594 -0.55825961
2.7909334 -1.9450108 -0.55619758
2.9523754 -2.0575204 -0.55770415
3.1129193 -2.1694038 -0.5557797
3.3073161 -2.3048794 -0.55630535
3.5214334 -2.4540987 -0.55600935
3.7742331 -2.6302757 -0.55709016
4.053194 -2.8246844 -0.5566448
4.3635707 -3.0409868 -0.55454606
4.7486949 -3.3093812 -0.55490237
5.1929231 -3.6189651 -0.5537641
5.714262 -3.9822881 -0.55106997
6.382165 -4.447752 -0.55046469
7.2181745 -5.0303698 -0.54912454
8.2925768 -5.7791243 -0.54656881
9.7521563 -6.7963099 -0.54373235
11.83098 -8.2450495 -0.53957897
15.030746 -10.474977 -0.53307748
20.597528 -14.354486 -0.52171928
32.706684 -22.793398 -0.497015
1.7322726 -1.1758493 -0.56099224
1.7942307 -1.2179059 -0.56178278
1.8551009 -1.2592239 -0.56099892
1.9230429 -1.3053422 -0.56106114
1.9843353 -1.346947 -0.55789143
2.0765767 -1.4095595 -0.56187904
2.1465373 -1.4570481 -0.55820799
2.2344451 -1.516719 -0.55762595
2.3387609 -1.5875275 -0.55920601
2.4386563 -1.6553355 -0.55767775
2.5669661 -1.7424308 -0.56035316
2.6785686 -1.8181856 -0.55697268
2.8211343 -1.9149578 -0.55748147
2.9635646 -2.0116382 -0.55510318
3.1535521 -2.1405995 -0.55829257
3.3426166 -2.2689347 -0.55750805
3.5391355 -2.4023299 -0.55409837
3.7985482 -2.5784166 -0.55595732
4.0840464 -2.7722099 -0.55615836
4.4036641 -2.9891632 -0.55492824
4.7862535 -3.2488611 -0.55458105
5.2235355 -3.5456836 -0.55233747
5.7654171 -3.9135075 -0.55132079
6.4362755 -4.3688793 -0.55045664
7.2726135 -4.9365773 -0.54860657
8.3679047 -5.6800499 -0.54688889
9.8251171 -6.6691914 -0.5431869
11.941569 -8.1058178 -0.54003602
15.154217 -10.286531 -0.5329302
20.757721 -14.090133 -0.52134883
32.951309 -22.36702 -0.49651536
1.7349935 -1.14679 -0.55726451
1.8034835 -1.1920604 -0.56004804
1.863574 -1.2317787 -0.55893856
1.9441212 -1.2850186 -0.56255823
2.0086138 -1.3276467 -0.56008512
2.0959892 -1.3853997 -0.56247967
2.1699176 -1.4342647 -0.55965942
2.2658494 -1.4976733 -0.56082481
2.3593671 -1.5594863 -0.55950564
2.4549971 -1.6226954 -0.55680948
2.5796828 -1.7051098 -0.55851001
2.7027194 -1.7864341 -0.55738461
2.8483384 -1.8826848 -0.55824029
3.0018797 -1.984172 -0.55766773
3.1690733 -2.0946832 -0.55643839
3.3710592 -2.2281911 -0.55763996
3.5803652 -2.3665373 -0.55595535
3.8428941 -2.5400629 -0.55783421
4.104629 -2.7130635 -0.55437624
4.4429116 -2.9366605 -0.55528158
4.8195405 -3.1856034 -0.55385739
5.2647619 -3.4798841 -0.55213034
5.8052659 -3.8371446 -0.55057782
6.4870672 -4.2877994 -0.5502497
7.3425293 -4.8532395 -0.54933733
8.4367733 -5.576509 -0.54686695
9.9153805 -6.553834 -0.54368067
12.019501 -7.9446082 -0.53910166
15.258387 -10.085436 -0.53219205
20.915047 -13.824356 -0.52099138
33.19978 -21.944275 -0.49615589
1.7616729 -1.133549 -0.56131428
1.8148323 -1.1677544 -0.55907089
1.8841819 -1.2123774 -0.56060576
1.9510272 -1.2553891 -0.56004739
2.0271389 -1.3043631 -0.56073588
2.0878108 -1.3434024 -0.5558098
2.1910605 -1.4098386 -0.56059885
2.2902746 -1.4736779 -0.5623427
2.3676574 -1.5234699 -0.55698705
2.4832978 -1.5978788 -0.55872971
2.5925963 -1.6682068 -0.5568226
2.7356882 -1.7602794 -0.5596776
2.8725116 -1.8483186 -0.55848134
3.0214221 -1.9441351 -0.55681503
3.20206 -2.0603666 -0.55773968
3.3980365 -2.1864676 -0.5576129
3.606709 -2.3207381 -0.55557287
3.8548317 -2.4803927 -0.5550977
4.1412344 -2.6646786 -0.55485284
4.481401 -2.8835588 -0.55561846
4.8552852 -3.1241348 -0.55350852
5.3110943 -3.4174254 -0.5525406
5.866941 -3.775085 -0.55198282
6.5506096 -4.2149916 -0.55120152
7.3922987 -4.756577 -0.54864347
8.5028725 -5.4711757 -0.54674935
9.9904747 -6.4283738 -0.54342288
12.115488 -7.7957149 -0.53906667
15.391222 -9.9034872 -0.53253746
21.087702 -13.568889 -0.52109659
33.43906 -21.516375 -0.49574041
1.7688245 -1.1076366 -0.55921102
1.828294 -1.1448764 -0.55883884
1.8960443 -1.1873015 -0.55974901
1.9755532 -1.2370899 -0.56267852
2.0462198 -1.2813413 -0.5616132
2.1272006 -1.3320515 -0.56189305
2.2084496 -1.3829296 -0.56065476
2.2966652 -1.43817 -0.5595274
2.3970814 -1.5010506 -0.5595246
2.5172834 -1.576321 -0.56197268
2.6219852 -1.6418852 -0.55875617
2.7600055 -1.7283133 -0.56026232
2.8852148 -1.8067194 -0.55658972
3.0498149 -1.9097918 -0.55767757
3.2182918 -2.0152919 -0.55620849
3.4140308 -2.1378636 -0.55588168
3.6413417 -2.2802055 -0.55654651
3.8824279 -2.4311733 -0.55472481
4.1691265 -2.6107037 -0.55424684
4.5147853 -2.8271551 -0.55540538
4.8930683 -3.0640357 -0.55347884
5.3588114 -3.3556836 -0.5531702
5.9088817 -3.7001374 -0.55160642
6.588686 -4.1258302 -0.55009496
7.4525089 -4.6667557 -0.54881173
8.5664015 -5.364274 -0.54655159
10.062493 -6.301126 -0.54308468
12.203239 -7.6416597 -0.53874946
15.489026 -9.6992168 -0.53175467
21.222151 -13.289294 -0.52034158
33.665176 -21.081108 -0.49521214
1.7723782 -1.0797538 -0.55609494
1.8418171 -1.1220567 -0.55871272
1.9075142 -1.1620802 -0.55887437
1.9817234 -1.2072893 -0.56016529
2.0528848 -1.2506417 -0.55917937
2.1329145 -1.2993968 -0.55913955
2.2095671 -1.3460944 -0.55669421
2.3270326 -1.4176557 -0.5626362
2.4157178 -1.4716839 -0.55960828
2.5304031 -1.5415515 -0.56062746
2.641526 -1.6092489 -0.55866122
2.7663691 -1.6853048 -0.55730528
2.926791 -1.7830356 -0.56033826
3.071667 -1.8712959 -0.55742365
3.2512503 -1.9807001 -0.55765319
3.4507508 -2.1022382 -0.55760944
3.6718106 -2.2369103 -0.55695724
3.9219921 -2.3893239 -0.5561378
4.2110415 -2.5654163 -0.55558336
4.548593 -2.7710567 -0.55533069
4.9267387 -3.0014274 -0.5530709
5.3888116 -3.2829278 -0.55205822
5.9495134 -3.6245139 -0.55119723
6.6333699 -4.0411277 -0.54963535
7.4946275 -4.5658154 -0.54773748
8.6308479 -5.2580147 -0.54649699
10.130445 -6.1715865 -0.54261523
12.288211 -7.4861236 -0.53839612
15.60653 -9.5076828 -0.53173482
21.378117 -13.023802 -0.52019978
33.894135 -20.648706 -0.49480775
1.7878751 -1.0592749 -0.55682826
1.8679144 -1.1066964 -0.56245869
1.9243045 -1.1401062 -0.55964392
1.992107 -1.1802777 -0.55895573
2.0720773 -1.2276582 -0.56025285
2.1495342 -1.2735497 -0.55934882
2.231462 -1.32209 -0.55807251
2.334909 -1.3833798 -0.56038529
2.4327242 -1.4413332 -0.55939996
2.5373404 -1.5033158 -0.55802667
2.6624756 -1.5774556 -0.55894732
2.7806342 -1.6474619 -0.5560559
2.9442043 -1.7443733 -0.55952322
3.0950758 -1.8337613 -0.55753756
3.2701674 -1.937499 -0.55676937
3.471338 -2.0566881 -0.5568074
3.6944392 -2.1888704 -0.556265
3.9480507 -2.3391294 -0.55571234
4.2312231 -2.5069027 -0.55413717
4.5673547 -2.7060525 -0.55351686
4.9628515 -2.9403753 -0.55302417
5.4408927 -3.223604 -0.55329102
5.9972243 -3.5532174 -0.5515278
6.6997676 -3.9694583 -0.5510509
7.5510044 -4.4737964 -0.54779583
8.6834869 -5.1447663 -0.54578304
10.218819 -6.0544152 -0.54332012
12.380237 -7.3350053 -0.53843558
15.726492 -9.317585 -0.53187817
21.531664 -12.757016 -0.52007967
34.107609 -20.207973 -0.49425921
1.8227121 -1.0498534 -0.5636149
1.856023 -1.0690401 -0.55487776
1.9346817 -1.1143461 -0.55863458
2.0096316 -1.1575162 -0.55983692
2.0803726 -1.198262 -0.55846965
2.158488 -1.2432551 -0.55765849
2.2464387 -1.2939134 -0.55779678
2.3468602 -1.3517545 -0.5592221
2.4574151 -1.4154325 -0.56103289
2.5658653 -1.4778981 -0.56026101
2.6813619 -1.5444223 -0.55888307
2.8113346 -1.6192845 -0.55817127
2.9472072 -1.6975451 -0.55608493
3.1284235 -1.8019227 -0.55951107
3.2919126 -1.8960898 -0.55646002
3.485815 -2.0077748 -0.5551275
3.7229493 -2.1443603 -0.55654538
3.9776587 -2.2910688 -0.55587244
4.2718978 -2.460546 -0.55545962
4.5925884 -2.6452587 -0.5525912
4.9982486 -2.8789127 -0.55298203
5.4715185 -3.1515088 -0.55242288
6.0384798 -3.4780695 -0.55134708
6.731812 -3.8774178 -0.54972345
7.6046619 -4.3801661 -0.54773974
8.7567167 -5.0437312 -0.54644626
10.293046 -5.9286323 -0.5433495
12.466915 -7.1807475 -0.53832448
15.83021 -9.1179514 -0.53155386
21.674227 -12.484015 -0.51977599
34.328365 -19.772598 -0.49389762
1.8299176 -1.0242479 -0.56190604
1.8918884 -1.0589345 -0.56166482
1.9529783 -1.0931278 -0.5599941
2.0228724 -1.1322494 -0.55960464
2.094692 -1.1724484 -0.55840123
2.1806059 -1.2205365 -0.55945301
2.271481 -1.2714013 -0.5600906
2.3628395 -1.3225368 -0.55911231
2.4539595 -1.3735389 -0.556346
2.5744863 -1.4410006 -0.55823219
2.7056491 -1.5144154 -0.56002158
2.8250084 -1.5812236 -0.55698359
2.9784741 -1.6671221 -0.55807436
3.1308482 -1.7524093 -0.55604875
3.3212683 -1.858992 -0.55751604
3.50949 -1.9643441 -0.55500919
3.7328813 -2.0893815 -0.55414754
4.0052948 -2.2418575 -0.55584008
4.2968192 -2.4050307 -0.55481279
4.6312428 -2.5922155 -0.55336505
5.0373497 -2.8195233 -0.55343044
5.5170102 -3.0880005 -0.55314034
6.0657697 -3.395154 -0.54998535
6.7870927 -3.7988954 -0.55038148
7.6672006 -4.2915125 -0.54840183
8.8143692 -4.93361 -0.54621696
10.352833 -5.794724 -0.54270315
12.56013 -7.0302005 -0.53857607
15.940786 -8.9224329 -0.53154266
21.800098 -12.202028 -0.51915711
34.54509 -19.335699 -0.49355766
1.8374735 -0.99900693 -0.56041175
1.8987017 -1.0322958 -0.5598768
1.9572805 -1.0641441 -0.55743355
2.0417883 -1.1100899 -0.56101894
2.1093032 -1.1467966 -0.55849481
2.1823032 -1.1864858 -0.55610335
2.2829499 -1.2412058 -0.55911297
2.3774049 -1.2925596 -0.55875576
2.4894016 -1.3534505 -0.56056571
2.5970762 -1.4119916 -0.55932337
2.729671 -1.4840814 -0.56117404
2.842767 -1.54557 -0.55669576
2.9966509 -1.6292344 -0.55768424
3.1519034 -1.7136428 -0.55600381
3.3357489 -1.813597 -0.55616128
3.5366359 -1.9228162 -0.55552101
3.7665324 -2.0478075 -0.555363
4.0327439 -2.1925428 -0.55586588
4.3258152 -2.351881 -0.55478066
4.6707582 -2.5394216 -0.55431366
5.0736027 -2.7584422 -0.55364496
5.5404887 -3.0122812 -0.55173892
6.1127429 -3.3234072 -0.55049747
6.8333158 -3.7151721 -0.55038369
7.7222109 -4.198451 -0.5486024
8.8609209 -4.8175507 -0.54538953
10.417051 -5.6635952 -0.54237783
12.632269 -6.8679757 -0.53800738
16.029789 -8.7151566 -0.53089684
21.939817 -11.928351 -0.51895219
34.721317 -18.877462 -0.49272177
1.8484887 -0.97574258 -0.56006962
1.9225646 -1.0148443 -0.563191
1.9815882 -1.0460005 -0.56065089
2.0584056 -1.0865493 -0.56187123
2.1291111 -1.1238718 -0.56003809
2.2120309 -1.1676418 -0.55997753
2.2908149 -1.2092288 -0.5573554
2.3907053 -1.2619568 -0.55819243
2.5083287 -1.3240455 -0.56111914
2.617507 -1.3816763 -0.56002212
2.7271445 -1.4395496 -0.55697346
2.8601685 -1.5097675 -0.55642587
3.0307603 -1.5998161 -0.56032866
3.1801486 -1.6786721 -0.55730289
3.3672614 -1.7774415 -0.55772913
3.5676014 -1.8831929 -0.55670547
3.7946267 -2.0030303 -0.55583173
4.0403256 -2.1327248 -0.55325425
4.3525343 -2.2975271 -0.55454218
4.6911044 -2.4762449 -0.55307287
5.0975986 -2.6908166 -0.55261105
5.5886407 -2.9500179 -0.55287987
6.1572709 -3.2501748 -0.55086666
6.875483 -3.6292901 -0.5501439
7.7632647 -4.0979142 -0.5478977
8.9375353 -4.7177644 -0.54649317
10.480165 -5.5320563 -0.54208118
12.711102 -6.7096782 -0.53781033
16.141708 -8.5205564 -0.53109342
22.077078 -11.653599 -0.5187701
34.940464 -18.443661 -0.49257603
1.8565896 -0.95101637 -0.55893862
1.9319632 -0.98962557 -0.56233692
2.0046544 -1.0268608 -0.56356192
2.053916 -1.0520945 -0.55707222
2.1402149 -1.0963001 -0.55937058
2.2190077 -1.1366608 -0.55816334
2.3094721 -1.1830002 -0.55831331
2.4054577 -1.2321677 -0.55805713
2.5097857 -1.2856085 -0.55786651
2.6297176 -1.3470422 -0.55904847
2.7432787 -1.4052125 -0.55669749
2.8797719 -1.4751296 -0.55666876
3.0281928 -1.5511564 -0.55628556
3.2044477 -1.641441 -0.55798197
3.3843701 -1.7336041 -0.55698991
3.5905278 -1.839206 -0.55671185
3.8264396 -1.960049 -0.55691916
4.0743084 -2.0870171 -0.55435163
4.3735828 -2.2403169 -0.55367225
4.7350006 -2.4254489 -0.55468994
5.1233759 -2.6243896 -0.55186546
5.6274729 -2.8826075 -0.55317307
6.2003627 -3.1760633 -0.5511862
6.9230404 -3.5462468 -0.55041844
7.8176455 -4.0044975 -0.54821903
8.9824791 -4.6011701 -0.54574054
10.558894 -5.4086704 -0.54267228
12.783817 -6.5483613 -0.53743941
16.229151 -8.3131924 -0.53056699
22.214159 -11.378943 -0.51866418
35.12524 -17.992495 -0.49202475
1.8608289 -0.92448318 -0.55675042
1.9291661 -0.95843399 -0.55805027
2.0051172 -0.99616748 -0.56020606
2.071311 -1.0290534 -0.55831605
2.158591 -1.0724151 -0.56068444
2.2492816 -1.1174713 -0.56227946
2.3258557 -1.1555144 -0.55879682
2.4245579 -1.2045509 -0.55900973
2.5401773 -1.2619921 -0.56113017
2.6529453 -1.3180166 -0.56049865
2.7693703 -1.3758579 -0.55851686
2.8889394 -1.4352615 -0.55498731
3.0584142 -1.5194587 -0.55836284
3.2236402 -1.601545 -0.55785257
3.4076576 -1.6929672 -0.55735427
3.6150923 -1.7960234 -0.55705422
3.8524239 -1.9139327 -0.55723357
4.1087561 -2.0412817 -0.55558139
4.4069839 -2.189445 -0.55445051
4.7548404 -2.3622644 -0.55356944
5.1749544 -2.5709825 -0.55397403
5.6563244 -2.8101332 -0.55257064
6.2510514 -3.1056011 -0.55225575
6.9485302 -3.4521172 -0.54902858
7.8596177 -3.904757 -0.54775387
9.0386324 -4.4905066 -0.54575616
10.606883 -5.2696328 -0.54176742
12.876866 -6.3973889 -0.53800344
16.334057 -8.1149645 -0.53069425
22.337639 -11.09762 -0.51832193
35.315166 -17.545017 -0.49162593
1.8737948 -0.90237117 -0.55726779
1.9535084 -0.94075912 -0.56170303
2.0103004 -0.96810865 -0.55828601
2.0781548 -1.0007856 -0.55680156
2.1558638 -1.0382082 -0.55661798
2.2517307 -1.0843753 -0.55951607
2.3361056 -1.1250081 -0.55789363
2.4399526 -1.1750181 -0.55918562
2.5448203 -1.2255197 -0.5587846
2.6574786 -1.279773 -0.55808944
2.777745 -1.3376902 -0.55684644
2.9255309 -1.40886 -0.5586465
3.0765867 -1.4816046 -0.55831218
3.22999 -1.5554796 -0.55559945
3.4226179 -1.6482444 -0.55644417
3.63433 -1.7501994 -0.55666029
3.8684895 -1.8629645 -0.55620182
