# .PCD v0.7 - Point Cloud Data file format
VERSION 0.7
FIELDS x y z
SIZE 4 4 4
TYPE F F F
COUNT 1 1 1
WIDTH 1463
HEIGHT 1
VIEWPOINT 0 0 0 1 0 0 0
POINTS 1463
DATA ascii
-3.2044079 5.6839352 -0.57086086
-3.5511453 6.2989731 -0.57211661
-3.9762723 7.0530577 -0.57293731
-4.5166078 8.0114975 -0.57401782
-5.2176194 9.2549429 -0.57450956
-6.2030807 11.002939 -0.57777864
-7.6166697 13.510345 -0.58032185
-9.875248 17.516581 -0.58509624
-14.049744 24.921244 -0.59451061
-24.289988 43.085247 -0.61663729
-1.0555855 1.819713 -0.5636878
-1.0968059 1.8907723 -0.56627131
-1.1381828 1.9621013 -0.56755906
-1.1734755 2.0229421 -0.5645467
-1.2273589 2.1158311 -0.5689981
-1.2762252 2.2000713 -0.56941223
-1.3217064 2.278476 -0.56675744
-1.3803302 2.3795369 -0.56801641
-1.4381336 2.4791834 -0.56700885
-1.5065176 2.5970702 -0.56808269
-1.5815818 2.7264724 -0.56929582
-1.6555855 2.8540466 -0.56765872
-1.7362754 2.9931471 -0.56575692
-1.8363713 3.1657014 -0.56718457
-1.9500247 3.3616273 -0.56925464
-2.0684206 3.5657287 -0.56886345
-2.2014787 3.7951062 -0.56834072
-2.3556516 4.060883 -0.56851178
-2.538305 4.3757577 -0.56997555
-2.7449262 4.7319498 -0.57037163
-2.9948425 5.1627774 -0.57220012
-3.2734151 5.6430058 -0.57074964
-3.6288888 6.2558036 -0.57220531
-4.0560393 6.9921641 -0.57199895
-4.6155891 7.9567657 -0.57411939
-5.3452034 9.2145405 -0.57603812
-6.3336349 10.918487 -0.5773899
-7.7862682 13.422667 -0.5806244
-10.09771 17.407337 -0.58555043
-14.367628 24.768204 -0.59502941
-24.864557 42.86375 -0.61779636
-1.090941 1.8284872 -0.57051808
-1.120645 1.8782732 -0.56661206
-1.162722 1.9487969 -0.56780338
-1.2055637 2.0206022 -0.56798774
-1.2461332 2.0885992 -0.56575269
-1.2980759 2.1756587 -0.56718212
-1.3432828 2.2514284 -0.56409556
-1.4068004 2.3578877 -0.56693506
-1.4684261 2.4611766 -0.56697738
-1.534444 2.5718267 -0.56664538
-1.6118095 2.7014964 -0.56817615
-1.6867851 2.8271604 -0.56639373
-1.7780108 2.9800606 -0.56737298
-1.8697633 3.1338434 -0.56555325
-1.9843506 3.3258991 -0.56729352
-2.1053853 3.5287611 -0.56705308
-2.2485151 3.7686558 -0.56847721
-2.4130876 4.0444903 -0.57032776
-2.5910852 4.3428254 -0.56979293
-2.8128796 4.7145672 -0.5724023
-3.0510399 5.113739 -0.57088
-3.3453462 5.6070156 -0.57122689
-3.7069013 6.2130051 -0.5724166
-4.1389074 6.9370751 -0.5716126
-4.7140827 7.9011059 -0.57424247
-5.4525976 9.1389046 -0.57545775
-6.4675779 10.840076 -0.57740539
-7.9574656 13.337224 -0.58111715
-10.324573 17.304647 -0.58632237
-14.690588 24.62237 -0.59582061
-25.440241 42.639481 -0.61902589
-1.1022937 1.7969267 -0.56485718
-1.1449521 1.8664672 -0.56725484
-1.1878239 1.9363555 -0.56839108
-1.2207696 1.9900627 -0.56358016
-1.2811352 2.0884688 -0.56994152
-1.3287982 2.1661675 -0.56892443
-1.3780264 2.246418 -0.56704283
-1.4373226 2.343081 -0.56758153
-1.495122 2.4373038 -0.56567031
-1.5609219 2.544569 -0.56482595
-1.6414688 2.675874 -0.56698954
-1.727391 2.8159418 -0.56835866
-1.8089495 2.9488962 -0.56563181
-1.9081646 3.1106336 -0.56555635
-2.0318284 3.3122268 -0.56917995
-2.1409101 3.4900486 -0.56501991
-2.29702 3.7445343 -0.56905621
-2.4604201 4.0109043 -0.56981492
-2.6495047 4.3191447 -0.57091731
-2.8553262 4.6546688 -0.56934971
-3.1152809 5.0784388 -0.57117248
-3.418849 5.5733066 -0.57203233
-3.7805421 6.1629286 -0.5720427
-4.2269783 6.8906951 -0.57203054
-4.8090024 7.8394938 -0.57401896
-5.5693479 9.0789862 -0.57595354
-6.6083112 10.772675 -0.57809979
-8.1273928 13.249037 -0.58158517
-10.549973 17.198256 -0.58706868
-15.010221 24.469221 -0.59653592
-26.018373 42.414387 -0.62035584
-1.1250809 1.7844689 -0.56524724
-1.1676794 1.8520337 -0.5671891
-1.2096846 1.9186572 -0.56751943
-1.2438532 1.9728513 -0.5629949
-1.300796 2.0631671 -0.56735891
-1.3539652 2.1474979 -0.56835073
-1.4052083 2.2287736 -0.56690782
-1.4560243 2.3093717 -0.56371033
-1.5322422 2.4302595 -0.56836528
-1.5965388 2.5322392 -0.56640399
-1.6751212 2.656877 -0.56728595
-1.7524309 2.7794964 -0.56530923
-1.8504121 2.9349027 -0.56726921
-1.9492831 3.0917201 -0.56643271
-2.0694103 3.2822516 -0.56835878
-2.1936748 3.4793448 -0.5676111
-2.3454976 3.7201483 -0.56969023
-2.5073144 3.9768028 -0.56930721
-2.6986816 4.2803264 -0.57012951
-2.9203725 4.6319461 -0.57091963
-3.1749017 5.0356498 -0.57070768
-3.482219 5.5230794 -0.5712288
-3.8638387 6.1283593 -0.5732007
-4.3189583 6.8502159 -0.5730356
-4.9062829 7.7817597 -0.57416558
-5.6752152 9.0013485 -0.57541186
-6.7383485 10.687564 -0.57793516
-8.2936335 13.154371 -0.58186239
-10.762033 17.06945 -0.58714479
-15.327201 24.310175 -0.59720808
-26.598364 42.187149 -0.62176895
-1.150746 1.7763807 -0.56712449
-1.180423 1.8221924 -0.56245291
-1.2291602 1.8974268 -0.56566757
-1.2756259 1.969155 -0.56637347
-1.3200874 2.0377891 -0.56480122
-1.387246 2.1414604 -0.57122427
-1.4361848 2.217006 -0.56836361
-1.4913112 2.3021033 -0.56636953
-1.5569389 2.4034114 -0.56652087
-1.6309508 2.5176618 -0.5675863
-1.705796 2.6331987 -0.56666601
-1.7982419 2.7759054 -0.56903309
-1.8871166 2.9130993 -0.56749719
-1.9930383 3.0766082 -0.56811112
-2.114888 3.2647049 -0.56978047
-2.2390559 3.4563799 -0.5683133
-2.3836908 3.6796496 -0.56793404
-2.5584357 3.9493995 -0.56984484
-2.7501655 4.2453685 -0.56993449
-2.9794705 4.5993414 -0.5713734
-3.2340147 4.9922757 -0.57025576
-3.5528009 5.4843788 -0.57170129
-3.938623 6.0799632 -0.57316065
-4.4072995 6.8034487 -0.57361352
-5.003119 7.7232018 -0.57434076
-5.797122 8.9488859 -0.57657146
-6.8775654 10.616742 -0.57863492
-8.4580517 13.056503 -0.58208978
-10.980135 16.949787 -0.58762848
-15.640053 24.143196 -0.59778541
-27.171394 41.943867 -0.62306058
-1.1671166 1.754006 -0.56452036
-1.2044902 1.810173 -0.563272
-1.2581518 1.8908185 -0.56826675
-1.3042631 1.9601171 -0.56834388
-1.3507777 2.0300219 -0.56720918
-1.4050404 2.1115708 -0.56781703
-1.4620453 2.1972408 -0.56786251
-1.5283318 2.2968595 -0.56965989
-1.5884356 2.387187 -0.5672577
-1.6633333 2.4997473 -0.56811565
-1.7377566 2.6115947 -0.56657243
-1.824756 2.742342 -0.5667097
-1.9155751 2.87883 -0.56536716
-2.0305085 3.0515583 -0.56805301
-2.1502519 3.2315149 -0.56855953
-2.2789466 3.4249241 -0.56770593
-2.4356856 3.66048 -0.56955498
-2.6039758 3.9133956 -0.56922698
-2.8004398 4.2086525 -0.56958532
-3.0359161 4.5625391 -0.57139593
-3.3008854 4.9607491 -0.57124782
-3.6163349 5.434824 -0.57112783
-4.0069666 6.0218863 -0.57228726
-4.4877639 6.7444544 -0.57324892
-5.1091871 7.6783633 -0.57563484
-5.9066076 8.87677 -0.57656097
-7.0097747 10.534669 -0.57881582
-8.6282434 12.966991 -0.58278513
-11.206892 16.842323 -0.58863586
-15.960805 23.986761 -0.59872621
-27.741789 41.69186 -0.6243372
-1.1969591 1.7517643 -0.56849295
-1.2217675 1.7880719 -0.56102717
-1.281886 1.8760557 -0.5685243
-1.3318087 1.9491183 -0.56986004
-1.3767749 2.0149269 -0.56767887
-1.4314702 2.094974 -0.56804442
-1.4805341 2.1667795 -0.56465238
-1.5506049 2.2693293 -0.56751794
-1.6094757 2.3554873 -0.56438518
-1.6940622 2.4792807 -0.56815553
-1.7685215 2.5882528 -0.56618351
-1.8601366 2.7223327 -0.5672586
-1.9584491 2.8662143 -0.56757611
-2.0757277 3.0378528 -0.57020998
-2.1866426 3.2001781 -0.56773382
-2.3194313 3.394516 -0.56735021
-2.4821191 3.6326115 -0.56992465
-2.6551085 3.8857837 -0.56991649
-2.8619163 4.1884494 -0.57157063
-3.0888157 4.5205197 -0.57084709
-3.3585021 4.9152088 -0.57071608
-3.6861582 5.3947377 -0.57163537
-4.0802002 5.9714231 -0.57221633
-4.5706978 6.6892724 -0.57329237
-5.1994352 7.6094375 -0.57521713
-6.0252614 8.8180437 -0.57751524
-7.1472907 10.460147 -0.57950628
-8.7858629 12.858218 -0.58270794
-11.409374 16.697758 -0.58844215
-16.264994 23.804018 -0.59911174
-28.294241 41.408966 -0.62526369
-1.2105714 1.7257437 -0.56483668
-1.2533799 1.78677 -0.56541169
-1.297541 1.8497242 -0.56533706
-1.3454717 1.9180526 -0.56557178
-1.4038427 2.0012639 -0.56864989
-1.4454833 2.0606251 -0.56350762
-1.511598 2.1548758 -0.56635118
-1.5781652 2.2497711 -0.56743699
-1.6443907 2.3441799 -0.56647784
-1.7231094 2.456398 -0.56772429
-1.8080583 2.577498 -0.56865132
-1.8971034 2.7044373 -0.56834757
-1.988081 2.8341315 -0.56602108
-2.1000001 2.993679 -0.56672263
-2.2263963 3.1738644 -0.56787956
-2.3665538 3.3736675 -0.56868637
-2.5233421 3.5971789 -0.56919062
-2.6927967 3.838747 -0.56783122
-2.9131107 4.1528177 -0.57155323
-3.1436436 4.4814568 -0.5707525
-3.4239945 4.881114 -0.57160276
-3.7498746 5.3456764 -0.57127947
-4.1600094 5.9303484 -0.57313877
-4.6667175 6.6526918 -0.57503182
-5.2952843 7.5487523 -0.57550842
-6.1289282 8.7371635 -0.57711029
-7.2853742 10.385747 -0.58030367
-8.9550076 12.765912 -0.58347088
-11.624208 16.571022 -0.58896852
-16.583351 23.640585 -0.60008526
-28.866592 41.151096 -0.62668228
-1.2391365 1.7210588 -0.56824744
-1.276017 1.7722828 -0.56574976
-1.3188634 1.8317931 -0.56477058
-1.3678055 1.8997697 -0.56509745
-1.4169527 1.968031 -0.56411511
-1.4767728 2.0511162 -0.56583041
-1.5421159 2.1418726 -0.56787455
-1.6078516 2.2331738 -0.56819445
-1.6754769 2.3270998 -0.56728619
-1.7607412 2.4455252 -0.57017219
-1.8386031 2.553669 -0.56833905
-1.9269615 2.6763916 -0.56739032
-2.0358272 2.8275967 -0.56967252
-2.1511042 2.9877074 -0.57055634
-2.2739151 3.1582816 -0.57005119
-2.4083622 3.3450174 -0.56880593
-2.575114 3.576622 -0.57090503
-2.7536643 3.8246136 -0.57070613
-2.9619174 4.1138606 -0.57116097
-3.2021289 4.4474945 -0.57139868
-3.4872262 4.8434711 -0.57217282
-3.8153539 5.2992134 -0.57128465
-4.23139 5.8770537 -0.57297343
-4.7455902 6.5912356 -0.5747202
-5.3881683 7.4837241 -0.57555842
-6.2407012 8.6678219 -0.57755524
-7.4080305 10.289147 -0.57995206
-9.109643 12.652547 -0.58336514
-11.837436 16.441227 -0.58948427
-16.893621 23.463854 -0.6008268
-29.430784 40.876945 -0.62797099
-1.2600445 1.7054768 -0.56817544
-1.3052901 1.7667171 -0.56905365
-1.3490937 1.8260053 -0.56805789
-1.3978196 1.8919562 -0.56784314
-1.4473673 1.9590193 -0.56659061
-1.5018076 2.0327046 -0.56580287
-1.5689242 2.1235471 -0.56808794
-1.6326529 2.2098043 -0.56731355
-1.6980904 2.2983744 -0.56533104
-1.7876111 2.4195411 -0.56919593
-1.8644379 2.5235267 -0.56669015
-1.9635432 2.6576662 -0.56849617
-2.0641263 2.7938058 -0.56793541
-2.1758931 2.9450827 -0.56748301
-2.3053687 3.1203287 -0.56827462
-2.4508793 3.3172779 -0.56917059
-2.6120002 3.535356 -0.56940186
-2.8036745 3.7947881 -0.57135677
-3.001425 4.0624447 -0.5691036
-3.260464 4.4130549 -0.57208169
-3.5326529 4.7814641 -0.56993628
-3.8852539 5.2587113 -0.57202548
-4.3090534 5.8323264 -0.57373524
-4.8285666 6.53549 -0.57499319
-5.4776196 7.4139872 -0.57533181
-6.3464026 8.5898895 -0.57751858
-7.5353365 10.199118 -0.58005643
-9.2805376 12.561256 -0.58437341
-12.053046 16.313862 -0.59018701
-17.200954 23.281582 -0.60153002
-29.993092 40.595806 -0.62927032
-1.2789431 1.6872481 -0.56729901
-1.3161696 1.7363595 -0.56444579
-1.3689371 1.8059732 -0.56701976
-1.4207911 1.8743815 -0.56776899
-1.4749049 1.9457712 -0.56796139
-1.5293493 2.0175972 -0.56678945
-1.5953667 2.1046908 -0.56824857
-1.6569158 2.1858895 -0.56636178
-1.7463921 2.3039315 -0.57193679
-1.8147635 2.3941305 -0.56842476
-1.9059194 2.5143881 -0.56985778
-1.9982688 2.6362202 -0.56912178
-2.1018538 2.7728748 -0.56889141
-2.209362 2.9147053 -0.56682163
-2.3448458 3.0934424 -0.56858623
-2.4956055 3.2923324 -0.57011271
-2.6590798 3.5079963 -0.57021844
-2.8440831 3.7520626 -0.57014626
-3.0571005 4.0330863 -0.57021379
-3.3117533 4.3690372 -0.57161134
-3.603955 4.7545252 -0.57196432
-3.9501467 5.2112393 -0.57210189
-4.3769369 5.7742829 -0.57327646
-4.9167824 6.4864755 -0.57595652
-5.5800977 7.3615556 -0.57654411
-6.4556556 8.5166368 -0.577887
-7.6640353 10.110794 -0.58034909
-9.4354181 12.447694 -0.58444369
-12.260081 16.174137 -0.59054142
-17.491037 23.075089 -0.60170633
-30.552877 40.306946 -0.63056862
-1.2990292 1.6706716 -0.56705332
-1.3438784 1.7283517 -0.56717163
-1.4034008 1.8049031 -0.57205874
-1.4403923 1.8524776 -0.56645632
-1.5000398 1.9291898 -0.56846243
-1.5608428 2.0073879 -0.56927007
-1.6220524 2.0861094 -0.56857389
-1.6863548 2.168808 -0.56726581
-1.7554153 2.2576263 -0.56575745
-1.8465382 2.3748188 -0.56918758
-1.9238805 2.474288 -0.56608832
-2.0322139 2.613615 -0.56959337
-2.1393893 2.7514524 -0.56985039
-2.2494023 2.8929391 -0.5679248
-2.3879433 3.0711157 -0.5698365
-2.5380828 3.264209 -0.57060391
-2.7006083 3.4732316 -0.56992227
-2.8968141 3.7255704 -0.57149023
-3.1114962 4.0016713 -0.5711385
-3.3661141 4.3291335 -0.57176274
-3.6601856 4.7073369 -0.57165873
-4.012773 5.1607966 -0.57193798
-4.4555168 5.7302065 -0.57429641
-4.9769306 6.4007931 -0.57373911
-5.6700344 7.2921882 -0.57652825
-6.5686274 8.4478617 -0.57865721
-7.8006124 10.032309 -0.5813058
-9.5839195 12.325806 -0.58420986
-12.469949 16.037506 -0.59110671
-17.805225 22.899164 -0.60278249
-31.105602 40.004677 -0.63177586
-1.3192695 1.6543181 -0.56696594
-1.3673861 1.7146546 -0.56815147
-1.4086581 1.7664083 -0.56530517
-1.4657265 1.83797 -0.56748843
-1.5193855 1.9052565 -0.56687254
-1.5883409 1.9917243 -0.57032371
-1.6366272 2.0522735 -0.56479418
-1.711758 2.1464851 -0.56688964
-1.776476 2.2276392 -0.56367433
-1.8637462 2.3370728 -0.5655908
-1.9582492 2.4555764 -0.56727356
-2.0542815 2.5759976 -0.56685752
-2.1684189 2.7191219 -0.56863379
-2.2823553 2.861994 -0.56731647
-2.4254062 3.0413752 -0.56980884
-2.5681815 3.2204101 -0.56842494
-2.7436883 3.4404898 -0.57004261
-2.9337516 3.6788225 -0.56980991
-3.1534772 3.9543505 -0.56987596
-3.4204354 4.2891073 -0.57198799
-3.7223425 4.6676879 -0.57235903
-4.0793104 5.1153135 -0.57241315
-4.5235777 5.6724091 -0.57403523
-5.0640159 6.3500996 -0.57473332
-5.7567873 7.2188106 -0.57627994
-6.6689973 8.3626909 -0.57839668
-7.9190278 9.9301853 -0.58098686
-9.7490664 12.224991 -0.58506918
-12.666546 15.883409 -0.59112304
-18.104673 22.702631 -0.60342366
-31.656149 39.695709 -0.63299596
-1.3332382 1.6303021 -0.56431115
-1.3901217 1.6998599 -0.56887025
-1.4416348 1.7628508 -0.56979674
-1.4921877 1.8246677 -0.56900352
-1.5437657 1.8877379 -0.56726533
-1.6049361 1.962538 -0.5675745
-1.6755577 2.0488951 -0.56949157
-1.7397949 2.127445 -0.56746823
-1.821457 2.2273028 -0.56921351
-1.8947976 2.3169844 -0.56632507
-1.9870137 2.4297476 -0.5669083
-2.0926511 2.5589225 -0.56871957
-2.2023852 2.6931067 -0.56881386
-2.3189709 2.8356698 -0.56770784
-2.4711738 3.0217853 -0.57178843
-2.6119301 3.1939042 -0.56937236
-2.7888193 3.4102066 -0.57066375
-2.9908693 3.6572759 -0.57212573
-3.2066643 3.9211531 -0.5707311
-3.4703374 4.2435765 -0.57156366
-3.7737877 4.6146393 -0.57150108
-4.1427975 5.0658698 -0.57253748
-4.5914116 5.6144414 -0.57383907
-5.1438684 6.2899933 -0.57497448
-5.8386636 7.1395979 -0.57564431
-6.7756629 8.2853737 -0.57876784
-8.0458517 9.8385782 -0.58137167
-9.9037457 12.110436 -0.58537078
-12.879624 15.749381 -0.59198439
-18.412756 22.515371 -0.60441864
-32.204975 39.380684 -0.63423938
-1.3670704 1.630348 -0.57010257
-1.4034427 1.6737251 -0.56585658
-1.4576303 1.7383484 -0.56762743
-1.5103594 1.8012323 -0.56744409
-1.5638947 1.8650777 -0.56619185
-1.6272446 1.9406279 -0.56698191
-1.6807921 2.0044878 -0.56285059
-1.771735 2.1129448 -0.56936866
-1.8429555 2.1978815 -0.56744319
-1.9224415 2.2926753 -0.56611854
-2.0178299 2.4064341 -0.56721514
-2.1205566 2.5289445 -0.56780928
-2.2379308 2.6689231 -0.56947517
-2.3634419 2.8186061 -0.57006687
-2.5017941 2.9836028 -0.57034147
-2.6497397 3.1600404 -0.56910092
-2.8254116 3.369544 -0.56963003
-3.0302072 3.6137803 -0.57110721
-3.2556984 3.8826981 -0.57091767
-3.534807 4.2155585 -0.57360095
-3.8340347 4.572413 -0.57206702
-4.2135515 5.0250192 -0.57373297
-4.667644 5.5665631 -0.57476836
-5.234725 6.2428555 -0.57650602
-5.9323025 7.0747762 -0.5762558
-6.8825884 8.2080736 -0.57923621
-8.1716261 9.7453613 -0.58175695
-10.064672 12.002979 -0.58611453
-13.093151 15.614699 -0.59292877
-18.697527 22.298393 -0.60472012
-32.752399 39.060028 -0.63551331
-1.3752573 1.5997411 -0.5652706
-1.4227502 1.6549864 -0.56539333
-1.4807291 1.7224292 -0.56833178
-1.5247349 1.773618 -0.56460845
-1.5902865 1.8498696 -0.56746858
-1.6522837 1.9219867 -0.56742871
-1.7133603 1.9930328 -0.56550723
-1.7836242 2.0747659 -0.56494796
-1.8694181 2.1745641 -0.56731504
-1.9587151 2.2784369 -0.56850702
-2.050951 2.3857286 -0.56823611
-2.1547916 2.5065193 -0.56868035
-2.272644 2.6436088 -0.5699935
-2.3850698 2.7743859 -0.56701201
-2.5373425 2.9515142 -0.57012856
-2.6917334 3.1311061 -0.56980789
-2.8748209 3.3440793 -0.57125801
-3.0815117 3.5845084 -0.57242614
-3.3043468 3.8437166 -0.57111722
-3.5727377 4.1559172 -0.57142019
-3.897836 4.5340815 -0.57322448
-4.2707586 4.9678764 -0.57316124
-4.7348003 5.5076637 -0.57465494
-5.3005328 6.165741 -0.57536024
-6.0298567 7.0141129 -0.57731032
-6.9744048 8.1128397 -0.57852399
-8.2914867 9.6449089 -0.58180279
-10.208269 11.87457 -0.58592939
-13.285709 15.454342 -0.59299821
-18.978582 22.076464 -0.60498464
-33.286518 38.719891 -0.6365906
-1.4063778 1.595822 -0.56995332
-1.4415808 1.6357669 -0.5648405
-1.4990884 1.7010211 -0.56730735
-1.5543097 1.7636808 -0.56748641
-1.6140354 1.8314518 -0.567864
-1.6784073 1.9044948 -0.56831467
-1.7410563 1.9755828 -0.56658769
-1.8190238 2.0640528 -0.56807852
-1.8981692 2.1538594 -0.56795985
-1.9922726 2.260639 -0.57013559
-2.086669 2.3677509 -0.57002252
-2.1909387 2.4860659 -0.57010913
-2.3047822 2.6152446 -0.56994534
-2.425595 2.7523315 -0.56855738
-2.5630112 2.908258 -0.56781787
-2.7286258 3.0961814 -0.56951505
-2.9062498 3.2977321 -0.5694024
-3.1061683 3.5245802 -0.56891251
-3.3496547 3.8008652 -0.57082701
-3.6186886 4.1061392 -0.57065094
-3.9483988 4.4802623 -0.57251525
-4.3268752 4.9097209 -0.57254684
-4.7953 5.4412441 -0.57383376
-5.3726091 6.0963192 -0.57500345
-6.1098185 6.9328327 -0.57676047
-7.0780506 8.0314894 -0.57888561
-8.419404 9.5535278 -0.58249152
-10.368058 11.764673 -0.58675319
-13.481281 15.297258 -0.59328681
-19.27685 21.873512 -0.60587293
-33.830154 38.387196 -0.63791186
-1.4069239 1.5574111 -0.56237108
-1.4721898 1.629658 -0.56893903
-1.5197999 1.6823605 -0.56727374
-1.5724672 1.7406613 -0.56625831
-1.6308293 1.8052658 -0.56591976
-1.7017283 1.8837483 -0.5683251
-1.7634406 1.9520615 -0.56601799
-1.8423839 2.0394487 -0.5674991
-1.9257067 2.1316838 -0.56831342
-2.0065689 2.2211952 -0.56636786
-2.1175447 2.3440413 -0.57053995
-2.2183704 2.4556515 -0.56934685
-2.3295081 2.5786765 -0.56817567
-2.468164 2.7321634 -0.5706175
-2.6086473 2.8876731 -0.57001853
-2.774322 3.0710688 -0.57112765
-2.9565165 3.2727509 -0.57132304
-3.15797 3.4957523 -0.5704841
-3.3971896 3.7605593 -0.57100427
-3.6773827 4.0707226 -0.57196999
-3.9961395 4.423574 -0.57150728
-4.3924704 4.8622971 -0.57327175
-4.8633232 5.383513 -0.57400876
-5.4429641 6.0251536 -0.5745604
-6.1936922 6.8561811 -0.57667601
-7.1835828 7.951952 -0.5794757
-8.5295238 9.4418573 -0.58203369
-10.511812 11.636175 -0.58674675
-13.675946 15.138751 -0.59361649
-19.576982 21.670973 -0.60688478
-34.363358 38.038925 -0.63909787
-1.4382738 1.5532856 -0.56722468
-1.4889631 1.6080284 -0.5677368
-1.5392843 1.6623735 -0.56687373
-1.5911921 1.7184321 -0.56534922
-1.6592835 1.7919685 -0.56810445
-1.7194961 1.8569959 -0.56659013
-1.7843699 1.9270575 -0.56508726
-1.8662167 2.015449 -0.56716353
-1.941902 2.0971866 -0.5654397
-2.0437002 2.2071252 -0.56914496
-2.1418951 2.3131721 -0.56939399
-2.2410936 2.4203031 -0.56749767
-2.361994 2.5508714 -0.56840569
-2.5030432 2.7031996 -0.57095337
-2.6468379 2.8584931 -0.57063997
-2.8012137 3.0252135 -0.56896269
-2.9873154 3.2261968 -0.56956559
-3.2090211 3.465631 -0.5719648
-3.4523187 3.728384 -0.57252133
-3.7196577 4.0171008 -0.5708192
-4.0606289 4.3853378 -0.57297492
-4.4605575 4.8172464 -0.57438362
-4.9377661 5.3326154 -0.57501227
-5.539114 5.9820504 -0.57690161
-6.2917213 6.7948399 -0.57798016
-7.2669506 7.8480539 -0.57837242
-8.6473026 9.3387852 -0.58219057
-10.651212 11.502937 -0.58658814
-13.868839 14.977864 -0.59395003
-19.862597 21.450912 -0.60751599
-34.897602 37.688194 -0.64036644
-1.4534608 1.531477 -0.56574452
-1.5066699 1.5875421 -0.56700212
-1.5548525 1.638311 -0.56514531
-1.6222447 1.7093205 -0.56887132
-1.6809759 1.7712042 -0.56803161
-1.7544397 1.8486114 -0.57057106
-1.8243277 1.9222506 -0.57021272
-1.8989332 2.0008607 -0.5695861
-1.9748989 2.080904 -0.56755418
-2.0685484 2.1795802 -0.5685581
-2.1746485 2.2913754 -0.57056779
-2.2721298 2.394089 -0.56785917
-2.394583 2.5231152 -0.568739
-2.5317876 2.6676843 -0.56998444
-2.6804645 2.8243415 -0.57035905
-2.8499725 3.002948 -0.57132298
-3.0314984 3.1942177 -0.5704577
-3.2433589 3.41745 -0.57055199
-3.4830825 3.6700411 -0.57009602
-3.7713647 3.9737971 -0.57121235
-4.1104283 4.3310604 -0.57244384
-4.5129352 4.7551723 -0.57355559
-4.9954772 5.2636151 -0.57415217
-5.6068664 5.9078217 -0.57634842
-6.3791981 6.7216091 -0.57837969
-7.379024 7.7751017 -0.57963914
-8.7895098 9.2612972 -0.58405358
-10.807088 11.387172 -0.58741695
-14.065323 14.820295 -0.5945152
-20.135887 21.216705 -0.60784936
-35.422974 37.324341 -0.64153659
-1.4700748 1.5113245 -0.56493503
-1.5234461 1.5661933 -0.56602508
-1.5826041 1.6270113 -0.56791747
-1.6402372 1.6862617 -0.56786662
-1.695027 1.7425888 -0.56549621
-1.7741156 1.8238965 -0.56963307
-1.8370208 1.8885669 -0.56687868
-1.9205989 1.9744902 -0.5687592
-2.0073979 2.0637248 -0.56955796
-2.087414 2.1459861 -0.56644762
-2.2008049 2.2625587 -0.57008779
-2.3004484 2.3649983 -0.56762576
-2.4270794 2.4951825 -0.5691269
-2.5604832 2.6323295 -0.56911457
-2.710537 2.7865934 -0.56942385
-2.8786256 2.9593987 -0.56972885
-3.0614674 3.1473711 -0.56877148
-3.2906401 3.3829744 -0.57150847
-3.5336246 3.632777 -0.57101393
-3.8342588 3.9418466 -0.57335359
-4.1689792 4.2859592 -0.57321501
-4.5582905 4.6861944 -0.57195312
-5.0621614 5.2042036 -0.57441807
-5.681757 5.8411846 -0.57661986
-6.4566579 6.6378293 -0.57795858
-7.4874253 7.6975198 -0.5806753
-8.8939857 9.143548 -0.58348066
-10.947573 11.254758 -0.58748615
-14.250394 14.650255 -0.5946784
-20.428143 21.001348 -0.60883003
-35.941826 36.95034 -0.64265603
-1.4885943 1.4931831 -0.56495327
-1.5543824 1.5591741 -0.57035285
-1.604266 1.6092116 -0.56854713
-1.6596848 1.664801 -0.56746936
-1.7234364 1.7287492 -0.56783926
-1.7960837 1.8016205 -0.56953049
-1.8717963 1.8775665 -0.57044238
-1.9480482 1.9540534 -0.56972933
-2.0335524 2.0398211 -0.56981903
-2.1174617 2.1239893 -0.56747127
-2.2144094 2.2212355 -0.56649387
-2.3324721 2.3396626 -0.56838572
-2.4515522 2.4591095 -0.56773198
-2.5930078 2.6010013 -0.56919187
-2.7470884 2.7555568 -0.56994122
-2.9137712 2.9227533 -0.56952864
-3.1092997 3.1188846 -0.5704897
-3.334507 3.3447864 -0.57194072
-3.5821512 3.5931938 -0.57167244
-3.8789816 3.8909392 -0.57284343
-4.2130537 4.2260413 -0.57208681
-4.6306272 4.6449022 -0.57381958
-5.1235209 5.1393151 -0.5741663
-5.7429738 5.7606778 -0.57560015
-6.5438585 6.5640316 -0.5784955
-7.5904903 7.6138897 -0.58136356
-9.0022345 9.0299854 -0.58325362
-11.099186 11.133401 -0.58823115
-14.450331 14.494876 -0.59553891
-20.698156 20.761963 -0.60922259
-36.458706 36.571095 -0.64380866
-1.5065781 1.4745096 -0.56485456
-1.570451 1.5370229 -0.56927085
-1.6152153 1.5808345 -0.56549573
-1.6730492 1.6374373 -0.56511182
-1.7379472 1.700954 -0.56568623
-1.8085895 1.7700925 -0.56655133
-1.8892738 1.8490593 -0.56879652
-1.9668394 1.924974 -0.56825936
-2.0510352 2.0073776 -0.56775838
-2.1424975 2.0968931 -0.56722772
-2.2543707 2.2063849 -0.56973314
-2.3610258 2.31077 -0.56837672
-2.4834852 2.4306226 -0.56816256
-2.6268201 2.5709066 -0.56963158
-2.7898297 2.7304466 -0.57179976
-2.9519949 2.8891599 -0.57001275
-3.1496935 3.0826504 -0.57090306
-3.3707063 3.2989585 -0.57114857
-3.6288173 3.5515757 -0.57210708
-3.925663 3.8421028 -0.57271695
-4.2672873 4.1764555 -0.57243431
-4.6853137 4.5855842 -0.57356554
-5.1910567 5.0805616 -0.57469022
-5.8266582 5.7026343 -0.5769158
-6.6227837 6.4818134 -0.57838291
-7.6773205 7.5139036 -0.5808934
-9.1262531 8.9319944 -0.58412862
-11.234936 10.995793 -0.58821529
-14.634758 14.323248 -0.59583604
-20.972172 20.525766 -0.60981286
-36.979233 36.192108 -0.64509302
-1.5381339 1.4688035 -0.56987101
-1.5853242 1.5138668 -0.56787151
-1.6451795 1.5710241 -0.56917995
-1.7074033 1.6304432 -0.56990069
-1.7804209 1.7001696 -0.57266301
-1.8297215 1.7472478 -0.56639791
-1.9166273 1.8302366 -0.57021302
-1.9980938 1.908031 -0.57046759
-2.0672104 1.9740322 -0.56547385
-2.1778734 2.0797071 -0.56977999
-2.2745149 2.1719925 -0.56803137
-2.3951278 2.287169 -0.56977266
-2.5132124 2.3999312 -0.56816924
-2.6581721 2.5383568 -0.5696187
-2.8055191 2.6790621 -0.5682205
-2.987345 2.8526924 -0.57002223
-3.1908376 3.0470126 -0.57152629
-3.4109766 3.2572291 -0.57114238
-3.6685355 3.5031786 -0.5715344
-3.9698405 3.7909024 -0.57231814
-4.3333778 4.1380539 -0.57443082
-4.744278 4.5304327 -0.57392073
-5.2583203 5.0213046 -0.57525778
-5.8990312 5.6331363 -0.57717967
-6.7000732 6.3980718 -0.5782184
-7.7665138 7.4164433 -0.58069801
-9.2397528 8.8232765 -0.58440477
-11.378431 10.865556 -0.58868849
-14.817159 14.149284 -0.59613353
-21.253662 20.295666 -0.610695
-37.478367 35.789055 -0.64607435
-1.5426704 1.4372891 -0.56496108
-1.5964473 1.4873925 -0.56526166
-1.6582767 1.5449983 -0.56709558
-1.7213167 1.603732 -0.56791955
-1.7866772 1.6646277 -0.5680486
-1.8540258 1.7273756 -0.56730342
-1.9328461 1.8008115 -0.56840736
-2.011971 1.8745314 -0.56780577
-2.1035962 1.9598976 -0.56879163
-2.2031763 2.0526752 -0.56975317
-2.3026643 2.1453671 -0.56843019
-2.4197235 2.2544298 -0.56898606
-2.5431242 2.369401 -0.56830174
-2.6890612 2.5053689 -0.56959319
-2.8549528 2.6599283 -0.57156491
-3.0318437 2.8247356 -0.57184213
-3.2315309 3.010782 -0.57214057
-3.44679 3.2113366 -0.57048392
-3.7165871 3.4627035 -0.57234365
-4.0189457 3.7444077 -0.5727163
-4.3768363 4.0778503 -0.57350135
-4.8082285 4.479774 -0.57494968
-5.3071909 4.9446521 -0.57390916
-5.9712114 5.5633125 -0.57750499
-6.7842898 6.3208489 -0.57873493
-7.8594894 7.3226004 -0.58087337
-9.3506947 8.7119408 -0.58460194
-11.519325 10.73243 -0.58910561
-15.012429 13.986917 -0.5970251
-21.51602 20.04624 -0.61110449
-37.982861 35.388214 -0.64722079
-1.5637442 1.4214104 -0.56623501
-1.619363 1.4719667 -0.56692392
-1.6657542 1.5141354 -0.56324303
-1.7333732 1.5755997 -0.56546241
-1.8067304 1.6422799 -0.56796086
-1.8730193 1.702535 -0.56666648
-1.9532355 1.7754499 -0.56794024
-2.0348487 1.8496345 -0.56780058
-2.122488 1.9292969 -0.56744224
-2.218739 2.0167868 -0.56732166
-2.3334825 2.1210864 -0.56955636
-2.4523091 2.2290971 -0.57015997
-2.5831702 2.3480473 -0.57075548
-2.7121544 2.465291 -0.56802064
-2.8842685 2.6217394 -0.57093674
-3.0555797 2.7774575 -0.56983429
-3.2689006 2.9713619 -0.57224476
-3.4892454 3.1716504 -0.57101268
-3.7530727 3.411464 -0.57145917
-4.0622225 3.6924748 -0.57236987
-4.4172382 4.0151763 -0.57228267
-4.861939 4.4193997 -0.57483059
-5.3864675 4.8961854 -0.57592785
-6.0422177 5.4922481 -0.57779694
-6.8706636 6.2452884 -0.57950824
-7.9494209 7.2258558 -0.58090925
-9.4664354 8.6047907 -0.58517867
-11.654756 10.593926 -0.58932507
-15.18872 13.806226 -0.59723932
-21.77207 19.790352 -0.61141896
-38.483032 34.980263 -0.6483652
-1.5800349 1.4011288 -0.56585252
-1.6408178 1.4550292 -0.56812835
-1.6933644 1.5016261 -0.56629258
-1.7571323 1.5581737 -0.56691986
-1.8251141 1.6184579 -0.56744087
-1.8990812 1.6840497 -0.56824332
-1.9717262 1.7484692 -0.56702238
-2.0638618 1.8301724 -0.56957364
-2.1561186 1.911983 -0.57010472
-2.2565126 2.0010095 -0.57064557
-2.352078 2.0857539 -0.56779218
-2.4670236 2.1876843 -0.56728375
-2.6190193 2.3224697 -0.57232314
-2.75722 2.4450223 -0.57111913
-2.916676 2.5864232 -0.57101303
-3.0958943 2.7453485 -0.57101387
-3.2956033 2.9224446 -0.57058525
-3.5341814 3.1340086 -0.57201654
-3.7894077 3.3603361 -0.57065696
-4.1131516 3.6474226 -0.573183
-4.4798822 3.9726288 -0.57402647
-4.9179735 4.3611155 -0.57507187
-5.4422297 4.8260102 -0.5755015
-6.0930505 5.4031391 -0.57626098
-6.940845 6.1549387 -0.57900035
-8.0519352 7.1402206 -0.58194053
-9.562254 8.4795275 -0.58461213
-11.792377 10.457135 -0.58973736
-15.360388 13.621143 -0.59735841
-22.043201 19.547266 -0.61223674
-38.978767 34.565231 -0.64950734
-1.6099883 1.3927071 -0.57040346
-1.6561313 1.4326228 -0.56728816
-1.7091547 1.4784902 -0.56545061
-1.7791404 1.5390307 -0.56787175
-1.8497676 1.6001263 -0.56894541
-1.9118081 1.6537938 -0.56592381
-1.999149 1.7293473 -0.56875026
-2.0823994 1.8013624 -0.56853354
-2.1775463 1.8836684 -0.56960291
-2.2779045 1.9704825 -0.56988478
-2.3904355 2.0678265 -0.57087046
-2.4991963 2.1619091 -0.56852591
-2.6324131 2.2771473 -0.5690881
-2.7818975 2.4064577 -0.57005829
-2.9406228 2.5437615 -0.56953442
-3.1320558 2.7093589 -0.57149559
-3.3380079 2.8875163 -0.5717364
-3.5816097 3.098242 -0.57348341
-3.8456485 3.3266466 -0.57292295
-4.1482029 3.5883689 -0.57187545
-4.5205207 3.910439 -0.57302904
-4.9676175 4.2971964 -0.57465464
-5.5026484 4.7600207 -0.57565755
-6.1636457 5.331811 -0.57669336
-7.0234137 6.0755463 -0.57961226
-8.1377163 7.0394645 -0.58184022
-9.6618929 8.3579416 -0.58437634
-11.93574 10.324914 -0.59051305
-15.544106 13.446301 -0.59802783
-22.300745 19.291075 -0.61275512
-39.461624 34.135956 -0.65050972
-1.610922 1.3592478 -0.56476992
-1.6696199 1.4087754 -0.56593198
-1.7299041 1.4596413 -0.56633443
-1.798443 1.5174725 -0.56803405
-1.866454 1.5748582 -0.56807852
-1.9321185 1.6302639 -0.56595916
-2.0103323 1.6962584 -0.5659551
-2.0928142 1.7658541 -0.56540602
-2.1994102 1.8557966 -0.56930983
-2.2909367 1.933024 -0.56715572
-2.4054866 2.0296779 -0.5684616
-2.5309646 2.1355524 -0.56973594
-2.6649284 2.2485869 -0.57009685
-2.7991383 2.3618293 -0.56759709
-2.982116 2.5162203 -0.57153499
-3.1694434 2.6742816 -0.57227403
-3.365545 2.8397465 -0.57042897
-3.6147358 3.0500062 -0.57273912
-3.8991027 3.2899466 -0.57481617
-4.2001801 3.5439866 -0.57298994
-4.5771384 3.8620527 -0.57414269
-5.029192 4.2434821 -0.5756979
-5.5572009 4.6890006 -0.57528919
-6.2340293 5.260088 -0.57718337
-7.1035433 5.9937577 -0.58009881
-8.2276917 6.9422808 -0.58212578
-9.7806396 8.2526121 -0.58537656
-12.057186 10.173493 -0.59028774
-15.722368 13.266065 -0.59856492
-22.563391 19.038315 -0.61349297
-39.950882 33.709362 -0.65169269
-1.6329037 1.3437743 -0.56664068
-1.6896889 1.3905048 -0.56689608
-1.7446299 1.4357177 -0.56533301
-1.8240938 1.5011114 -0.57026267
-1.8859714 1.5520327 -0.56816733
-1.951939 1.6063197 -0.56593639
-2.0279083 1.6688377 -0.56508332
-2.1141975 1.739848 -0.56536043
-2.216609 1.8241261 -0.56791282
-2.3199584 1.9091759 -0.56848562
-2.4373693 2.0057976 -0.57012439
-2.5483544 2.097131 -0.56780273
-2.6966 2.2191277 -0.57099158
-2.8355315 2.3334594 -0.5691154
-2.9940915 2.463944 -0.56798053
-3.2020979 2.6351197 -0.57227623
-3.4078834 2.8044679 -0.57171679
-3.6511545 3.0046644 -0.57261217
-3.9178426 3.2241313 -0.57169098
-4.255868 3.5023043 -0.57466841
-4.6238537 3.8051331 -0.57409
-5.0807371 4.1811185 -0.57566953
-5.6213894 4.6260405 -0.57600182
-6.2989616 5.1836386 -0.57725006
-7.1808815 5.9094014 -0.58043659
-8.3070831 6.8361926 -0.58175141
-9.8899107 8.1387577 -0.58588243
-12.18419 10.026801 -0.59042472
-15.889132 13.075729 -0.59874725
-22.828022 18.785988 -0.61436093
-40.419453 33.2626 -0.65261489
-1.6521804 1.3259047 -0.56762934
-1.7120581 1.3739575 -0.5686897
-1.7771478 1.4261932 -0.5701443
-1.8304663 1.4689822 -0.56656492
-1.9021714 1.5265269 -0.56734991
-1.9743414 1.5844448 -0.56673998
-2.0544202 1.6487094 -0.5667789
-2.153415 1.7281544 -0.57012194
-2.2390082 1.7968445 -0.5679478
-2.3358641 1.8745732 -0.56669194
-2.4559214 1.9709213 -0.56875199
-2.5892317 2.0779052 -0.57117438
-2.7209642 2.1836231 -0.57042193
-2.8693027 2.3026674 -0.57016742
-3.0440705 2.4429216 -0.57171988
-3.2284954 2.5909259 -0.57125694
-3.4490795 2.7679486 -0.57287467
-3.6806829 2.9538145 -0.57150358
-3.9639618 3.1811509 -0.57266945
-4.2902861 3.4430323 -0.57355571
-4.6729331 3.7501132 -0.57441485
-5.1164885 4.1060743 -0.57395613
-5.6747513 4.5540905 -0.575688
-6.3632393 5.1066146 -0.57734239
-7.2475095 5.8162575 -0.57999736
-8.3948879 6.7370496 -0.58205503
-9.9951229 8.0212669 -0.58622789
-12.311317 9.8800545 -0.59065324
-16.05007 12.880472 -0.59879822
-23.059509 18.505674 -0.61442035
-40.897373 32.820881 -0.65376574
-1.6725549 1.3087739 -0.56905717
-1.732255 1.3554891 -0.56981891
-1.7860101 1.3975526 -0.56743133
-1.8612434 1.4564226 -0.57050478
-1.9346517 1.5138645 -0.57144219
-1.9977421 1.5632328 -0.56789643
-2.085309 1.6317539 -0.56972194
-2.1720698 1.6996442 -0.56948459
-2.2622423 1.7702042 -0.56827694
-2.3678317 1.8528279 -0.56887716
-2.4812934 1.9416116 -0.56905568
-2.6005435 2.0349247 -0.56810701
-2.7450931 2.1480348 -0.56989998
-2.8855531 2.2579446 -0.56783646
-3.0727131 2.4043975 -0.57150334
-3.262403 2.5528297 -0.57165903
-3.4759173 2.7199047 -0.57173401
-3.7102156 2.9032428 -0.57050288
-3.9949675 3.1260612 -0.57155228
-4.3234696 3.3831143 -0.57238728
-4.7133651 3.6882071 -0.57376671
-5.1815271 4.054544 -0.5756157
-5.7301726 4.4838586 -0.57567346
-6.4431734 5.0417819 -0.57892621
-7.3185506 5.7267642 -0.58000332
-8.476594 6.6329331 -0.582021
-10.090646 7.8959279 -0.58609152
-12.442088 9.7359314 -0.59113884
-16.221958 12.69368 -0.59934241
-23.314537 18.243622 -0.6151917
-41.356533 32.361481 -0.65469503
-1.6865377 1.2865974 -0.56838888
-1.7472452 1.3329089 -0.56931543
-1.8078576 1.3791478 -0.56894153
-1.8721255 1.4281754 -0.56841445
-1.9475305 1.4856991 -0.56980705
-2.0119305 1.5348275 -0.56652194
-2.1146834 1.6132139 -0.5722844
-2.1886737 1.6696583 -0.56841201
-2.2847772 1.7429721 -0.56851089
-2.3890135 1.8224902 -0.56853902
-2.5167472 1.9199336 -0.57172906
-2.6186674 1.9976847 -0.56665719
-2.764004 2.1085565 -0.56840026
-2.9292827 2.2346416 -0.57099134
-3.1047306 2.3684843 -0.5719983
-3.2853031 2.5062363 -0.57022852
-3.5113394 2.6786711 -0.57209927
-3.7583401 2.8670988 -0.57243848
-4.0472217 3.0874758 -0.5735532
-4.3909864 3.3497214 -0.57582915
-4.7593498 3.6307321 -0.57388633
-5.2361188 3.9944417 -0.57618028
-5.7935195 4.419662 -0.57653415
-6.4843369 4.946661 -0.57711583
-7.3883576 5.6363053 -0.57999915
-8.5702343 6.5379152 -0.58288652
-10.1935 7.7762442 -0.58646733
-12.574669 9.5927505 -0.59178889
-16.386658 12.500776 -0.59970289
-23.55711 17.97085 -0.61571497
-41.820347 31.903198 -0.65577757
-1.6907831 1.2572517 -0.56456685
-1.7584101 1.3075385 -0.5676716
-1.8304949 1.3611401 -0.57075518
-1.8852454 1.4018521 -0.56712133
-1.958398 1.4562477 -0.56770456
-2.0348806 1.5131196 -0.56770229
-2.1125591 1.5708805 -0.56643921
-2.205709 1.640146 -0.56755549
-2.305388 1.7142664 -0.56835133
-2.4140859 1.7950933 -0.56920969
-2.536016 1.8857594 -0.57079548
-2.6613014 1.9789206 -0.57057405
-2.8055623 2.0861917 -0.57162786
-2.9604356 2.2013543 -0.57174426
-3.1358376 2.3317816 -0.57240343
-3.3130167 2.4635303 -0.56973779
-3.5466263 2.6372406 -0.57252169
-3.7894859 2.8178287 -0.57186162
-4.0888033 3.0403986 -0.57410437
-4.4256935 3.2909074 -0.57503045
-4.8158364 3.5810142 -0.57534444
-5.2788215 3.9252858 -0.57552445
-5.856493 4.3548374 -0.57742834
-6.5549555 4.874208 -0.57802296
-7.4596066 5.5468988 -0.58019406
-8.6595459 6.4391632 -0.58353156
-10.286842 7.6492062 -0.58638179
-12.69501 9.4398994 -0.59194481
-16.554249 12.309596 -0.60025132
-23.799555 17.697144 -0.61631745
-42.28434 31.442266 -0.65694106
-1.7216116 1.2475983 -0.56969517
-1.7789147 1.289124 -0.56913072
-1.8331124 1.3283994 -0.56643528
-1.9071677 1.3820649 -0.56856072
-1.9828695 1.4369236 -0.56963342
-2.0591786 1.4922225 -0.56931889
-2.1425419 1.5526333 -0.56931639
-2.2300043 1.6160145 -0.56865084
-2.3304811 1.6888269 -0.56937492
-2.4351289 1.764662 -0.56901199
-2.5534282 1.8503897 -0.56955034
-2.6872594 1.947373 -0.57096225
-2.8293893 2.0503702 -0.57130247
-2.9778612 2.157963 -0.56994176
-3.1404083 2.2757559 -0.5680868
-3.3470259 2.4254854 -0.57041425
-3.5798821 2.5942287 -0.57269728
-3.8209143 2.7688975 -0.57142317
-4.1202135 2.9857903 -0.57331622
-4.4598207 3.2318928 -0.57425761
-4.8612189 3.5227737 -0.57554764
-5.3343959 3.8656704 -0.57635748
-5.9025974 4.2774282 -0.57674462
-6.6118197 4.7913795 -0.57779825
-7.5233727 5.4519534 -0.57989556
-8.7313166 6.3273129 -0.58308095
-10.397225 7.5345445 -0.58734834
-12.811687 9.2842302 -0.59201729
-16.71394 12.112071 -0.60059595
-24.044636 17.424397 -0.61706895
-42.734428 30.968307 -0.65796781
-1.7245984 1.2177054 -0.56568587
-1.7937938 1.2665629 -0.5688653
-1.8516155 1.3073897 -0.56714237
-1.9326901 1.3646349 -0.57112372
-1.9881855 1.4038191 -0.56615883
-2.0752773 1.465313 -0.5687452
-2.1636527 1.5277129 -0.56989115
-2.2593486 1.5952822 -0.57108837
-2.3432534 1.6545256 -0.56748194
-2.4654238 1.7407877 -0.57104594
-2.57217 1.8161591 -0.56870645
-2.7043695 1.9095027 -0.56956577
-2.8591096 2.0187616 -0.57224792
-3.001477 2.1192846 -0.56943101
-3.1636045 2.2337596 -0.56727129
-3.3733213 2.3818367 -0.56986111
-3.6087251 2.5480506 -0.57225585
-3.8588805 2.7246804 -0.57204723
-4.1632938 2.9396207 -0.57423759
-4.4986587 3.1764152 -0.57418573
-4.8896036 3.4524541 -0.57383865
-5.3790755 3.7980607 -0.57609534
-5.9637218 4.2108679 -0.57761407
-6.6815572 4.7177176 -0.57877922
-7.5931602 5.361383 -0.58014935
-8.8072882 6.2186546 -0.5830037
-10.483042 7.4018722 -0.5870102
-12.932889 9.1316614 -0.5923844
-16.86998 11.911565 -0.60089439
-24.270882 17.137197 -0.61742055
-43.176079 30.485788 -0.65894622
-1.7429516 1.1988236 -0.56682777
-1.8058318 1.2420733 -0.56779641
-1.8783823 1.2919744 -0.57043171
-1.948465 1.3401781 -0.57087237
-2.0118051 1.3837442 -0.56799656
-2.0880046 1.4361552 -0.56735057
-2.1787777 1.49859 -0.56897831
-2.2741225 1.5641694 -0.56991792
-2.3687942 1.6292857 -0.56877244
-2.484606 1.7089424 -0.57057852
-2.597899 1.7868668 -0.56949401
-2.7295649 1.8774282 -0.56996697
-2.8684442 1.9729511 -0.5692175
-3.0449939 2.0943842 -0.57275766
-3.2180083 2.2133856 -0.57210296
-3.4155428 2.3492522 -0.57207042
-3.6320217 2.4981492 -0.57103574
-3.9030449 2.6845622 -0.57365733
-4.1827145 2.8769224 -0.57199365
-4.524693 3.1121395 -0.57258099
-4.9447412 3.4010537 -0.57535791
-5.439919 3.7416432 -0.57764041
-6.0031271 4.1290245 -0.57646954
-6.7393456 4.6354046 -0.57880384
-7.6617475 5.2698441 -0.5803948
-8.8924084 6.1163073 -0.58361566
-10.56986 7.2700791 -0.58682144
-13.052269 8.9775114 -0.59275132
-17.037699 11.718738 -0.60169017
-24.495777 16.848495 -0.61782455
-43.61227 29.997055 -0.65992397
-1.7586473 1.1780307 -0.56717843
-1.8171725 1.2172338 -0.5666132
-1.8803619 1.2595613 -0.56628656
-1.9573244 1.3111145 -0.56870151
-2.0319262 1.3610866 -0.56890905
-2.1143355 1.4162885 -0.56972998
-2.1934645 1.4692932 -0.56805265
-2.2931888 1.5360936 -0.56991941
-2.3877037 1.5994045 -0.56854761
-2.4928501 1.6698368 -0.56771356
-2.6253839 1.7586145 -0.57073551
-2.7405913 1.8357863 -0.56751287
-2.8952 1.9393511 -0.56975162
-3.0647728 2.0529394 -0.57168651
-3.2298713 2.1635306 -0.56943923
-3.4375432 2.3026397 -0.5709697
-3.6540773 2.4476852 -0.56972826
-3.9272051 2.63064 -0.5724107
-4.2127023 2.8218806 -0.57130617
-4.5797167 3.0677254 -0.574727
-4.9799914 3.3358495 -0.57464325
-5.4680662 3.6627867 -0.57580322
-6.060009 4.0592995 -0.57709491
-6.7949991 4.5516334 -0.57873303
-7.7292733 5.1774573 -0.58064342
-8.9742937 6.011435 -0.58409441
-10.65702 7.1386089 -0.5867427
-13.165496 8.8189135 -0.59292382
-17.192234 11.516226 -0.60210121
-24.70775 16.550497 -0.61799127
-44.037163 29.498314 -0.6608147
-1.7710724 1.1550617 -0.56656218
-1.8314835 1.1944607 -0.56645292
-1.895998 1.2365359 -0.56637359
-1.9698912 1.2847277 -0.56771988
-2.0426586 1.3321853 -0.56728464
-2.1271427 1.3872843 -0.56854141
-2.2303846 1.4546169 -0.5729385
-2.3117268 1.5076668 -0.56987613
-2.41466 1.574798 -0.5703122
-2.532413 1.6515944 -0.57205516
-2.6380079 1.7204615 -0.56883782
-2.7744036 1.8094163 -0.56986421
-2.9173048 1.9026139 -0.56945455
-3.0834701 2.0109839 -0.57051849
-3.2496307 2.1193509 -0.56828541
-3.4700665 2.2631152 -0.57170635
-3.6948476 2.4097133 -0.57142186
-3.9737041 2.5915787 -0.57449991
-4.262805 2.7801249 -0.57342142
-4.6121097 3.0079353 -0.57410705
-5.0134993 3.2697141 -0.57382691
-5.5169291 3.5980422 -0.57624608
-6.1140556 3.9874775 -0.57752877
-6.8481817 4.4662614 -0.57854134
-7.7949319 5.083715 -0.58083594
-9.0516977 5.9033551 -0.58436346
-10.762718 7.0192518 -0.58776557
-13.268703 8.6536102 -0.59273481
-17.32523 11.299205 -0.60184753
-24.930716 16.259365 -0.61852056
-44.463821 28.998508 -0.66181624
-1.7838517 1.1323799 -0.56615311
-1.83603 1.1655023 -0.56338394
-1.9231381 1.2207981 -0.56995356
-1.987095 1.2613977 -0.56816489
-2.0510099 1.3019705 -0.56511503
-2.1418233 1.3596183 -0.56795377
-2.2257524 1.412896 -0.56724274
-2.3266087 1.4769192 -0.56902474
-2.4334216 1.5447234 -0.57021403
-2.5546494 1.6216782 -0.57253039
-2.6629114 1.6904025 -0.56968266
-2.79725 1.7756799 -0.57002896
-2.9313836 1.8608272 -0.56769335
-3.1099045 1.9741514 -0.57087481
-3.2858648 2.08585 -0.57009345
-3.4908452 2.2159705 -0.57059723
-3.7283528 2.366739 -0.57205945
-3.9908412 2.5333652 -0.57243049
-4.294004 2.7258117 -0.57306617
-4.6522193 2.9532049 -0.57453614
-5.0619426 3.213295 -0.57480568
-5.5524545 3.5246694 -0.57538629
-6.1496706 3.903779 -0.5763151
-6.9194489 4.3924303 -0.57995528
-7.8604088 4.989747 -0.58109903
-9.1122646 5.7844186 -0.58363754
-10.866908 6.8982573 -0.58877867
-13.393559 8.502162 -0.59359717
-17.483437 11.098396 -0.602557
-25.158087 15.970223 -0.61924267
-44.895878 28.499672 -0.66298091
-1.8060856 1.1155775 -0.56881291
-1.8661672 1.1526885 -0.56823927
-1.9279195 1.1908314 -0.56698805
-1.9966848 1.2333062 -0.56652784
-2.0775049 1.283227 -0.56802469
-2.1653984 1.3375167 -0.56980097
-2.2436538 1.3858532 -0.56741911
-2.3506835 1.4519629 -0.57050306
-2.4563906 1.5172559 -0.5711813
-2.5487938 1.5743312 -0.56683671
-2.685806 1.6589605 -0.57017332
-2.8156998 1.739193 -0.56938756
-2.9764159 1.8384635 -0.57199311
-3.1309993 1.9339461 -0.57033867
-3.3191936 2.0501895 -0.57145888
-3.5287056 2.1796 -0.57236165
-3.7432923 2.3121455 -0.56994629
-4.0275197 2.4877062 -0.57326049
-4.3268209 2.6725774 -0.57301664
-4.6869226 2.895004 -0.57438213
-5.1031861 3.1521204 -0.57504427
-5.6025391 3.4605591 -0.57612324
-6.1990528 3.8290122 -0.57648695
-6.9600849 4.2990842 -0.57888669
-7.9290004 4.8975611 -0.58167374
-9.1946459 5.6793208 -0.5843969
-10.925287 6.7482982 -0.58740139
-13.489014 8.3318529 -0.59324217
-17.626825 10.887683 -0.60283911
-25.361599 15.665276 -0.6194638
-45.298031 27.979549 -0.66378868
-1.8235255 1.0956054 -0.57001948
-1.8780848 1.1283855 -0.56760025
-1.9459801 1.1691781 -0.56802851
-2.0221105 1.2149186 -0.56946015
-2.0875945 1.2542626 -0.56652361
-2.173995 1.3061734 -0.56779385
-2.2749379 1.3668216 -0.57103723
-2.3706551 1.4243301 -0.57105625
-2.4625723 1.4795556 -0.56834525
-2.5847151 1.5529411 -0.57053548
-2.7075176 1.6267231 -0.57049292
-2.846292 1.7101009 -0.57127839
-2.9892449 1.7959895 -0.57017136
-3.1564155 1.8964285 -0.57067746
-3.3466208 2.0107071 -0.57188094
-3.5487142 2.1321282 -0.5713113
-3.7881365 2.2759774 -0.57246977
-4.0364413 2.425163 -0.57024264
-4.3557267 2.6169951 -0.57253975
-4.724442 2.8385255 -0.57465923
-5.1406646 3.0885992 -0.57494438
-5.652348 3.3960276 -0.5769074
-6.2552915 3.7582862 -0.57737559
-7.0142188 4.214263 -0.57903528
-7.9762712 4.7922802 -0.58077466
-9.2570667 5.5618038 -0.58397329
-11.029532 6.6267319 -0.58858055
-13.600442 8.1713781 -0.59367883
-17.754604 10.66727 -0.60267758
-25.598984 15.380308 -0.62059569
-45.692287 27.452709 -0.66456914
-1.8252319 1.0663089 -0.56641138
-1.8856294 1.1015934 -0.5657438
-1.9618015 1.1460935 -0.56849009
-2.0310061 1.1865231 -0.56781363
-2.1093695 1.2323033 -0.56827766
-2.1840119 1.2759098 -0.56626952
-2.2860162 1.3355012 -0.5696528
-2.3724561 1.3859997 -0.5673418
-2.479064 1.4482806 -0.56799835
-2.6024609 1.5203696 -0.57028282
-2.71788 1.5877979 -0.56851941
-2.8589914 1.670236 -0.56966203
-3.0031896 1.7544771 -0.56867313
-3.1703691 1.8521441 -0.56903958
-3.3678629 1.967521 -0.57133335
-3.5811155 2.092104 -0.57234275
-3.8272102 2.2358737 -0.57417637
-4.0940576 2.3917673 -0.574184
-4.3963675 2.568378 -0.57368714
-4.7595429 2.7805467 -0.57472646
-5.1842089 3.0286386 -0.57560581
-5.6817503 3.3193047 -0.57569897
-6.2967811 3.6786084 -0.57698637
-7.0790606 4.1356196 -0.58014619
-8.0314074 4.6919851 -0.58054447
-9.3295441 5.4503627 -0.58427346
-11.097961 6.48348 -0.58793336
-13.70765 8.0080719 -0.59401536
-17.902935 10.458977 -0.60330147
-25.790792 15.0671 -0.62070721
-46.102665 26.93339 -0.66567063
-1.8479422 1.0493152 -0.56941181
-1.9087423 1.0838393 -0.56863678
-1.9789943 1.1237304 -0.56942499
-2.0587866 1.1690389 -0.57151818
-2.1301963 1.2095873 -0.5698384
-2.2112226 1.2555964 -0.56927854
-2.3048446 1.3087577 -0.57029134
-2.3984137 1.3618889 -0.56950146
-2.5136278 1.4273108 -0.5718531
-2.6250887 1.4906015 -0.5711816
-2.7296317 1.5499641 -0.56694806
-2.888396 1.640115 -0.57145929
-3.0237932 1.7169975 -0.56853372
-3.2119782 1.8238544 -0.57243919
-3.3885853 1.9241371 -0.57079184
-3.599817 2.0440805 -0.57127142
-3.842756 2.1820285 -0.57244003
-4.1116595 2.3347197 -0.57258302
-4.4237661 2.5119429 -0.57318848
-4.7906337 2.7202609 -0.57439822
-5.2063823 2.9563351 -0.57398808
-5.7296429 3.2534575 -0.57645446
-6.3570395 3.6097114 -0.57839698
-7.1167641 4.0411053 -0.57911998
-8.1067619 4.6032548 -0.58185583
-9.4054136 5.3406668 -0.58486784
-11.188918 6.3533921 -0.58856869
-13.797379 7.8345523 -0.59368408
-18.032892 10.239599 -0.60339218
-25.98698 14.756162 -0.62101495
-46.48243 26.394073 -0.66641742
-1.8526126 1.0220504 -0.56693554
-1.9250789 1.0620285 -0.56957006
-1.9903064 1.0980133 -0.56875193
-2.0640104 1.1386744 -0.56903839
-2.1360331 1.1784079 -0.56748062
-2.2181129 1.2236898 -0.56713569
-2.3226812 1.2813781 -0.57076287
-2.4225273 1.3364613 -0.57128191
-2.5176086 1.3889158 -0.56883031
-2.6345634 1.4534373 -0.56931138
-2.7587097 1.5219265 -0.56905758
-2.8948498 1.5970324 -0.5688079
-3.0582855 1.6871966 -0.57107496
-3.2243555 1.7788142 -0.57070374
-3.4202542 1.8868878 -0.57217479
-3.6230781 1.9987818 -0.57101923
-3.8779421 2.1393852 -0.57371932
-4.1379695 2.2828374 -0.57229453
-4.4592347 2.4600732 -0.57382125
-4.8247676 2.6617305 -0.57452315
-5.2544632 2.8987854 -0.57531565
-5.7585487 3.1768794 -0.57538891
-6.3889785 3.5246751 -0.57731593
-7.1751127 3.9583702 -0.57986337
-8.1602802 4.5018682 -0.58167994
-9.4730635 5.2261052 -0.58503431
-11.274264 6.2197924 -0.58899045
-13.905539 7.6714153 -0.59423417
-18.161747 10.019483 -0.60353565
-26.196138 14.4519 -0.62171954
-46.857689 25.850477 -0.66718978
-1.8711191 1.0024515 -0.56878376
-1.9395071 1.0390904 -0.57001549
-2.0020888 1.0726185 -0.56830692
-2.0785668 1.1135916 -0.56923336
-2.1579914 1.1561433 -0.56949443
-2.2453172 1.2029281 -0.57026625
-2.3351493 1.2510556 -0.57000333
-2.4362314 1.3052102 -0.57068563
-2.5275419 1.3541298 -0.56726956
-2.660327 1.4252694 -0.57104838
-2.7888124 1.4941055 -0.57143414
-2.9231062 1.5660534 -0.5705331
-3.0811756 1.6507388 -0.57151574
-3.2494423 1.7408879 -0.57131195
-3.456517 1.851828 -0.57438844
-3.6485584 1.9547142 -0.57120371
-3.8950686 2.086782 -0.57241356
-4.1688333 2.2334514 -0.57272148
-4.489995 2.4055135 -0.57392979
-4.8416142 2.5938935 -0.57268786
-5.2728324 2.8249185 -0.57348025
-5.804678 3.1098545 -0.57613361
-6.4401383 3.4503021 -0.57806134
-7.2276149 3.8721926 -0.58021456
-8.2250128 4.406548 -0.58238769
-9.5336924 5.1076727 -0.58485556
-11.364117 6.0883222 -0.58972883
-14.002321 7.5017395 -0.59438312
-18.321686 9.8158379 -0.60479385
-26.39436 14.140771 -0.6222502
-47.232544 25.304821 -0.66804618
-1.8889326 0.98229665 -0.5704838
-1.9513254 1.0147426 -0.56977862
-2.0232449 1.0521427 -0.57059664
-2.0836756 1.0835683 -0.56694067
-2.1663754 1.1265745 -0.56800818
-2.2603493 1.1754435 -0.57037002
-2.3463101 1.2201456 -0.56902236
-2.4546471 1.2764837 -0.57127947
-2.5571077 1.329766 -0.57019228
-2.6713002 1.3891493 -0.5696941
-2.8098602 1.4612043 -0.57202196
-2.940908 1.5293527 -0.57029402
-3.0910399 1.6074253 -0.56963617
-3.273082 1.7020923 -0.57174516
-3.4672384 1.803059 -0.57244247
-3.6840942 1.9158299 -0.5730356
-3.9382284 2.0479867 -0.57501197
-4.1834106 2.1754882 -0.57100588
-4.5145693 2.3476996 -0.57333755
-4.8878474 2.5418146 -0.57441604
-5.3316793 2.7726195 -0.5761289
-5.8481188 3.041182 -0.57669002
-6.4795437 3.3695402 -0.57783568
-7.2651916 3.7780986 -0.57945782
-8.2723618 4.3018546 -0.58195084
-9.601018 4.9927921 -0.58517522
-11.426292 5.9419851 -0.58911926
