# .PCD v0.7 - Point Cloud Data file format
VERSION 0.7
FIELDS x y z
SIZE 4 4 4
TYPE F F F
COUNT 1 1 1
WIDTH 1482
HEIGHT 1
VIEWPOINT 0 0 0 1 0 0 0
POINTS 1482
DATA ascii
-9.8908529 6.4506369 -0.14721918
-9.6530609 6.2955532 -0.047891058
-9.500309 6.195931 0.047133222
-9.3922129 6.1254325 0.13979723
-9.3203163 6.0785432 0.23123313
-9.2429714 6.0281005 0.32108429
-9.1957579 5.9973083 0.41078964
-9.1534176 5.9696946 0.49987966
-9.140871 5.9615126 0.59012038
-9.1078997 5.9400091 0.67867118
-9.1098976 5.9413123 0.76961344
-9.0971613 5.9330053 0.85931057
-9.118598 5.9469862 0.95244229
-9.1336622 5.956811 1.0454059
-9.1867409 5.9914274 1.1435488
-9.2368536 6.0241103 1.2425174
-9.3286819 6.0839992 1.348698
-9.4686203 6.1752644 1.4643571
-9.7246084 6.3422155 1.6021653
-10.699566 6.9780655 1.8711071
-10.707127 6.982996 1.981084
-10.860308 7.0828977 2.1199195
-1.7805437 1.1302799 -0.56510317
-1.8493717 1.1739717 -0.56747782
-1.9143639 1.2152283 -0.56735319
-1.9945424 1.2661252 -0.57029426
-2.0543246 1.3040748 -0.56602842
-2.1449349 1.3615936 -0.56877887
-2.2341607 1.4182338 -0.56938571
-2.3243251 1.4754695 -0.56846619
-2.4283199 1.541485 -0.5690186
-2.5314972 1.6069815 -0.56734174
-2.6593127 1.688118 -0.56891274
-2.8012257 1.7782036 -0.57083911
-2.9450693 1.8695148 -0.57034373
-3.1093147 1.9737769 -0.57076651
-3.2888663 2.0877552 -0.57061422
-3.488667 2.2145879 -0.57024121
-3.7295644 2.3675082 -0.57224536
-3.9778748 2.5251343 -0.57057065
-4.2861238 2.7208092 -0.57201445
-4.6490898 2.9512184 -0.57414967
-5.0595903 3.2118018 -0.57453859
-5.5530882 3.5250719 -0.57545191
-6.1472049 3.9022138 -0.57608402
-6.8952103 4.3770437 -0.57792372
-7.8532357 4.9851937 -0.58056873
-9.095603 5.7738419 -0.58257037
-10.816157 6.8660407 -0.58602893
-13.34459 8.471077 -0.59142691
-17.414696 11.054759 -0.60018784
-10.767832 6.8353643 -0.26504007
-10.233656 6.4962716 -0.15112117
-9.9622669 6.3239956 -0.049035594
-9.792078 6.2159605 0.048197903
-9.6610584 6.1327901 0.14266559
-9.5828762 6.0831604 0.23587349
-9.5037756 6.0329475 0.32754236
-9.448226 5.997685 0.41874158
-9.4111586 5.9741549 0.50990492
-9.3928299 5.9625196 0.60160762
-9.3764429 5.9521174 0.69317538
-9.3729353 5.9498906 0.78559482
-9.3794813 5.9540462 0.87899613
-9.3883114 5.9596519 0.97288603
-9.4188862 5.9790606 1.0695558
-9.4585676 6.0042496 1.1681067
-9.5401201 6.0560188 1.2731986
-9.6814432 6.1457305 1.3886681
-9.9054928 6.2879558 1.5198485
-11.109044 7.0519638 1.8158325
-11.108722 7.0517592 1.9273494
-11.141392 7.0724978 2.0451882
-12.311631 7.8153601 2.3842773
-1.7965146 1.1096656 -0.56579858
-1.8544667 1.1454613 -0.56467646
-1.9315863 1.1930963 -0.56806642
-2.0040283 1.2378422 -0.5686115
-2.0777295 1.2833656 -0.56808609
-2.1609895 1.3347934 -0.56864083
-2.2517679 1.3908651 -0.56947118
-2.3535466 1.4537315 -0.57119793
-2.4385161 1.5062152 -0.56702495
-2.5653245 1.5845419 -0.57051307
-2.6804318 1.655641 -0.56903243
-2.8300169 1.7480361 -0.57228273
-2.9639163 1.8307428 -0.56959099
-3.1323135 1.9347578 -0.57057804
-3.3108287 2.0450225 -0.57001865
-3.5160728 2.171797 -0.57031256
-3.7555051 2.3196888 -0.57180578
-4.0198522 2.4829702 -0.57216913
-4.3354964 2.6779363 -0.57416558
-4.6800489 2.8907585 -0.57353979
-5.0946317 3.1468365 -0.57408029
-5.5886264 3.4519658 -0.57469255
-6.1878252 3.8220768 -0.57544279
-6.9458714 4.2903047 -0.57770449
-7.9211178 4.8926921 -0.58109552
-9.1710024 5.6647167 -0.58289415
-10.903774 6.7350101 -0.58624476
-13.462921 8.3157358 -0.59209466
-17.550817 10.840735 -0.60023963
-25.239807 15.590047 -0.61648899
-10.590801 6.5416937 -0.15519558
-10.324332 6.3771019 -0.050427943
-10.126096 6.2546563 0.049459685
-10.001815 6.1778903 0.14656468
-9.8940954 6.1113548 0.24166591
-9.842432 6.079443 0.33661211
-9.7705011 6.0350132 0.4297033
-9.746748 6.0203419 0.52403688
-9.7262535 6.0076828 0.61818504
-9.7051592 5.9946527 0.71197325
-9.708849 5.996932 0.80750781
-9.6941128 5.9878297 0.90151346
-9.7128859 5.9994259 0.99880058
-9.7720671 6.0359802 1.1011496
-9.8420057 6.0791802 1.2061374
-9.9709978 6.1588554 1.3204956
-10.165783 6.2791696 1.4469554
-10.561004 6.5232882 1.6079975
-11.539233 7.1275182 1.8716818
-11.553823 7.1365304 1.9891984
-11.570211 7.1466527 2.1076143
-12.179878 7.5232296 2.3406696
-1.8135644 1.0896205 -0.56690568
-1.881287 1.1303095 -0.56856805
-1.9344646 1.1622595 -0.56466717
-2.0120339 1.2088645 -0.5666225
-2.0999568 1.2616899 -0.5698784
-2.1750956 1.3068346 -0.5680812
-2.2620418 1.3590735 -0.56780016
-2.3527761 1.413588 -0.56674945
-2.4601977 1.4781289 -0.56779724
-2.5668247 1.5421922 -0.56658643
-2.7096646 1.6280129 -0.57094532
-2.8395143 1.7060288 -0.56991804
-2.9908168 1.7969339 -0.57047117
-3.1554723 1.8958619 -0.57050693
-3.3441656 2.009232 -0.57146138
-3.5384541 2.1259637 -0.56965953
-3.7951605 2.2801974 -0.57353121
-4.0407372 2.4277442 -0.57084954
-4.3537564 2.6158116 -0.57228082
-4.7212162 2.8365877 -0.57426691
-5.1252427 3.0793335 -0.5732196
-5.6390471 3.388036 -0.57554978
-6.2459583 3.7526786 -0.57651412
-6.9936213 4.2018876 -0.57733494
-7.9623947 4.7839432 -0.57976425
-9.24195 5.552722 -0.58301973
-11.004406 6.6116352 -0.58723968
-13.556257 8.1448317 -0.59175014
-17.684574 10.625196 -0.60030049
-25.442581 15.286339 -0.616804
-11.028187 6.6259236 -0.1603989
-10.68174 6.4177723 -0.051784288
-10.507343 6.3129916 0.050938822
-10.373373 6.2325001 0.15087499
-10.267838 6.1690927 0.24892297
-10.209709 6.1341681 0.34656718
-10.133103 6.0881424 0.44232455
-10.117988 6.0790606 0.53993684
-10.098356 6.0672655 0.63704526
-10.075837 6.0537353 0.73364991
-10.07091 6.0507746 0.83137012
-10.070854 6.0507412 0.92955941
-10.114948 6.0772343 1.0323831
-10.173022 6.1121259 1.1377755
-10.298643 6.1876011 1.2526792
-10.46903 6.2899728 1.3761047
-10.779075 6.4762526 1.5227988
-11.997204 7.2081251 1.8130381
-11.937799 7.1724334 1.9218791
-11.854366 7.1223059 2.0257108
-11.807218 7.0939789 2.1347358
-12.065729 7.2492967 2.3014283
-1.8289442 1.0684776 -0.56756341
-1.8808548 1.098804 -0.56431133
-1.9528263 1.1408501 -0.56588924
-2.0322289 1.1872375 -0.56815547
-2.1118009 1.2337239 -0.56893277
-2.1941762 1.2818477 -0.56890488
-2.277128 1.3303087 -0.56743801
-2.3725145 1.3860339 -0.56735581
-2.4901021 1.4547291 -0.57052743
-2.5997088 1.5187618 -0.56967974
-2.7047637 1.5801352 -0.56577581
-2.8495462 1.664718 -0.56778008
-3.0263376 1.7680004 -0.5730564
-3.1794553 1.8574524 -0.57067043
-3.3727531 1.9703778 -0.57216293
-3.5656724 2.0830822 -0.56987464
-3.8055592 2.2232251 -0.57092822
-4.0915956 2.3903289 -0.57383871
-4.4031301 2.5723286 -0.57456958
-4.7533083 2.7769046 -0.57397366
-5.1754594 3.0235271 -0.57463437
-5.6704812 3.312721 -0.57455713
-6.3031812 3.6823475 -0.57757282
-7.0587254 4.1237397 -0.57847965
-8.0319939 4.692328 -0.58058685
-9.3168526 5.4429483 -0.58347863
-11.085518 6.4762106 -0.58727413
-13.663213 7.9821115 -0.59208965
-17.835382 10.419513 -0.60102504
-25.654634 14.987555 -0.61743027
-11.898015 6.9508748 -0.17179395
-11.141788 6.5090833 -0.053622484
-10.912547 6.3751602 0.052519217
-10.774539 6.2945352 0.15557222
-10.662642 6.2291641 0.25661787
-10.596662 6.190618 0.35709125
-10.551742 6.1643758 0.45725533
-10.514613 6.1426849 0.55702949
-10.500814 6.134624 0.65762556
-10.506049 6.137682 0.75942212
-10.486384 6.126194 0.85938466
-10.515945 6.1434636 0.96359664
-10.568044 6.1738997 1.0707989
-10.647542 6.2203431 1.1822029
-10.805195 6.3124442 1.3047538
-11.076048 6.4706783 1.4453266
-12.492204 7.2980027 1.7520084
-12.484341 7.2934093 1.8729606
-12.390467 7.2385678 1.9802753
-12.139094 7.0917144 2.0593088
-12.025173 7.0251613 2.1583605
-11.971585 6.993855 2.2668962
-1.8371245 1.0431726 -0.56607854
-1.9090074 1.0839899 -0.56871575
-1.9725118 1.1200495 -0.56755972
-2.0586908 1.1689844 -0.5714916
-2.1270776 1.2078164 -0.56900412
-2.2050319 1.2520812 -0.56768471
-2.3096032 1.3114598 -0.57146877
-2.3910472 1.357706 -0.5677523
-2.5038321 1.4217486 -0.5696246
-2.6124704 1.4834365 -0.56843603
-2.7405076 1.5561398 -0.56920701
-2.8846455 1.6379853 -0.57071728
-3.0364444 1.7241813 -0.57091242
-3.201329 1.8178074 -0.57054132
-3.3839252 1.921491 -0.57000691
-3.6053178 2.047204 -0.57214433
-3.835566 2.1779459 -0.57136893
-4.1095333 2.3335123 -0.5722869
-4.4256916 2.513036 -0.57343793
-4.7806101 2.7145691 -0.57319641
-5.2065253 2.9564164 -0.57400388
-5.7205215 3.2482781 -0.57553673
-6.3390589 3.5995016 -0.57676101
-7.1064281 4.0352364 -0.5782789
-8.0886469 4.5929689 -0.58055568
-9.3802395 5.3263721 -0.58330244
-11.154977 6.3341193 -0.58678329
-13.765066 7.8162045 -0.59229374
-17.960064 10.198245 -0.60095531
-25.848019 14.677256 -0.6176942
-46.028618 26.136385 -0.6599111
-11.853863 6.730967 -0.056646898
-11.454354 6.5041146 0.054737739
-11.240448 6.3826528 0.16115402
-11.124864 6.3170204 0.26585263
-11.030035 6.2631741 0.36907208
-10.988311 6.2394814 0.47281337
-10.948492 6.2168717 0.5759216
-10.928622 6.2055893 0.67958736
-10.925045 6.203558 0.7841357
-10.933621 6.2084279 0.88971317
-10.969263 6.2286658 0.99804139
-11.069088 6.2853498 1.1136515
-11.213481 6.3673401 1.2362528
-11.525795 6.5446811 1.3819458
-12.99604 7.379529 1.6839001
-13.020041 7.393157 1.8131496
-13.018491 7.3922768 1.9393125
-12.866273 7.3058434 2.0418077
-12.360305 7.0185399 2.0820374
-11.995018 6.8111191 2.1377537
-11.883657 6.7478857 2.2343657
-1.8526336 1.0220619 -0.56694198
-1.9182245 1.0582472 -0.56754208
-1.984813 1.0949827 -0.56718218
-2.0711839 1.1426319 -0.57101613
-2.1227171 1.1710618 -0.56394303
-2.2178569 1.2235485 -0.56707019
-2.3152478 1.2772771 -0.56893617
-2.414937 1.3322738 -0.56949192
-2.5183532 1.3893265 -0.56899852
-2.6306846 1.4512975 -0.56847316
-2.7568147 1.5208811 -0.5686667
-2.895391 1.597331 -0.56891423
-3.0480285 1.6815381 -0.56915975
-3.2175341 1.775051 -0.56949639
-3.412101 1.8823898 -0.57081085
-3.6216998 1.9980215 -0.57080203
-3.8622932 2.1307521 -0.57140416
-4.1336241 2.2804401 -0.57169348
-4.4486542 2.454236 -0.57245976
-4.8141212 2.6558573 -0.57325542
-5.2509122 2.8968263 -0.57492685
-5.7497492 3.1720247 -0.57450968
-6.3849835 3.5224712 -0.57695496
-7.1563177 3.9480014 -0.57834446
-8.1413364 4.4914169 -0.58032954
-9.4560938 5.2167435 -0.58398628
-11.236579 6.1990023 -0.58702171
-13.880267 7.6574736 -0.59315425
-18.109774 9.9908104 -0.60180855
-26.032196 14.361456 -0.61782867
-46.398464 25.59713 -0.66065097
-12.358212 6.8177857 0.05865201
-11.875254 6.5513468 0.16908745
-11.674994 6.4408669 0.27708557
-11.562991 6.3790774 0.38425142
-11.488895 6.3382006 0.49096224
-11.441173 6.3118725 0.59771013
-11.422183 6.3013964 0.70540732
-11.408553 6.2938771 0.81322283
-11.451994 6.3178425 0.92550349
-11.546865 6.3701806 1.0433888
-11.724026 6.4679174 1.171454
-13.704602 7.5605626 1.5005286
-13.639364 7.5245724 1.6241467
-13.588116 7.4962993 1.7485398
-13.564489 7.4832649 1.8760126
-13.363227 7.3722324 1.977013
-12.75415 7.0362172 2.0101321
-12.286337 6.7781329 2.055383
-11.938699 6.5863481 2.1131232
-11.815664 6.5184722 2.2063441
-1.8628582 0.99802572 -0.56627256
-1.9270908 1.0324383 -0.56636637
-2.0048678 1.0741074 -0.56909579
-2.0767963 1.112643 -0.56874853
-2.1465089 1.1499915 -0.56646419
-2.2469995 1.2038294 -0.57069355
-2.3292444 1.247892 -0.56856197
-2.422534 1.2978718 -0.56747705
-2.544137 1.3630208 -0.57099414
-2.663645 1.427047 -0.57176059
-2.7857497 1.4924645 -0.57080656
-2.9259694 1.5675871 -0.57109189
-3.0753396 1.6476123 -0.57043326
-3.2323418 1.7317263 -0.56830531
-3.4249768 1.8349304 -0.56914723
-3.6564882 1.9589626 -0.57244515
-3.8814287 2.0794742 -0.57040906
-4.159801 2.2286122 -0.57148063
-4.4822855 2.4013832 -0.57294434
-4.8440938 2.595222 -0.57298112
-5.2703686 2.8235986 -0.57321227
-5.8099594 3.1126842 -0.57665783
-6.4353824 3.4477544 -0.57763451
-7.2124267 3.8640556 -0.57899529
-8.1892595 4.3873935 -0.57985616
-9.5080481 5.0939341 -0.58328241
-11.318753 6.0640187 -0.58737475
-13.97426 7.4867058 -0.59319198
-18.224543 9.7637939 -0.60158718
-26.236483 14.056188 -0.61852819
-46.753521 25.048185 -0.66127098
-13.198333 7.071003 0.18667416
-12.51854 6.7068043 0.29512608
-12.276283 6.5770154 0.40523678
-12.162894 6.5162668 0.51630151
-12.075522 6.4694576 0.62664652
-12.069245 6.466095 0.7404021
-12.106162 6.4858727 0.85719991
-12.249718 6.5627828 0.9833762
-12.687557 6.7973552 1.1388245
-14.66617 7.8573961 1.4556662
-14.556156 7.7984562 1.5831468
-14.446945 7.7399468 1.7088494
-14.35432 7.6903229 1.8348289
-14.246058 7.6323218 1.957148
-13.239193 7.0928941 1.9456124
-12.65987 6.7825217 1.9819785
-12.193637 6.5327377 2.0262837
-11.889216 6.3696442 2.0903437
-11.714781 6.2761903 2.172931
-1.8608156 0.96767509 -0.56199211
-1.9411582 1.0094554 -0.56680983
-2.0188529 1.0498588 -0.56935805
-2.0888488 1.0862586 -0.56834829
-2.1651931 1.1259598 -0.56769824
-2.2452309 1.1675816 -0.56655508
-2.3401451 1.2169396 -0.56752723
-2.4527783 1.2755119 -0.57084459
-2.5483475 1.3252105 -0.56823885
-2.6560111 1.3811985 -0.56643343
-2.8154562 1.4641143 -0.57316118
-2.9435565 1.53073 -0.57080764
-3.0924973 1.6081834 -0.56990474
-3.2734807 1.7022996 -0.57181478
-3.4558122 1.797117 -0.57055598
-3.669024 1.907993 -0.57069153
-3.9120908 2.0343943 -0.57119566
-4.2049131 2.1866701 -0.57394081
-4.515995 2.3484411 -0.57351869
-4.8739796 2.5346029 -0.57278627
-5.315999 2.7644651 -0.57443452
-5.8433146 3.0386837 -0.57621628
-6.4670024 3.3630183 -0.5767172
-7.2595081 3.7751431 -0.57900459
-8.264163 4.2975912 -0.58137411
-9.5778923 4.9807663 -0.58376575
-11.395721 5.9260874 -0.58754307
-14.066093 7.314754 -0.59322727
-18.35906 9.5472136 -0.60210681
-26.419266 13.738742 -0.61880785
-47.09462 24.490494 -0.66178608
-13.818719 7.1861119 0.32367027
-13.488726 7.0145068 0.44237852
-13.271159 6.9013667 0.5597015
-13.197784 6.8632097 0.68045419
-13.263532 6.8973994 0.80840284
-13.555668 7.0493183 0.95362514
-15.360584 7.9879246 1.805164
-15.107126 7.8561196 1.9185625
-15.005322 7.8031778 2.04812
-13.111389 6.8182812 1.9143646
-12.576904 6.5403347 1.9562511
-12.121373 6.3034463 2.0012436
-11.805119 6.1389852 2.0621295
-11.659712 6.0633698 2.1487246
-1.8895828 0.95330369 -0.56709707
-1.9609189 0.9892931 -0.56898475
-2.0193508 1.0187724 -0.56592274
-2.099247 1.0590804 -0.56759119
-2.1796038 1.0996207 -0.56788844
-2.2639036 1.1421504 -0.56768006
-2.3520408 1.1866161 -0.56683069
-2.4587195 1.240436 -0.56863439
-2.5485363 1.285749 -0.56471288
-2.6754074 1.349756 -0.56698751
-2.8161311 1.4207518 -0.56969899
-2.9591866 1.492924 -0.57023555
-3.102252 1.5651013 -0.56811285
-3.2962775 1.6629879 -0.57218164
-3.494987 1.763238 -0.5734008
-3.7019901 1.8676721 -0.57220376
-3.9426651 1.9890937 -0.57204533
-4.2252903 2.1316795 -0.5731011
-4.5429158 2.291923 -0.57331508
-4.9210424 2.4826899 -0.57468599
-5.3438411 2.6959939 -0.57381743
-5.8756142 2.9642761 -0.57576346
-6.51126 3.2849624 -0.5770182
-7.3043551 3.6850827 -0.57892358
-8.3249912 4.1999989 -0.58197612
-9.6459351 4.8664212 -0.58422154
-11.467508 5.7854137 -0.58753198
-14.151527 7.1395144 -0.59308302
-18.492525 9.3295689 -0.60267597
-26.603285 13.421487 -0.61920565
-47.451542 23.939533 -0.66261488
-15.705203 7.9233513 1.9819934
-14.070708 7.0987406 1.9084932
-12.986943 6.5519757 1.8842888
-12.463863 6.2880797 1.9264959
-12.050739 6.0796566 1.9770898
-11.7453 5.925561 2.0387986
-11.584273 5.8443222 2.1214182
-1.9058005 0.93226755 -0.56848085
-1.9722025 0.96474969 -0.56877369
-2.0392687 0.99755675 -0.5680241
-2.1191547 1.0366348 -0.56948423
-2.194943 1.0737084 -0.56840205
-2.2895386 1.1199822 -0.57061166
-2.364099 1.1564552 -0.56626678
-2.4738398 1.2101375 -0.56864691
-2.5791981 1.261676 -0.56802642
-2.7071455 1.3242645 -0.57021958
-2.8271935 1.3829888 -0.56845367
-2.9654131 1.4506022 -0.56795526
-3.1266384 1.5294694 -0.5690915
-3.3129508 1.6206086 -0.57157356
-3.4946563 1.7094941 -0.56985474
-3.7202528 1.8198498 -0.57152444
-3.9562373 1.9352874 -0.57051861
-4.2673464 2.0874736 -0.57528031
-4.5662603 2.2336948 -0.57275158
-4.9440913 2.4185197 -0.5738613
-5.390522 2.6369016 -0.57530475
-5.9180641 2.8949616 -0.57639134
-6.5593147 3.2086446 -0.57773662
-7.3435874 3.5922902 -0.57848829
-8.3659439 4.0924001 -0.58127713
-9.695467 4.7427678 -0.58364522
-11.54308 5.6465716 -0.58780205
-14.246617 6.9690709 -0.59343189
-18.610096 9.10357 -0.6028139
-26.7873 13.103643 -0.61969149
-47.795639 23.380371 -0.66335511
-14.216703 6.9544382 1.7832184
-13.692563 6.6980424 1.8458923
-12.863217 6.2923484 1.8549709
-12.366912 6.0495687 1.899869
-11.960219 5.850625 1.9502883
-11.667098 5.7072382 2.0128896
-11.513548 5.6321254 2.0956252
-11.666331 5.7068629 2.234412
-1.9135625 0.90707833 -0.5674262
-1.9718958 0.93472981 -0.5653277
-2.0573862 0.97525442 -0.56968719
-2.1141248 1.0021499 -0.56477827
-2.1964011 1.041151 -0.56542158
-2.2918873 1.086414 -0.56782466
-2.3956792 1.1356142 -0.57044321
-2.482105 1.1765822 -0.56717825
-2.6006918 1.2327954 -0.5693785
-2.7234638 1.2909925 -0.57026994
-2.8467393 1.3494283 -0.56900436
-2.9868336 1.4158366 -0.56868041
-3.1343174 1.4857478 -0.56712103
-3.328207 1.5776565 -0.57081556
-3.5083604 1.6630539 -0.56871176
-3.7437229 1.7746217 -0.57173449
-3.9884207 1.890615 -0.57176399
-4.26613 2.0222564 -0.57172084
-4.5925641 2.1769946 -0.5726499
-4.9666886 2.3543394 -0.5730806
-5.4118009 2.5653341 -0.57416576
-5.9402189 2.8158178 -0.57513332
-6.5995088 3.1283383 -0.57784498
-7.3959408 3.505868 -0.57917267
-8.4123335 3.9876642 -0.5810495
-9.7544384 4.623857 -0.58372837
-11.617091 5.5068026 -0.5880782
-14.347494 6.8010845 -0.59410542
-18.723207 8.8752861 -0.60289711
-26.955688 12.777697 -0.61990529
-48.128265 22.814047 -0.66402799
-14.78541 7.0086679 1.7060122
-14.344703 6.7997618 1.7886506
-13.444489 6.3730369 1.8017489
-12.737123 6.0377269 1.8259429
-12.27832 5.8202424 1.8751225
-11.88543 5.6340022 1.9266503
-11.601156 5.499249 1.989696
-11.446615 5.4259925 2.071142
-11.538462 5.4695301 2.1968741
-1.9370767 0.88922226 -0.57111335
-1.9907911 0.91388005 -0.56748021
-2.0750422 0.95255589 -0.5712896
-2.1483784 0.98622113 -0.57064617
-2.2113931 1.0151483 -0.56602478
-2.3072667 1.0591594 -0.56836528
-2.3940783 1.0990105 -0.56680131
-2.4931204 1.1444762 -0.56643677
-2.6123581 1.1992127 -0.56866121
-2.7453675 1.2602712 -0.57156831
-2.8606114 1.3131744 -0.56850654
-3.0107379 1.3820904 -0.56995285
-3.1600931 1.4506525 -0.56851435
-3.3444014 1.53526 -0.57031214
-3.5383384 1.6242874 -0.57029045
-3.7424917 1.7180048 -0.5682773
-4.0187283 1.8448123 -0.57281345
-4.3024888 1.9750736 -0.57329541
-4.6250134 2.1231296 -0.57339734
-5.0074067 2.2986686 -0.57447398
-5.4508667 2.5022407 -0.57500255
-5.9892235 2.7493753 -0.57656115
-6.6447058 3.050277 -0.57847458
-7.4372659 3.4141047 -0.57907748
-8.4568701 3.8821576 -0.5807845
-9.8289948 4.5120368 -0.58482558
-11.691507 5.3670297 -0.58846003
-14.422427 6.6206689 -0.59379232
-18.837772 8.6475496 -0.60311657
-27.126598 12.452566 -0.62026745
-48.453682 22.242842 -0.66469389
-15.502062 7.1162796 1.635286
-15.005678 6.8884125 1.7215242
-14.916701 6.8475671 1.8493346
-13.254259 6.0844169 1.7660953
-12.618083 5.7923779 1.7985311
-12.171592 5.5874147 1.8481909
-11.803478 5.4184308 1.9024215
-11.532413 5.2939978 1.9665927
-11.393465 5.2302122 2.0497332
-11.442633 5.2527833 2.166167
-1.9388065 0.861314 -0.56845778
-2.0020299 0.88940096 -0.56752348
-2.0739455 0.92134947 -0.56782562
-2.1514432 0.95577776 -0.56829554
-2.233882 0.99240106 -0.56861454
-2.3193111 1.030353 -0.56816828
-2.4224339 1.0761652 -0.57033849
-2.522752 1.1207316 -0.56999493
-2.6310818 1.168857 -0.56956524
-2.7376673 1.2162075 -0.5668087
-2.8927479 1.285102 -0.57170951
-3.0141983 1.3390564 -0.56744796
-3.1781576 1.4118952 -0.56859785
-3.3704867 1.4973373 -0.57157743
-3.563673 1.5831603 -0.57119292
-3.7857873 1.6818343 -0.57166803
-4.0342202 1.7922007 -0.57183719
-4.3255525 1.9216249 -0.57317668
-4.6415029 2.0619857 -0.57225496
-5.0387144 2.2384467 -0.57486451
-5.4769669 2.4331403 -0.57455629
-6.0186014 2.6737611 -0.57618064
-6.6789594 2.9671247 -0.57823658
-7.4672213 3.3173099 -0.57819009
-8.5172958 3.7838049 -0.58169502
-9.8616467 4.3810325 -0.58351892
-11.760625 5.2246528 -0.58866078
-14.505656 6.4441319 -0.59391165
-18.945927 8.4167194 -0.60322005
-27.295835 12.126163 -0.62068075
-48.761295 21.662186 -0.66520941
-15.79982 7.0190635 1.6574661
-15.708038 6.9782896 1.7921226
-15.63905 6.9476414 1.9281522
-13.074056 5.8081436 1.7324363
-12.497048 5.5518084 1.7714146
-12.090208 5.3710699 1.8256667
-11.742002 5.2163792 1.8820325
-11.45872 5.0905318 1.9432048
-11.326871 5.0319576 2.0264678
-11.353442 5.0437622 2.1373801
-1.9509151 0.83812541 -0.56894326
-2.0181391 0.86700529 -0.56902486
-2.0903952 0.89804697 -0.56926292
-2.1642613 0.9297803 -0.56861842
-2.2596495 0.97075963 -0.57209176
-2.3390837 1.0048851 -0.56994194
-2.4201646 1.039718 -0.5667513
-2.5392692 1.090886 -0.5706529
-2.6409988 1.1345897 -0.56864893
-2.7608619 1.1860837 -0.56854838
-2.8999937 1.2458556 -0.57007074
-3.0406837 1.3062969 -0.56936711
-3.2023363 1.3757439 -0.56985396
-3.3872859 1.4551994 -0.57134861
-3.5808525 1.5383568 -0.57087141
-3.7982566 1.631755 -0.57047796
-4.0639076 1.7458802 -0.57295895
-4.3355293 1.8625708 -0.57142067
-4.6857662 2.0130346 -0.57461691
-5.0637503 2.1754189 -0.57462549
-5.5135045 2.3686361 -0.57529032
-6.0426679 2.5959682 -0.57538521
-6.7016873 2.8790872 -0.57709563
-7.5129919 3.2276285 -0.57861727
-8.5682287 3.6809649 -0.58203822
-9.9351368 4.2681975 -0.58471769
-11.823647 5.0795131 -0.58864439
-14.584549 6.265614 -0.5939424
-19.058943 8.1878424 -0.60356718
-27.462025 11.797858 -0.62111396
-49.072617 21.081905 -0.66586965
-16.651794 7.1537156 1.7374822
-16.553625 7.1115417 1.8784765
-16.307163 7.0056601 1.9997523
-12.903264 5.5433235 1.7006439
-12.362817 5.3111444 1.742999
-11.979548 5.1464896 1.7992646
-11.661731 5.009953 1.8591518
-11.413828 4.9034524 1.9252212
-11.26953 4.8414612 2.0054066
-11.262462 4.8384247 2.1088924
-1.9534779 0.81092173 -0.56673986
-2.0232093 0.83986843 -0.5674997
-2.1098988 0.87585461 -0.57159805
-2.1681926 0.90005344 -0.5667007
-2.2512879 0.93454772 -0.5670225
-2.3346891 0.96916896 -0.56592458
-2.4442976 1.0146692 -0.56943786
-2.5566347 1.0613023 -0.57157946
-2.6688771 1.1078961 -0.57167506
-2.78055 1.1542532 -0.56963682
-2.9042454 1.2056013 -0.56794941
-3.055954 1.2685782 -0.56926244
-3.222106 1.3375508 -0.57040209
-3.4019146 1.4121923 -0.57084394
-3.6024759 1.4954487 -0.5713439
-3.8329918 1.5911397 -0.57271308
-4.0878754 1.6969463 -0.57335287
-4.3549104 1.8077971 -0.57100207
-4.6914377 1.9474951 -0.5723325
-5.0852394 2.1109688 -0.57407504
-5.5448608 2.3017654 -0.57556534
-6.0866289 2.5266626 -0.5765692
-6.7458086 2.8002992 -0.57788616
-7.5662975 3.1408982 -0.57970434
-8.5913467 3.5664132 -0.58058578
-9.9734058 4.1401296 -0.58392966
-11.882657 4.9326921 -0.58851802
-14.670976 6.0901699 -0.59436738
-19.156387 7.9521403 -0.6035108
-27.605375 11.459457 -0.62112218
-49.381168 20.498959 -0.66658574
-13.905005 5.7722025 1.6963427
-12.741261 5.289113 1.6705939
-12.254373 5.086997 1.7187606
-11.892007 4.9365735 1.7768648
-11.589337 4.8109298 1.8380405
-11.343718 4.7089691 1.9034847
-11.195608 4.6474862 1.981933
-11.205435 4.6515656 2.0873461
-1.9745463 0.79134822 -0.56998605
-2.043129 0.81883436 -0.5702197
-2.0993247 0.84135622 -0.56588781
-2.1732769 0.87099445 -0.56518757
-2.2777653 0.91287071 -0.57082093
-2.3595741 0.94565755 -0.56909496
-2.4502666 0.98200482 -0.56797236
-2.5591111 1.025627 -0.56927055
-2.6833429 1.075416 -0.57189786
-2.7903345 1.1182954 -0.56878126
-2.9340637 1.1758984 -0.57090986
-3.0810552 1.2348089 -0.57106668
-3.2467909 1.3012316 -0.5718962
-3.4120395 1.3674592 -0.56967825
-3.6118407 1.4475343 -0.56996304
-3.8548005 1.5449065 -0.5730899
-4.1091008 1.6468236 -0.57344627
-4.3925815 1.7604355 -0.57305974
-4.7361727 1.8981382 -0.57489908
-5.1075416 2.0469735 -0.57370788
-5.5716882 2.2329917 -0.57545638
-6.1094818 2.4485259 -0.57583839
-6.7735133 2.7146528 -0.57735628
-7.6014776 3.0464799 -0.57948577
-8.6456423 3.4649546 -0.58133173
-10.046843 4.0265203 -0.58528614
-11.949704 4.7891388 -0.58887756
-14.760549 5.9156547 -0.59500432
-19.257158 7.7177815 -0.60365009
-27.757236 11.124398 -0.6214143
-49.675713 19.90877 -0.6672067
-13.356673 5.3530169 1.6212962
-12.591282 5.046267 1.6426688
-12.138517 4.8648105 1.6939929
-11.795199 4.7272172 1.7535821
-11.514897 4.6148796 1.8170973
-11.287205 4.5236259 1.8845253
-11.140614 4.4648762 1.96233
-11.138556 4.4640517 2.0645068
-1.9923594 0.77019268 -0.57235092
-2.0393388 0.78835362 -0.56641352
-2.1191344 0.81920046 -0.56846941
-2.2049582 0.85237765 -0.57065773
-2.2677963 0.87666917 -0.56557834
-2.3689089 0.91575652 -0.56858748
-2.4751523 0.9568274 -0.57097048
-2.5757163 0.99570268 -0.57019758
-2.6851003 1.0379877 -0.56950909
-2.8115604 1.0868738 -0.57034051
-2.9318659 1.1333807 -0.56772751
-3.0998929 1.1983353 -0.57178384
-3.2544849 1.2580965 -0.57048339
-3.4405785 1.3300352 -0.57166928
-3.6442916 1.4087853 -0.57230705
-3.8638513 1.4936612 -0.57166171
-4.1196671 1.5925525 -0.57214469
-4.4235806 1.7100375 -0.57431722
-4.7384052 1.8317403 -0.57239276
-5.1354628 1.9852321 -0.57405877
-5.5861721 2.1594641 -0.57416642
-6.1403766 2.3737047 -0.57595569
-6.8215179 2.6370158 -0.5786404
-7.6513925 2.9578228 -0.58047438
-8.7004814 3.3633723 -0.58219421
-10.088783 3.9000528 -0.58489144
-12.002439 4.6398206 -0.58862019
-14.819442 5.7287984 -0.59449375
-19.354973 7.4821134 -0.60378665
-27.912048 10.790049 -0.62186283
-49.937275 19.304409 -0.66748106
-13.082552 5.057363 1.580354
-12.448844 4.8123889 1.6162441
-12.041817 4.6550431 1.6723832
-11.720186 4.5307093 1.7340163
-11.437462 4.4214158 1.7961624
-11.230256 4.3413157 1.8659632
-11.092169 4.2879343 1.9443624
-11.07485 4.2812395 2.0427868
-1.9740014 0.7353273 -0.56443697
-2.0720828 0.77186322 -0.57282853
-2.1193156 0.78945774 -0.56587112
-2.2025309 0.82045591 -0.5673756
-2.2935133 0.85434747 -0.56932896
-2.3804958 0.88674891 -0.56870848
-2.4661655 0.91866148 -0.56624877
-2.5883038 0.96415865 -0.57031655
-2.6917121 1.0026789 -0.5682534
-2.8245821 1.0521737 -0.57031441
-2.9622941 1.1034722 -0.57094896
-3.1083205 1.157868 -0.57066905
-3.2653732 1.2163711 -0.56972712
-3.4517815 1.2858093 -0.57086056
-3.6521249 1.3604383 -0.57086694
-3.8927655 1.4500785 -0.57325816
-4.1302757 1.5385523 -0.57094741
-4.4187756 1.6460203 -0.57102245
-4.7673254 1.7758571 -0.57320505
-5.159667 1.9220067 -0.57407904
-5.6231251 2.0946476 -0.57527369
-6.1748252 2.3001592 -0.57649034
-6.8291097 2.5438843 -0.57658738
-7.6795697 2.8606856 -0.57989961
-8.7403288 3.2558248 -0.58213764
-10.1294 3.773262 -0.58451211
-12.050769 4.4889836 -0.58823889
-14.890603 5.5468388 -0.5945673
-19.460323 7.2490869 -0.60424668
-28.053274 10.450012 -0.62209934
-50.219395 18.707026 -0.66812682
-12.871795 4.7948208 1.5476556
-12.300601 4.5820475 1.5895623
-11.912174 4.437356 1.6466758
-11.618627 4.3280082 1.7109873
-11.39152 4.2434092 1.7806187
-11.179537 4.1644444 1.8488878
-11.039281 4.1121979 1.9260823
-10.998267 4.0969205 2.0192161
-11.242185 4.1877809 2.166805
-5.1932621 1.9345211 1.4356805
-4.7506208 1.7696346 1.3583709
-2.0066414 0.71951556 -0.57119691
-2.0530114 0.7361424 -0.5650112
-2.1389992 0.76697469 -0.56856561
-2.2216635 0.79661536 -0.56973773
-2.3029525 0.82576299 -0.56910855
-2.401226 0.86100066 -0.57108849
-2.476778 0.88809109 -0.56613523
-2.5977864 0.93148071 -0.56983906
-2.7079525 0.97098267 -0.56911832
-2.8387082 1.0178673 -0.57059634
-2.9796648 1.0684097 -0.57172161
-3.1223674 1.1195782 -0.57067734
-3.2871237 1.1786543 -0.57095015
-3.4856091 1.2498246 -0.57386994
-3.6699257 1.3159146 -0.57107693
-3.9092214 1.4017181 -0.57309991
-4.1612635 1.4920921 -0.57265151
-4.4626441 1.6001574 -0.57410532
-4.8116822 1.7253109 -0.57594401
-5.1737075 1.8551213 -0.57305986
-5.6499157 2.0258739 -0.57542247
-6.2107668 2.2269766 -0.57724571
-6.8769994 2.4658656 -0.57802695
-7.716208 2.7667782 -0.58005327
-8.7738304 3.1460068 -0.58174849
-10.181177 3.650635 -0.58486533
-12.122581 4.3467588 -0.58909076
-14.980377 5.37147 -0.59546953
-19.560072 7.013598 -0.60462034
-28.190603 10.108223 -0.62234133
-50.480991 18.100822 -0.66859543
-12.650437 4.5360303 1.5142195
-12.166796 4.3626122 1.5652205
-11.812417 4.2355442 1.6255635
-11.538183 4.1372128 1.6915213
-11.294792 4.0499406 1.7575819
-11.091441 3.977026 1.8260926
-10.983665 3.9383805 1.9077848
-10.946342 3.9249978 2.0006704
-11.121698 3.987875 2.1339703
-5.5529876 1.9911186 1.424044
-5.0338836 1.8049849 1.3380525
-4.7013249 1.6857404 1.2938559
-4.4384727 1.5914901 1.2634255
-1.9909276 0.68637341 -0.56427884
-2.0807519 0.71734041 -0.57017499
-2.1555114 0.74311382 -0.57048273
-2.2209389 0.76567 -0.56709468
-2.3150449 0.79811305 -0.56962848
-2.3987439 0.82696831 -0.56803674
-2.4981 0.86122143 -0.5685454
-2.6081474 0.89916033 -0.56964344
-2.7066722 0.93312675 -0.56639493
-2.8679621 0.98873162 -0.57398933
-2.9853573 1.0292037 -0.57034248
-3.1350203 1.0808001 -0.57051772
-3.2944472 1.1357626 -0.56975335
-3.4716673 1.1968592 -0.56910855
-3.6899493 1.2721121 -0.57171547
-3.9207571 1.3516833 -0.5723111
-4.1666546 1.4364566 -0.57091945
-4.4714994 1.5415519 -0.57276261
-4.8032269 1.6559153 -0.57245135
-5.2139149 1.7975001 -0.57502174
-5.6688766 1.9543486 -0.5748626
-6.2198586 2.1442997 -0.57559651
-6.9200244 2.3856823 -0.57913387
-7.7511692 2.67222 -0.58016747
-8.8124113 3.0380838 -0.58178556
-10.213556 3.5211294 -0.58419394
-12.174518 4.1971722 -0.58906204
-15.043009 5.1860857 -0.59537929
-19.635132 6.7692232 -0.6043219
-28.330523 9.766964 -0.6227318
-50.733654 17.490456 -0.66904271
-13.308716 4.5881872 1.4677647
-12.501508 4.3099017 1.4899369
-12.031807 4.1479721 1.5411763
-11.719433 4.0402813 1.6058093
-11.464405 3.9523602 1.6734539
-11.214066 3.8660555 1.7374911
-11.046511 3.808291 1.8108485
-10.853296 3.7416801 1.8770074
-10.761594 3.7100658 1.958418
-11.029675 3.8024869 2.1071825
-6.0863342 2.0982671 1.4412799
-5.3685064 1.8507957 1.3209482
-4.9716001 1.713962 1.2694485
-4.6856694 1.6153873 1.2401203
-4.4474874 1.5332739 1.2187161
-4.2488494 1.4647933 1.2042305
-2.0094573 0.66523224 -0.56716931
-2.087323 0.69100976 -0.56960416
-2.158534 0.71458423 -0.56891418
-2.2383366 0.74100292 -0.56916738
-2.3282924 0.77078283 -0.57051289
-2.4081943 0.79723442 -0.56791025
-2.5190909 0.83394682 -0.57094568
-2.62041 0.86748856 -0.56994879
-2.7283406 0.90321904 -0.56856215
-2.8654037 0.94859391 -0.57109964
-2.9964297 0.99197018 -0.57008439
-3.1399617 1.0394865 -0.56904787
-3.3216643 1.0996393 -0.57207865
-3.4931633 1.1564143 -0.5702582
-3.7127919 1.2291224 -0.57286966
-3.9433136 1.3054367 -0.57321721
-4.2024794 1.3912338 -0.57344085
-4.4860768 1.4851189 -0.57224739
-4.8351908 1.6006933 -0.57387161
-5.2397218 1.7346137 -0.575472
-5.7114019 1.8907636 -0.57677364
-6.2568011 2.0713184 -0.57661462
-6.9365044 2.2963347 -0.57810622
-7.778986 2.5752387 -0.57983547
-8.863143 2.9341497 -0.58270884
-10.266707 3.3988008 -0.58479941
-12.225377 4.0472198 -0.58907038
-15.093023 4.9965558 -0.59488207
-19.736963 6.533936 -0.60493749
-28.459251 9.4214554 -0.62296778
-50.994934 16.881908 -0.66970009
-12.950609 4.2873082 1.422349
-12.318971 4.0782037 1.4620949
-11.919042 3.945807 1.5204021
-11.624815 3.8484032 1.5862406
-11.363856 3.7620127 1.6518996
-11.139667 3.6877944 1.7188081
-10.654361 3.5271335 1.7393222
-10.289288 3.406276 1.7720881
-9.932559 3.2881806 1.8000542
-9.6836147 3.2057676 1.8423518
-9.448143 3.1278145 1.8830963
-9.1748047 3.0373256 1.9119486
-8.980979 2.9731596 1.9533961
-5.7699842 1.9101574 1.3077526
-5.2966709 1.7534666 1.2490826
-4.9615269 1.642517 1.2157472
-4.6892176 1.5523688 1.1923808
-4.453434 1.4743124 1.1737696
-4.2635717 1.4114585 1.163475
-4.0958347 1.355929 1.1560494
-2.0156786 0.63990122 -0.56666154
-2.0764306 0.65918761 -0.56437713
-2.1596172 0.68559623 -0.56693476
-2.2559018 0.71616298 -0.57135141
-2.3267813 0.73866445 -0.56787401
-2.4278224 0.77074116 -0.57026094
-2.5328898 0.8040961 -0.57178897
-2.6222625 0.83246851 -0.56808233
-2.7408168 0.87010503 -0.5688895
-2.8743355 0.91249216 -0.57060039
-2.9963403 0.95122391 -0.56779909
-3.1638362 1.0043976 -0.57109314
-3.3350143 1.05874 -0.57209241
-3.5186508 1.1170377 -0.57213342
-3.7168574 1.1799607 -0.57121503
-3.9551942 1.2556236 -0.57265657
-4.2116189 1.3370286 -0.57240129
-4.5060244 1.4304911 -0.57250488
-4.8492627 1.5394564 -0.57325172
-5.2583208 1.6693165 -0.57521677
-5.7218471 1.8164685 -0.57552928
-6.2860732 1.9955889 -0.57700723
-6.9641242 2.2108443 -0.57809871
-7.8172145 2.481668 -0.58036655
-8.8994102 2.8252239 -0.58276516
-10.307825 3.272342 -0.58480525
-12.281545 3.8989229 -0.58942211
-15.16868 4.8154783 -0.59548521
-19.816729 6.2910566 -0.60496551
-28.568314 9.0693521 -0.62286687
-51.220463 16.260548 -0.66998541
-12.707626 4.0341878 1.3901092
-12.166493 3.8623984 1.4382522
-11.798876 3.7456939 1.4990851
-11.506771 3.6529617 1.5638857
-9.9871788 3.1705489 1.4460032
-9.6127443 3.0516803 1.4773082
-9.370265 2.9747024 1.5236073
-9.1518764 2.9053724 1.5699241
-8.977108 2.84989 1.6204267
-8.8211336 2.800374 1.6715831
-8.6618242 2.7497995 1.7195071
-6.3430877 2.0136888 1.3165841
-5.6932006 1.8073744 1.2333649
-5.2856593 1.6779956 1.1932148
-4.9760785 1.5797155 1.16881
-4.7272587 1.5007247 1.1537343
-4.502492 1.4293698 1.1403444
-4.30726 1.3673911 1.1307261
-4.1476874 1.3167328 1.1273481
-3.9913595 1.2671046 1.1220787
-2.0270369 0.61617631 -0.56768173
-2.106113 0.64021373 -0.57026207
-2.1693261 0.65942919 -0.567312
-2.2625575 0.68776953 -0.57085198
-2.3563337 0.71627557 -0.57289374
-2.4311807 0.73902744 -0.56887221
-2.5321295 0.76971376 -0.56943768
-2.6412044 0.80287021 -0.57000405
-2.7505879 0.83612049 -0.56874055
-2.889323 0.87829304 -0.57138848
-3.0154674 0.91663826 -0.56924474
-3.1753223 0.96523076 -0.57098085
-3.3473127 1.0175122 -0.5720126
-3.5311842 1.0734053 -0.57198197
-3.7320294 1.1344579 -0.57135963
-3.9682696 1.20627 -0.57235885
-4.2281923 1.2852809 -0.5724625
-4.52565 1.3757019 -0.57280582
-4.8752317 1.4819672 -0.57412404
-5.2815375 1.6054757 -0.57555342
-5.7446437 1.74625 -0.57561892
-6.3035631 1.9161497 -0.5764063
-6.9909949 2.1251144 -0.57811636
-7.844749 2.3846376 -0.58018994
-8.9262114 2.7133794 -0.58229136
-10.368815 3.1519005 -0.58602232
-12.329265 3.7478354 -0.58945602
-15.215599 4.6252198 -0.59504938
-19.896875 6.0482292 -0.6050961
-28.7085 8.7267761 -0.62353653
-51.454525 15.641086 -0.67048061
-13.731834 4.1741872 1.3759434
-10.691005 3.2498391 1.165048
-10.099091 3.0699096 1.1893035
-9.7776546 2.9721999 1.2375454
-9.5219822 2.8944809 1.2891982
-9.3052864 2.8286099 1.3421373
-9.1343317 2.7766433 1.3984317
-8.9455481 2.7192571 1.4490017
-8.812089 2.6786883 1.5058722
-8.6557465 2.6311636 1.5564611
-7.0406537 2.1402097 1.3290991
-6.1859846 1.8804083 1.2233316
-5.6663103 1.7224383 1.1716261
-5.2926645 1.608858 1.1422215
-5.0132575 1.5239241 1.1274059
-4.7535915 1.4449911 1.1122934
-4.5259933 1.3758062 1.1004015
-4.3601017 1.3253787 1.1000705
-4.1843863 1.2719648 1.0942811
-4.0198436 1.2219473 1.0884336
-3.9007335 1.1857404 1.0924197
-2.0345156 0.59122241 -0.56769723
-2.0973897 0.60949337 -0.56582803
-2.1795249 0.63336152 -0.56789947
-2.2571511 0.65591943 -0.56741005
-2.3457711 0.68167204 -0.5682447
-2.441339 0.70944369 -0.56916487
-2.5552289 0.7425397 -0.57253575
-2.6495678 0.7699542 -0.56972265
-2.7557251 0.80080307 -0.56772375
-2.8819165 0.83747387 -0.56784433
-3.0101514 0.8747384 -0.56616789
-3.1860704 0.92585975 -0.57082319
-3.3640752 0.97758728 -0.57277954
-3.5355859 1.0274276 -0.5706054
-3.7425029 1.087557 -0.57087255
-3.9709914 1.1539549 -0.57066166
-4.2263203 1.2281524 -0.57012129
-4.5491099 1.3219538 -0.57367432
-4.8937335 1.4221002 -0.57420015
-5.2863927 1.5362053 -0.57398057
-5.7606468 1.6740217 -0.5751164
-6.3259344 1.8382921 -0.57634139
-7.0072513 2.0362802 -0.57734644
-7.8738842 2.2881203 -0.58021998
-8.9785519 2.6091325 -0.58356863
-10.407536 3.0243897 -0.58606452
-12.380035 3.5975907 -0.58972377
-15.286607 4.4422288 -0.59564513
-19.988319 5.8085284 -0.60565907
-28.81562 8.3737078 -0.62357962
-51.676403 15.016963 -0.67091489
-11.547388 3.3556266 0.95142061
-10.61509 3.0847042 0.96711653
-10.215486 2.9685807 1.0198671
-9.9039478 2.8780489 1.0753409
-9.6479368 2.8036532 1.1320286
-9.4273329 2.7395465 1.188852
-9.2195606 2.6791689 1.2436984
-9.0396929 2.6268997 1.2990725
-8.8668861 2.576683 1.3525339
-8.7528191 2.5435355 1.4126104
-7.9640908 2.3143342 1.3559948
-6.8505263 1.9907365 1.227355
-6.1781802 1.7953553 1.1620303
-5.6998601 1.6563574 1.1230836
-5.3588848 1.5572712 1.1040165
-5.0728607 1.4741538 1.0907905
-4.8032851 1.3958161 1.076245
-4.6039124 1.3378792 1.0733393
-4.4096398 1.2814244 1.0682008
-4.2348542 1.2306323 1.0645715
-4.0777698 1.1849841 1.0625083
-3.9515395 1.1483022 1.0660355
-3.8220479 1.1106725 1.066478
-2.0561514 0.57018882 -0.57173479
-2.1110535 0.58541363 -0.56752926
-2.1891701 0.60707605 -0.56842464
-2.2568171 0.62583518 -0.56534886
-2.3528061 0.65245372 -0.56796247
-2.4431386 0.67750371 -0.5675993
-2.5358064 0.70320129 -0.56620353
-2.6483204 0.73440248 -0.56746978
-2.777667 0.77027136 -0.57024974
-2.9034226 0.80514455 -0.57008797
-3.0406523 0.84319949 -0.56991142
-3.1942906 0.88580477 -0.57030135
-3.3634031 0.93270117 -0.57066923
-3.5469854 0.98361015 -0.57045001
-3.7514262 1.0403033 -0.57023931
-3.9913504 1.1068364 -0.57158828
-4.2503691 1.1786646 -0.57136703
-4.5630646 1.2653779 -0.57342857
-4.9135323 1.3625655 -0.57451385
-5.311183 1.4728377 -0.57466245
-5.7781496 1.6023316 -0.5748533
-6.3470631 1.7600962 -0.57625097
-7.0504789 1.9551597 -0.57888347
-7.9018931 2.1912642 -0.58025455
-8.999403 2.4956133 -0.58288527
-10.430567 2.8924875 -0.58531433
-12.428775 3.4466083 -0.58998203
-15.334659 4.2524352 -0.59543496
-20.045261 5.5587268 -0.60526764
-28.926931 8.0216913 -0.62380672
-51.900791 14.392545 -0.6714797
-11.169124 3.0972958 0.82017487
-10.608967 2.9419596 0.87105507
-10.231758 2.8373561 0.9289431
-9.9166555 2.7499757 0.9865827
-9.6613169 2.6791677 1.0453407
-9.4309139 2.6152749 1.1027079
-9.2329865 2.5603881 1.1602856
-9.0406523 2.5070522 1.2153136
-8.8886709 2.4649065 1.2729176
-8.7615738 2.4296613 1.3318119
-7.6509829 2.1216846 1.2304825
-6.826869 1.8931507 1.1583161
-6.22715 1.7268432 1.1117811
-5.7720637 1.6006439 1.0818617
-5.4235678 1.5040029 1.0649194
-5.1313906 1.4229796 1.0534648
-4.8772998 1.352518 1.045085
-4.670011 1.2950349 1.0427361
-4.476965 1.2415016 1.0401056
-4.2885876 1.189263 1.035256
-4.1462359 1.1497877 1.0386618
-3.9952316 1.1079127 1.0373739
-3.8577347 1.0697836 1.0371019
-3.7502065 1.0399652 1.0427848
-2.0380013 0.53825998 -0.56480485
-2.1206059 0.56007683 -0.56820291
-2.2055938 0.58252311 -0.57078606
-2.2665806 0.59863043 -0.5659079
-2.3622451 0.62389654 -0.56834614
-2.4583526 0.64927965 -0.56923598
-2.5557978 0.67501611 -0.568771
-2.6545427 0.70109576 -0.56691289
-2.8008044 0.73972523 -0.57308912
-2.9045987 0.76713848 -0.56842375
-3.0428948 0.80366409 -0.56843656
-3.2165904 0.84953916 -0.5723744
-3.3740132 0.89111632 -0.57056713
-3.5662596 0.94189084 -0.57164395
-3.761873 0.99355465 -0.5699271
-4.0013046 1.0567914 -0.57110971
-4.2906022 1.1331981 -0.5748589
-4.5723753 1.2076179 -0.57268924
-4.9267812 1.3012205 -0.57414871
-5.3418894 1.4108554 -0.57606417
-5.8082757 1.5340335 -0.5759303
-6.3750296 1.6837199 -0.57686675
-7.0733805 1.8681625 -0.57883394
-7.9125204 2.0897892 -0.57910413
-9.0185194 2.3818965 -0.58218241
-10.482386 2.7685206 -0.58626753
-12.459888 3.2908022 -0.58949357
-15.404404 4.0684834 -0.59615546
-20.11953 5.3138032 -0.6054914
-29.028643 7.6668038 -0.6239199
-52.099922 13.7602 -0.67181617
-11.491081 3.0349288 0.74179643
-10.868149 2.8704052 0.79542166
-10.414646 2.7506299 0.85225874
-10.067338 2.6589017 0.91097808
-9.7674036 2.5796854 0.96850491
-9.5179939 2.5138137 1.0264113
-9.299778 2.4561801 1.0837615
-9.1033154 2.4042921 1.1401887
-8.9493561 2.3636296 1.1990432
-8.6521196 2.285126 1.2349246
-7.6047587 2.0085058 1.1521277
-6.8569341 1.8109965 1.0991137
-6.3027029 1.6646175 1.0658273
-5.8580623 1.5471827 1.0424097
-5.5005817 1.452768 1.0275517
-5.2020087 1.3739114 1.0180219
-4.9655004 1.3114468 1.0160203
-4.7354546 1.2506889 1.0113193
-4.5532923 1.2025778 1.0132964
-4.3669424 1.1533606 1.0111735
-4.2117429 1.1123706 1.0133275
-4.062057 1.0728368 1.0141929
-3.9416389 1.0410329 1.0200576
-3.8093164 1.006085 1.0206822
-3.7026787 0.97792071 1.0261478
-2.0603549 0.51714927 -0.5691945
-2.116591 0.53126448 -0.56533402
-2.2036624 0.55311942 -0.56848311
-2.2775331 0.57166094 -0.56684452
-2.3843 0.59845942 -0.57183868
-2.4804575 0.62259501 -0.5725385
-2.5693467 0.64490616 -0.56997836
-2.678566 0.67232025 -0.57023472
-2.8015118 0.70317966 -0.57142138
-2.923429 0.73378086 -0.57029986
-3.064714 0.76924342 -0.57070243
-3.2277842 0.81017405 -0.57255024
-3.3861835 0.84993225 -0.57081467
-3.5773642 0.89791864 -0.57161087
-3.7841971 0.94983375 -0.57149655
-4.0214381 1.0093812 -0.57216853
-4.296968 1.0785391 -0.57389152
-4.5830364 1.1503425 -0.5722096
-4.9494071 1.2423016 -0.57496184
-5.3307447 1.3380173 -0.57304478
-5.8365817 1.4649823 -0.57690716
-6.4022651 1.6069689 -0.57749951
-7.0939364 1.7805786 -0.57868063
-7.9478912 1.9949212 -0.57985371
-9.0498381 2.2715099 -0.58235705
-10.492517 2.6336224 -0.5849787
-12.500675 3.1376703 -0.5895533
-15.43519 3.8742337 -0.59545827
-20.180609 5.0653338 -0.60540932
-29.126221 7.3106833 -0.62403786
-52.291813 13.125248 -0.67215854
-12.183959 3.0581746 0.67927998
-11.280775 2.8314753 0.72591782
-10.744042 2.6967554 0.78385228
-10.308336 2.587393 0.84089196
-9.9614553 2.5003259 0.89854693
-9.6864147 2.4312906 0.95743746
-9.4252148 2.3657296 1.0131924
-9.2475128 2.3211262 1.0742633
-9.0562468 2.2731185 1.130707
-8.572855 2.1517873 1.1449676
-7.6780686 1.9271957 1.0924324
-6.9797235 1.751911 1.054091
-6.418941 1.6111547 1.0256536
-5.9775305 1.5003606 1.0076425
-5.6232796 1.4114436 0.99746758
-5.3225784 1.3359675 0.99115556
-5.0580993 1.2695832 0.98672944
-4.8473663 1.2166893 0.98871219
-4.6274419 1.1614882 0.98512715
-4.4508939 1.1171746 0.98737669
-4.2887812 1.0764843 0.98993516
-4.1378775 1.0386076 0.99240804
-3.9902809 1.0015608 0.99312228
-3.8826177 0.97453725 1.0016065
-3.754056 0.94226831 1.0026952
-3.6305163 0.91125983 1.0029678
-2.0675666 0.49201703 -0.56947231
-2.1299701 0.50686711 -0.56719995
-2.202343 0.52408963 -0.56643742
-2.300101 0.54735303 -0.57074308
-2.3765602 0.56554794 -0.56827158
-2.4682999 0.58737916 -0.56802219
-2.5710332 0.61182654 -0.56864053
-2.6713154 0.63569057 -0.56698418
-2.7950695 0.66514021 -0.56839615
-2.9312577 0.69754887 -0.5701108
-3.0748434 0.73171782 -0.57087004
-3.2174246 0.76564771 -0.56899959
-3.3911431 0.80698735 -0.5699349
-3.5884795 0.85394734 -0.57166588
-3.7862504 0.90101069 -0.57009035
-4.0397339 0.9613319 -0.57304645
-4.3070979 1.0249563 -0.5735178
-4.6034117 1.0954698 -0.57302833
-4.9648151 1.1814728 -0.57502061
-5.3696566 1.2778125 -0.57549512
-5.8569479 1.3937728 -0.57718259
-6.4265766 1.5293268 -0.5779525
-7.1112947 1.6922686 -0.57835543
-7.984622 1.9000934 -0.58078492
-9.0709438 2.1586046 -0.58196318
-10.543708 2.5090768 -0.58606833
-12.535983 2.9831767 -0.58944386
-15.498237 3.6881018 -0.59609586
-20.264023 4.8222117 -0.60608703
-29.227772 6.955307 -0.62433398
-52.474861 12.487396 -0.6724869
-14.310701 3.4055049 0.67289144
-11.914948 2.8353899 0.66228825
-11.176614 2.6596889 0.71705627
-10.661312 2.5370629 0.77548182
-10.25719 2.4408944 0.83420831
-9.9195452 2.3605454 0.89208084
-9.6394663 2.2938952 0.94993711
-9.3928261 2.2352026 1.0066799
-9.1886692 2.1866195 1.0642236
-8.6692543 2.063015 1.0791407
-7.8229823 1.8616282 1.0416805
-7.1288886 1.6964554 1.0112509
-6.5874825 1.5676174 0.9918679
-6.1185193 1.4560187 0.97471613
-5.7565203 1.369874 0.96747369
-5.445477 1.2958554 0.96302933
-5.1790657 1.2324576 0.96153617
-4.9333391 1.1739824 0.9595027
-4.7248945 1.1243789 0.96083897
-4.5376143 1.079812 0.96310437
-4.376297 1.0414236 0.96791428
-4.2146177 1.0029489 0.96989691
-4.0591927 0.96596247 0.97061449
-3.9532256 0.94074559 0.98094654
-3.8245137 0.9101162 0.98365593
-3.7336547 0.88849455 0.9942528
-3.5832481 0.85270244 0.9869383
-2.0669754 0.46509886 -0.56769133
-2.1493933 0.48364404 -0.57074541
-2.2219102 0.49996138 -0.5698458
-2.3000274 0.51753885 -0.56910264
-2.3790469 0.53531939 -0.56724936
-2.4776752 0.55751216 -0.56855905
-2.5662711 0.57744747 -0.56597406
-2.6905212 0.60540557 -0.5694375
-2.8204768 0.63464743 -0.57193267
-2.9372075 0.66091347 -0.56964427
-3.0869603 0.69461 -0.57149071
-3.2264478 0.72599661 -0.5689736
-3.4081328 0.76687831 -0.57116228
-3.5987377 0.80976713 -0.57167059
-3.7941325 0.85373378 -0.56965339
-4.0468497 0.91059875 -0.57242423
-4.3160868 0.97118092 -0.57308125
-4.6169119 1.0388708 -0.57307535
-4.9699535 1.1183102 -0.57397968
-5.3797126 1.2105118 -0.57493412
-5.8521409 1.3168149 -0.57506973
-6.4209375 1.4448023 -0.57580411
-7.1522641 1.6093612 -0.58003414
-8.0130129 1.8030419 -0.58119345
-9.1088591 2.0496228 -0.58273464
-10.568761 2.3781214 -0.58579117
-12.582885 2.8313279 -0.58996761
-15.53879 3.4964485 -0.59595692
-20.307894 4.5695648 -0.60567278
-29.312616 6.5957556 -0.62436664
-52.662445 11.849799 -0.67297262
-13.625595 3.0659528 0.63885665
-11.830958 2.6621339 0.65575057
-11.11194 2.5003448 0.71088082
-10.631661 2.3922749 0.7711271
-10.239601 2.3040559 0.8304109
-9.8957033 2.2266738 0.8874073
-9.6197262 2.1645751 0.9452973
-9.3872137 2.1122565 1.0032189
-8.8568573 1.9929188 1.0228779
-8.0158224 1.803674 0.99496603
-7.3492393 1.6536834 0.97581714
-6.7729831 1.5240176 0.95803404
-6.3048391 1.4186784 0.94661248
-5.9035239 1.3283768 0.93779302
-5.5814438 1.2559042 0.9353832
-5.3022609 1.1930841 0.93503654
-5.0690084 1.140599 0.93842834
-4.8358703 1.0881395 0.93787235
-4.6384034 1.0437068 0.94056958
-4.4695673 1.0057162 0.94596511
-4.3067675 0.96908391 0.94982898
-4.1457801 0.93285942 0.95134372
-4.0244789 0.90556502 0.95957881
-3.8857112 0.87434024 0.96145314
-3.767297 0.84769541 0.96618593
-3.678793 0.82778072 0.97685897
-3.5711434 0.80355805 0.98080862
-2.0676944 0.4386217 -0.56636471
-2.1190805 0.44952229 -0.56118602
-2.2158351 0.47004691 -0.56676257
-2.3170338 0.49151427 -0.57177192
-2.3827932 0.50546384 -0.56661773
-2.5079544 0.53201437 -0.57396269
-2.572367 0.54567826 -0.56579584
-2.7065535 0.57414335 -0.57129323
-2.8169799 0.59756821 -0.56969053
-2.9426181 0.62421995 -0.56916189
-3.083261 0.65405464 -0.56927383
-3.2462273 0.6886248 -0.57092524
-3.4160271 0.7246446 -0.57094884
-3.6080186 0.76537192 -0.5716067
-3.8138351 0.80903196 -0.57107478
-4.0424347 0.85752487 -0.57026505
-4.3274198 0.91797906 -0.57304394
-4.6280217 0.98174596 -0.57291263
-4.990407 1.058619 -0.57479501
-5.3983145 1.1451488 -0.57537371
-5.8707395 1.2453647 -0.57534903
-6.455946 1.369505 -0.57738978
-7.1534405 1.5174651 -0.57857251
-8.0189896 1.7010748 -0.58006597
-9.1248579 1.9356635 -0.58219141
-10.599667 2.2485158 -0.58592743
-12.61398 2.6758139 -0.58983827
-15.592293 3.3076055 -0.59640396
-20.374899 4.3221436 -0.6060403
-29.416275 6.2400985 -0.62489301
-52.8251 11.205831 -0.67323941
-13.432692 2.8494878 0.62812173
-11.808471 2.5049405 0.65274757
-11.15022 2.3653052 0.71141523
-10.624666 2.253819 0.76855153
-10.233472 2.1708345 0.82768643
-9.904542 2.1010585 0.8858161
-9.6390753 2.0447447 0.94465655
-9.1589184 1.9428887 0.97619379
-8.2943439 1.7594858 0.95534235
-7.5949979 1.611133 0.94020092
-7.009243 1.4868764 0.92817527
-6.5330029 1.3858511 0.92160887
-6.0818496 1.2901477 0.91068202
-5.7334614 1.2162439 0.90833366
-5.4582052 1.1578535 0.9122749
-5.1950064 1.1020209 0.91366374
-4.9637194 1.0529578 0.91646981
-4.7538581 1.0084398 0.91949242
-4.5720057 0.9698633 0.92461729
-4.4058576 0.93461818 0.92997867
-4.254796 0.90257335 0.93584859
-4.1079831 0.8714298 0.94014043
-3.9758148 0.84339279 0.94543129
-3.8479228 0.81626302 0.94954777
-3.7316437 0.79159659 0.95447344
-3.6375985 0.77164668 0.96332788
-3.5346446 0.749807 0.96817881
-2.0760725 0.41379121 -0.56722295
-2.1577492 0.43007058 -0.56998289
-2.2292788 0.44432741 -0.56876063
-2.3125682 0.46092823 -0.56922829
-2.3879719 0.47595727 -0.56641471
-2.5112307 0.50052452 -0.57326066
-2.5912201 0.51646757 -0.56850284
-2.7038155 0.53890944 -0.56927353
-2.8314891 0.56435668 -0.5711782
-2.9469001 0.58735973 -0.56855017
-3.0905023 0.6159817 -0.56916934
-3.2386291 0.64550555 -0.56814998
-3.4055119 0.67876762 -0.56775337
-3.6197078 0.72145998 -0.57200986
