# .PCD v0.7 - Point Cloud Data file format
VERSION 0.7
FIELDS x y z
SIZE 4 4 4
TYPE F F F
COUNT 1 1 1
WIDTH 1497
HEIGHT 1
VIEWPOINT 0 0 0 1 0 0 0
POINTS 1497
DATA ascii
7.633513 9.2180834 -0.54747003
9.2778854 11.203795 -0.54429537
11.833628 14.290061 -0.53985739
16.281425 19.661137 -0.53047574
26.126968 31.550425 -0.51070881
1.3105216 1.622772 -0.55890644
1.3605791 1.6847565 -0.56100702
1.4153417 1.7525669 -0.56365079
1.4676156 1.8172959 -0.56388158
1.5096266 1.8693166 -0.55893141
1.5733006 1.9481617 -0.56061006
1.6421793 2.0334518 -0.56238341
1.718416 2.1278529 -0.5647496
1.7891365 2.2154236 -0.56335717
1.8667997 2.3115911 -0.56219214
1.946125 2.409817 -0.55945712
2.0477493 2.5356545 -0.56074089
2.1515596 2.6641991 -0.55990499
2.2599194 2.798377 -0.55745083
2.3905959 2.9601893 -0.55734277
2.5483289 3.1555042 -0.55972457
2.6961854 3.3385899 -0.55589628
2.8905413 3.5792539 -0.55713099
3.1064923 3.8466582 -0.55709904
3.3609581 4.1617541 -0.55775064
3.6466713 4.5155425 -0.5564425
3.9877915 4.9379392 -0.55529881
4.4074302 5.4575629 -0.55502605
4.9128737 6.083436 -0.55332261
5.5648894 6.8908033 -0.55281699
6.3972583 7.9214959 -0.5505929
7.5390224 9.3353014 -0.54888445
9.1528625 11.333661 -0.54509544
11.671082 14.451882 -0.54050815
16.052759 19.877556 -0.53094894
25.768473 31.908176 -0.51133209
1.2931424 1.6421571 -0.56006408
1.3429056 1.7053512 -0.56232369
1.3902606 1.765487 -0.56226546
1.4368639 1.8246683 -0.56064451
1.498691 1.9031824 -0.56350452
1.5505655 1.9690576 -0.56109405
1.6102921 2.0449042 -0.56003219
1.6761603 2.1285501 -0.55942202
1.7483244 2.220191 -0.55906039
1.8309709 2.3251433 -0.55997014
1.9173539 2.4348409 -0.5597508
2.0192502 2.5642388 -0.56152868
2.1052532 2.6734536 -0.5563674
2.2304103 2.8323901 -0.55872071
2.3607135 2.9978616 -0.55892795
2.5042777 3.1801734 -0.55859596
2.6638775 3.3828485 -0.55776936
2.8441033 3.6117167 -0.55669826
3.0622997 3.8888035 -0.55770713
3.3116364 4.2054353 -0.55810511
3.5916262 4.5609932 -0.55655897
3.940151 5.0035839 -0.5571903
4.343925 5.516335 -0.55552888
4.8414626 6.1481562 -0.5537526
5.4781985 6.9567451 -0.55266124
6.3020391 8.0029373 -0.55082566
7.4247875 9.4287109 -0.54896706
9.0145369 11.447528 -0.54519951
11.495936 14.598649 -0.5406695
15.828895 20.101057 -0.53167969
25.411377 32.269817 -0.51208127
1.2806898 1.6681399 -0.56351209
1.3202729 1.7196981 -0.56165874
1.3655816 1.7787142 -0.56108779
1.4243972 1.8553234 -0.56463921
1.4672217 1.9111036 -0.56046569
1.534552 1.9988034 -0.56415069
1.5825683 2.0613463 -0.55916345
1.6512902 2.1508586 -0.5599063
1.7236861 2.2451568 -0.55996758
1.7962487 2.3396719 -0.5581075
1.8975022 2.4715579 -0.56278521
1.9845229 2.5849051 -0.56066817
2.0806479 2.7101111 -0.55862957
2.1961784 2.8605933 -0.55891478
2.3222094 3.0247526 -0.55857551
2.4649351 3.2106574 -0.55858427
2.6259747 3.4204168 -0.55859733
2.8152952 3.6670129 -0.55984324
3.0160615 3.9285176 -0.55804175
3.252748 4.2368093 -0.55691862
3.5406296 4.6117845 -0.55740201
3.8692691 5.0398479 -0.5558883
4.2722888 5.5647941 -0.55507654
4.7654901 6.2072043 -0.55375123
5.3950348 7.0272069 -0.55294687
6.2013197 8.0774193 -0.5506621
7.3033614 9.5128641 -0.5485965
8.8845129 11.572364 -0.54590064
11.319144 14.74355 -0.54084033
15.593824 20.31146 -0.53213286
25.04665 32.624069 -0.51277673
1.2618542 1.6861281 -0.56430447
1.2923884 1.7269289 -0.55878782
1.354394 1.8097825 -0.56559193
1.3965455 1.8661067 -0.56265217
1.4484541 1.9354687 -0.56234527
1.5028207 2.0081151 -0.56152064
1.561837 2.0869744 -0.56086332
1.62363 2.169544 -0.55953085
1.6929626 2.2621884 -0.55898106
1.7681649 2.3626759 -0.5583663
1.8598498 2.4851882 -0.56063902
1.9499396 2.6055689 -0.55990708
2.0495596 2.7386839 -0.55928206
2.1628442 2.8900585 -0.55943322
2.280874 3.0477736 -0.55760527
2.4257238 3.2413263 -0.55868834
2.5884907 3.4588203 -0.55962873
2.7549684 3.681273 -0.55680627
2.9737289 3.9735873 -0.55920732
3.1976891 4.27285 -0.55644542
3.4717836 4.6391034 -0.55550212
3.8141751 5.0966172 -0.55693471
4.2038016 5.6172485 -0.55511063
4.7014661 6.2822428 -0.55524611
5.3081784 7.0929499 -0.55294216
6.1112242 8.1660042 -0.55153656
7.1975727 9.6176167 -0.54949194
8.744585 11.684781 -0.54609001
11.148829 14.897408 -0.54141438
15.351423 20.513041 -0.53242826
24.678192 32.975754 -0.51349598
1.240983 1.7014557 -0.5642845
1.2697929 1.7409556 -0.55823201
1.3185108 1.8077505 -0.55984759
1.3714674 1.8803568 -0.56182152
1.4183367 1.9446173 -0.55989373
1.4782922 2.0268195 -0.56162548
1.5311688 2.0993164 -0.55907798
1.5927492 2.1837463 -0.5581004
1.6705786 2.2904546 -0.56084728
1.7481565 2.3968184 -0.5613125
1.8292067 2.5079424 -0.56065559
1.9163661 2.6274428 -0.55950147
2.0200841 2.7696459 -0.56048989
2.1203561 2.9071243 -0.55764753
2.2463264 3.0798364 -0.55837554
2.3884134 3.2746456 -0.55932695
2.5419476 3.4851491 -0.55878907
2.7180636 3.7266138 -0.55856675
2.9205992 4.0043011 -0.55843341
3.1452236 4.3122735 -0.55650085
3.4213789 4.6908975 -0.55662429
3.7404573 5.1283717 -0.55533665
4.1366043 5.6715107 -0.55540431
4.6274481 6.3444843 -0.55567604
5.2226253 7.1605053 -0.55316037
6.0088649 8.2384825 -0.55139965
7.07482 9.6999655 -0.54918498
8.5995378 11.790437 -0.54604459
10.968723 15.03872 -0.54160738
15.114509 20.722818 -0.53300887
24.313097 33.334587 -0.51438934
1.2197249 1.7162423 -0.56417167
1.2469337 1.7545271 -0.55762506
1.2967849 1.8246713 -0.56010717
1.345852 1.8937124 -0.56082493
1.3946414 1.9623626 -0.56002307
1.4374392 2.0225821 -0.55551153
1.5048106 2.1173787 -0.55891812
1.5689903 2.2076843 -0.55924529
1.6405019 2.3083062 -0.56023663
1.7061917 2.4007366 -0.55727464
1.7956479 2.526608 -0.55984992
1.8819641 2.6480613 -0.55892199
1.9858304 2.7942088 -0.56047666
2.0976615 2.9515631 -0.5611816
2.2079127 3.1066947 -0.55828053
2.3550687 3.3137541 -0.56101811
2.5002677 3.51806 -0.55909413
2.6726916 3.7606728 -0.55870354
2.8699343 4.0382075 -0.55819827
3.0989943 4.3605118 -0.55776614
3.3671863 4.7378778 -0.55724376
3.6862247 5.1867881 -0.55671191
4.066011 5.7211747 -0.55532968
4.5433407 6.3928127 -0.55497384
5.1350083 7.2253323 -0.55324864
5.9073224 8.3120356 -0.55141908
6.9609618 9.7945824 -0.54965419
8.4599218 11.903729 -0.54643238
10.790671 15.183265 -0.54199344
14.867942 20.920284 -0.53334516
23.930325 33.671719 -0.51501197
1.1905547 1.7195897 -0.56041723
1.2300334 1.7766112 -0.55979449
1.2741295 1.8403018 -0.56005359
1.3226216 1.9103417 -0.56089085
1.3672448 1.9747938 -0.55873054
1.4292612 2.0643678 -0.56211859
1.4847645 2.1445346 -0.56122458
1.5478697 2.2356813 -0.56147343
1.6070149 2.3211081 -0.55850548
1.6885935 2.4389369 -0.56127971
1.7702959 2.5569446 -0.56170607
1.8552804 2.6796927 -0.56074083
1.9483517 2.8141215 -0.559623
2.0575647 2.9718642 -0.56018865
2.1759524 3.142859 -0.55992877
2.3033075 3.3268054 -0.5583905
2.4519515 3.5415008 -0.55798572
2.6245215 3.7907541 -0.55833578
2.8112006 4.0603857 -0.55644357
3.0374932 4.3872337 -0.5563646
3.3169854 4.7909212 -0.5586431
3.6199281 5.2284794 -0.5563671
4.0058517 5.7858925 -0.55678821
4.4600539 6.4419241 -0.55443436
5.0466771 7.2892189 -0.55334699
5.8134117 8.3966599 -0.55224901
6.8440218 9.885232 -0.54997694
8.3180704 12.014289 -0.54677093
10.607527 15.321088 -0.54221618
14.627358 21.127172 -0.53399378
23.545376 34.007999 -0.51568812
1.1739707 1.740993 -0.56264544
1.2113856 1.7964792 -0.56131876
1.2575632 1.8649604 -0.56280935
1.3046864 1.9348439 -0.5633319
1.3442992 1.9935894 -0.55932927
1.4026356 2.080102 -0.5616641
1.4644487 2.1717706 -0.56359708
1.5232724 2.2590058 -0.56258458
1.5851935 2.3508346 -0.5609256
1.6581913 2.45909 -0.5611828
1.7327241 2.5696218 -0.55976808
1.8119591 2.6871269 -0.55759192
1.9060152 2.8266115 -0.55740386
2.020134 2.9958491 -0.55998504
2.1373041 3.1696119 -0.5599705
2.258698 3.3496387 -0.55751908
2.410006 3.5740278 -0.5583992
2.5810697 3.8277142 -0.55906266
2.7700729 4.1080055 -0.55825931
2.9937901 4.4397769 -0.55831712
3.2435451 4.8101621 -0.55619395
3.5472569 5.2605653 -0.55509788
3.9267364 5.8233318 -0.55570251
4.3862119 6.5047317 -0.55515599
4.9487495 7.3389726 -0.5524627
5.7044263 8.4596376 -0.551736
6.7276082 9.9770117 -0.55043906
8.1707935 12.117249 -0.54684287
10.427887 15.464508 -0.54271287
14.374045 21.316643 -0.53427488
23.160126 34.346359 -0.51646143
1.1484269 1.7491298 -0.56066889
1.1884658 1.8101118 -0.56096971
1.2356228 1.8819349 -0.56330413
1.286078 1.9587815 -0.56565428
1.3203391 2.0109634 -0.55960631
1.3742722 2.093107 -0.56057036
1.4304992 2.1787446 -0.56079972
1.4858496 2.2630467 -0.55899853
1.550768 2.3619218 -0.55897886
1.6247218 2.4745584 -0.56011122
1.7059975 2.5983465 -0.56141323
1.7832435 2.7159972 -0.5589903
1.8782909 2.8607607 -0.55954117
1.9809849 3.0171704 -0.55937499
2.1000605 3.1985302 -0.56047487
2.2176292 3.3775954 -0.55759138
2.3732591 3.6146297 -0.56014097
2.530899 3.8547258 -0.55842024
2.7292798 4.1568727 -0.56029713
2.9369266 4.4731326 -0.55792814
3.1877136 4.8550978 -0.55681533
3.4962997 5.3250947 -0.5573284
3.8606327 5.8799977 -0.55653775
4.3092999 6.5633473 -0.55559421
4.8665891 7.4121356 -0.55342364
5.6115007 8.5466852 -0.55287111
6.6057897 10.061053 -0.55055267
8.0303068 12.230685 -0.54746449
10.242223 15.59958 -0.54299217
14.131772 21.523619 -0.53506666
22.78508 34.703178 -0.51757479
1.125198 1.7605588 -0.5598551
1.1554778 1.8079367 -0.55585033
1.2145363 1.9003435 -0.56430137
1.2563649 1.9657915 -0.56317472
1.3014107 2.036273 -0.5621537
1.3510163 2.1138892 -0.56164455
1.4046839 2.1978612 -0.56123191
1.4601688 2.2846763 -0.55986392
1.5233307 2.3835037 -0.55961108
1.5945715 2.4949715 -0.56025124
1.6701334 2.6132007 -0.56014311
1.7594266 2.7529147 -0.5620932
1.8447782 2.8864615 -0.56008881
1.9508885 3.0524888 -0.5614329
2.0556056 3.2163363 -0.55912352
2.181802 3.4137914 -0.55909556
2.3253577 3.6384079 -0.55935246
2.4869778 3.8912895 -0.55924463
2.6637251 4.16784 -0.55731827
2.8779263 4.5029931 -0.55719656
3.1268542 4.8924818 -0.55665112
3.4203246 5.351665 -0.55566543
3.7919426 5.9331236 -0.55711067
4.2273483 6.614388 -0.55547261
4.7842431 7.4857421 -0.55448502
5.5094023 8.6203737 -0.55321372
6.4793305 10.137988 -0.55036122
7.8817067 12.332237 -0.54763055
10.058358 15.737969 -0.54346299
13.876176 21.711578 -0.53545707
22.379971 35.017178 -0.51811439
1.1044774 1.7758871 -0.5603683
1.1499579 1.849015 -0.56408972
1.1814986 1.8997294 -0.55976254
1.2299763 1.9776766 -0.56220424
1.2756373 2.0510948 -0.56187272
1.3287847 2.1365504 -0.56328166
1.3724556 2.2067688 -0.55915475
1.4324217 2.3031881 -0.56004161
1.4951376 2.4040289 -0.56007129
1.5648342 2.516094 -0.5606311
1.6442758 2.6438279 -0.56233168
1.7218776 2.7686038 -0.56093109
1.8118486 2.9132681 -0.56092489
1.9133387 3.0764537 -0.56147093
2.0242658 3.254813 -0.56144279
2.1468277 3.4518802 -0.56096774
2.2805176 3.6668398 -0.55937004
2.4372437 3.9188397 -0.5588547
2.6141627 4.2033076 -0.55772042
2.8280671 4.5472436 -0.55832678
3.0723968 4.9401007 -0.55772841
3.360508 5.4033546 -0.55669975
3.7124348 5.9692168 -0.55617136
4.1468334 6.6676855 -0.55562425
4.6991119 7.5556931 -0.55534446
5.3981462 8.6796684 -0.55271739
6.359354 10.225194 -0.55080861
7.73036 12.429631 -0.54769295
9.8725443 15.874045 -0.5439288
13.622893 21.904224 -0.53603637
21.985786 35.350903 -0.51901287
1.0898907 1.8014524 -0.56416374
1.1218348 1.854252 -0.56143653
1.1608676 1.9187682 -0.56112391
1.2047712 1.9913354 -0.5618332
1.2489549 2.0643654 -0.56125855
1.2939342 2.1387105 -0.55961412
1.3572987 2.2434442 -0.56417608
1.4108154 2.3319006 -0.56276244
1.4581971 2.4102166 -0.55729342
1.5345572 2.5364301 -0.56091547
1.6093956 2.6601288 -0.5615471
1.6873651 2.7890024 -0.56081778
1.771247 2.9276488 -0.5594579
1.8698872 3.0906887 -0.55983025
1.9788404 3.2707744 -0.55995643
2.1009357 3.4725826 -0.56009144
2.236582 3.6967893 -0.55970109
2.3970408 3.9620075 -0.56076497
2.5694978 4.247057 -0.55929083
2.7639484 4.5684595 -0.55671662
3.0078523 4.971602 -0.5570671
3.3023279 5.458333 -0.55813819
3.6347938 6.0078573 -0.55556518
4.0607901 6.7119756 -0.555112
4.5982704 7.6003628 -0.55442989
5.2915955 8.7463427 -0.55277789
6.2339411 10.303922 -0.55087858
7.5872297 12.540738 -0.54843628
9.6804008 16.000486 -0.54414141
13.363365 22.087963 -0.53647095
21.582848 35.673737 -0.51981688
1.058771 1.7996109 -0.55946749
1.0936857 1.8589561 -0.5587467
1.1410581 1.9394755 -0.56303376
1.1838908 2.012279 -0.56359237
1.2258762 2.0836422 -0.56235874
1.266332 2.1524057 -0.5590809
1.3298376 2.2603471 -0.56427193
1.3830614 2.3508127 -0.56317967
1.4428504 2.4524369 -0.56291074
1.5047692 2.5576813 -0.5614807
1.5719724 2.6719079 -0.55991083
1.6480011 2.8011348 -0.55914026
1.7329547 2.9455323 -0.558761
1.8314736 3.1129863 -0.55974752
1.9375323 3.293256 -0.55968416
2.0553753 3.493556 -0.55935556
2.190479 3.7231939 -0.55957848
2.3386598 3.975059 -0.55849981
2.5158739 4.2762733 -0.55902201
2.7137566 4.6126175 -0.55798912
2.9565065 5.0252237 -0.5589596
3.2281988 5.4870234 -0.55697083
3.5682132 6.0649519 -0.55674541
3.9789963 6.7631664 -0.55525726
4.5064211 7.6596394 -0.55466974
5.1828823 8.809432 -0.55269551
6.1064682 10.379267 -0.55085069
7.4298315 12.628609 -0.54824221
9.4929161 16.135269 -0.54471421
13.108002 22.27989 -0.53717709
21.169294 35.981804 -0.52047348
1.0462722 1.8294687 -0.56470746
1.0816308 1.8912952 -0.56442654
1.1148477 1.9493769 -0.56188607
1.1530739 2.0162177 -0.560682
1.1946371 2.0888934 -0.55976897
1.2406869 2.1694143 -0.55949378
1.295599 2.2654314 -0.56152159
1.3543451 2.3681524 -0.56330144
1.4084765 2.4628043 -0.56127262
1.4699253 2.5702512 -0.56022984
1.5427147 2.6975276 -0.56126189
1.6217474 2.835721 -0.56202102
1.6984167 2.9697819 -0.55935705
1.7931759 3.135474 -0.55978394
1.9026856 3.3269582 -0.56139314
2.0120437 3.5181773 -0.55929404
2.1446066 3.7499714 -0.55959719
2.2942212 4.0115809 -0.55962527
2.46051 4.3023472 -0.55843312
2.6663399 4.6622524 -0.55998498
2.8814194 5.0383315 -0.55643451
3.1648514 5.5339293 -0.55773962
3.4895427 6.1016712 -0.55613518
3.9016078 6.8221912 -0.5561223
4.4102521 7.7115855 -0.55446243
5.0796037 8.8819866 -0.55328697
5.990602 10.474921 -0.55197608
7.285347 12.738859 -0.5490979
9.2954884 16.25371 -0.54481274
12.846684 22.463186 -0.53774709
20.768038 36.314137 -0.52154726
1.0226127 1.8402405 -0.56410831
1.057749 1.9034698 -0.56413561
1.0914912 1.9641906 -0.56224477
1.132021 2.0371258 -0.56258279
1.1738508 2.1124005 -0.56215775
1.2223923 2.1997533 -0.56339914
1.2700149 2.2854524 -0.56257075
1.3171897 2.3703456 -0.55992818
1.3685596 2.4627883 -0.55739164
1.441146 2.593411 -0.56137288
1.5074875 2.7127957 -0.56053942
1.5831466 2.8489478 -0.56074178
1.6575092 2.9827669 -0.55792177
1.7528477 3.1543329 -0.55926055
1.8508301 3.330657 -0.55813479
1.9698507 3.5448401 -0.55963975
2.1028337 3.7841499 -0.56079656
2.2435987 4.0374632 -0.55934495
2.4069548 4.33143 -0.55832416
2.5950234 4.6698685 -0.5570249
2.8225935 5.079392 -0.55709392
3.0977297 5.5745125 -0.55794859
3.4142857 6.1441698 -0.55614007
3.8123209 6.8604531 -0.55537796
4.3176451 7.7698083 -0.55478936
4.9786954 8.9594002 -0.55425376
5.858541 10.542725 -0.5517112
7.1330462 12.836257 -0.54947394
9.1012154 16.378071 -0.54518878
12.585966 22.649048 -0.53845084
20.352928 36.626064 -0.52239335
0.99379301 1.8413435 -0.5606581
1.0272954 1.9034181 -0.56033409
1.0638818 1.971207 -0.56046617
1.1115775 2.0595798 -0.56496632
1.1399267 2.1121063 -0.55830705
1.1933919 2.211169 -0.56252199
1.2390996 2.2958584 -0.56133926
1.2931384 2.3959839 -0.56218576
1.3521444 2.5053127 -0.56321037
1.4041107 2.6015983 -0.55936545
1.4757459 2.7343271 -0.56119645
1.5486805 2.8694637 -0.5609892
1.6195557 3.0007844 -0.55752474
1.7173687 3.1820166 -0.56038237
1.8192477 3.3707824 -0.5610677
1.9155644 3.5492423 -0.55657399
2.0517762 3.8016214 -0.55960453
2.1829138 4.0445991 -0.55657279
2.3590109 4.3708792 -0.55962783
2.540103 4.7064147 -0.55761635
2.7666204 5.1261163 -0.5584451
3.0214381 5.5982537 -0.55656415
3.3395927 6.1877446 -0.55632514
3.7342486 6.9189806 -0.55635667
4.22576 7.8296742 -0.5553118
4.8649001 9.0139017 -0.55388278
5.7347231 10.625548 -0.55231345
6.9745131 12.922685 -0.54946089
8.9073038 16.503845 -0.54568827
12.309318 22.807245 -0.53857267
19.931122 36.92926 -0.52318263
0.97121358 1.8536831 -0.56073666
1.0100135 1.9277376 -0.56379461
1.0401942 1.9853412 -0.56080574
1.0712667 2.044647 -0.5572145
1.1231546 2.1436815 -0.56296027
1.1587815 2.2116802 -0.55898482
1.2160091 2.3209064 -0.56376493
1.2624379 2.4095213 -0.56167734
1.3133864 2.506763 -0.55986345
1.3832814 2.6401663 -0.56395811
1.4352232 2.7393038 -0.55855346
1.514402 2.8904266 -0.56140447
1.5920786 3.038682 -0.5608862
1.6777587 3.2022133 -0.56026357
1.7773681 3.3923302 -0.56097406
1.8798683 3.5879648 -0.55897909
2.0041459 3.8251643 -0.5594002
2.1387343 4.0820432 -0.55806428
2.3012214 4.3921704 -0.55868858
2.4854646 4.7438211 -0.55838507
2.704325 5.1615438 -0.55863971
2.9516909 5.6336732 -0.55643499
3.2751186 6.2509751 -0.55834711
3.6527963 6.9718208 -0.5569517
4.1267447 7.8764105 -0.55498558
4.7555246 9.0765162 -0.55409521
5.6050072 10.697861 -0.55244792
6.8209548 13.018649 -0.54993337
8.7157164 16.63504 -0.54644126
12.041053 22.981861 -0.53915894
19.508791 37.234982 -0.52407563
0.95509601 1.8787582 -0.56472647
0.98264658 1.9329526 -0.5617435
1.0205419 2.0074961 -0.56347656
1.0506018 2.0666268 -0.55964154
1.092288 2.1486273 -0.56068939
1.1336238 2.2299383 -0.56003398
1.1853445 2.3316772 -0.5627982
1.2297772 2.4190805 -0.56033826
1.2885338 2.5346599 -0.56251276
1.3413297 2.638514 -0.5600397
1.4050018 2.7637627 -0.55997562
1.4767432 2.9048843 -0.56064326
1.558593 3.0658903 -0.56232828
1.6408497 3.2276964 -0.5611496
1.7299454 3.4029555 -0.5591712
1.8372339 3.6140015 -0.55947357
1.9609514 3.8573647 -0.56054056
2.0939782 4.11904 -0.55955976
2.2391992 4.4047027 -0.55673826
2.4258749 4.7719107 -0.55813801
2.6348855 5.183053 -0.55741888
2.891129 5.6871061 -0.55815905
3.1877496 6.2705855 -0.55655539
3.566309 7.015245 -0.55687535
4.0338049 7.9348507 -0.55556637
4.6411996 9.1296501 -0.55381304
5.474916 10.769644 -0.5526365
6.6649632 13.110572 -0.55031282
8.514349 16.748476 -0.54668707
11.777565 23.167511 -0.5400759
19.079763 37.531578 -0.52490842
0.93099481 1.888476 -0.5641638
0.95681572 1.9408524 -0.56057769
0.99580598 2.0199423 -0.56349045
1.0299293 2.0891595 -0.56227136
1.0716912 2.1738715 -0.56379551
1.1034237 2.2382393 -0.55866891
1.148734 2.3301489 -0.5589776
1.2062056 2.4467273 -0.56326395
1.2562227 2.5481844 -0.56204361
1.3113395 2.659986 -0.56113219
1.3783858 2.7959859 -0.5630278
1.4410652 2.9231281 -0.56070197
1.5176599 3.0784965 -0.56117517
1.6002086 3.2459424 -0.56085843
1.685216 3.4183755 -0.5582577
1.793856 3.6387463 -0.55984718
1.9110729 3.8765149 -0.55986619
2.0453749 4.1489396 -0.56016254
2.1985414 4.4596305 -0.56022155
2.3733537 4.8142281 -0.55963188
2.5834408 5.2403793 -0.56012535
2.8168111 5.7137589 -0.55733329
3.1114676 6.3114548 -0.55674487
3.4766619 7.0522332 -0.55637586
3.9344416 7.9808159 -0.55535531
4.5319347 9.1928005 -0.55422145
5.3391685 10.830234 -0.55233496
6.4990497 13.182995 -0.54995674
8.3087969 16.853975 -0.54675436
11.49825 23.32362 -0.54037821
18.647978 37.826481 -0.5257861
0.89955157 1.8827164 -0.55909646
0.92991346 1.9462622 -0.55879527
0.97200054 2.0343485 -0.56413239
1.0071253 2.1078627 -0.56392944
1.0393708 2.1753509 -0.56082213
1.0809821 2.2624414 -0.56134957
1.1247734 2.3540945 -0.56136161
1.1721334 2.4532168 -0.56139743
1.2193393 2.552016 -0.55953932
1.2751629 2.6688523 -0.55965251
1.3396128 2.8037426 -0.56123024
1.4065926 2.943928 -0.56133157
1.4742947 3.0856252 -0.55912769
1.5631226 3.2715375 -0.5619173
1.6478622 3.4488931 -0.55989015
1.7503312 3.6633556 -0.56027967
1.8637064 3.9006441 -0.55999893
1.9970932 4.1798162 -0.56097329
2.1402926 4.4795256 -0.55937243
2.3042929 4.8227696 -0.55728889
2.5168843 5.2677131 -0.55969661
2.7493582 5.7542686 -0.55794489
3.0379624 6.3583035 -0.55754006
3.3890958 7.0932078 -0.55627865
3.8436108 8.0444851 -0.5564549
4.423511 9.2581873 -0.55484229
5.2212067 10.927724 -0.55399072
6.3440838 13.27785 -0.55061787
8.1047869 16.962912 -0.547014
11.227243 23.498058 -0.54118025
18.211926 38.11665 -0.52666682
0.87823677 1.897745 -0.56031001
0.91460347 1.9763283 -0.564156
0.94576347 2.0436606 -0.56344718
0.97806579 2.1134613 -0.56216717
1.0176656 2.1990311 -0.5636583
1.0522125 2.2736816 -0.56088585
1.095615 2.3674686 -0.56129575
1.147595 2.47979 -0.56420654
1.1926253 2.5770938 -0.56177992
1.2445982 2.6894 -0.56070971
1.3086832 2.8278787 -0.56279784
1.3679291 2.9559007 -0.56036484
1.442089 3.1161494 -0.56140321
1.5179187 3.2800069 -0.5601238
1.6005619 3.4585869 -0.55822659
1.705646 3.6856592 -0.56044072
1.8132596 3.9181967 -0.55927557
1.9429418 4.1984215 -0.56022149
2.0845072 4.504324 -0.55922604
2.2515314 4.8652396 -0.55895495
2.4429638 5.2788978 -0.5576511
2.6781859 5.7871795 -0.55790067
2.9613521 6.3990617 -0.55787879
3.3024943 7.1362214 -0.55642509
3.7419345 8.0857897 -0.5560872
4.3115611 9.3166714 -0.55512798
5.0827203 10.983037 -0.55358458
6.1880507 13.371499 -0.55130428
7.9000974 17.07099 -0.54732519
10.945268 23.651169 -0.54156595
17.774614 38.408417 -0.52763838
0.85873884 1.9171116 -0.56286782
0.88480937 1.9753134 -0.56071812
0.91655147 2.0461769 -0.56099123
0.94992435 2.1206808 -0.56093812
0.98779255 2.2052207 -0.56208897
1.0248247 2.287894 -0.56124073
1.0663325 2.380559 -0.56124818
1.1079923 2.4735634 -0.55964774
1.1592727 2.5880454 -0.56101739
1.2063326 2.6931052 -0.55834734
1.2702992 2.8359094 -0.56124496
1.3386327 2.988462 -0.56337458
1.4024901 3.131022 -0.56093323
1.4794667 3.30287 -0.56087905
1.5624893 3.4882157 -0.55986536
1.6596314 3.7050831 -0.56024879
1.7651378 3.940623 -0.55933625
1.8897673 4.2188554 -0.5598051
2.0306256 4.5333176 -0.55968332
2.1951094 4.9005237 -0.55986524
2.3833416 5.3207464 -0.55893373
2.6105208 5.8279185 -0.5586912
2.8831353 6.436523 -0.55801177
3.2145808 7.176466 -0.55643898
3.6474779 8.1428976 -0.55688798
4.1966486 9.368906 -0.55512357
4.9488621 11.048203 -0.55376005
6.0278091 13.456923 -0.55172861
7.7047935 17.200747 -0.54840642
10.664452 23.808104 -0.54211569
17.324594 38.676697 -0.52835739
0.83178794 1.9198761 -0.56063414
0.86805266 2.0035799 -0.56566918
0.89258647 2.0602071 -0.56178617
0.92579186 2.1368494 -0.56216121
0.95756012 2.2101748 -0.56030816
0.99869066 2.3051095 -0.5624088
1.0416411 2.4042447 -0.56377006
1.0789202 2.4902899 -0.56038809
1.1260751 2.5991297 -0.56037623
1.1777302 2.7183564 -0.5605377
1.2350428 2.8506413 -0.56111258
1.2965159 2.9925296 -0.56109351
1.365424 3.1515784 -0.56156558
1.43849 3.3202243 -0.56077993
1.5223991 3.5138974 -0.56094027
1.6168007 3.7317886 -0.56123835
1.7215011 3.9734511 -0.56094885
1.8384506 4.2433858 -0.56001806
1.9732778 4.554585 -0.55927104
2.1295812 4.9153538 -0.55852568
2.3225741 5.3608069 -0.56009954
2.5398858 5.8623905 -0.5589596
2.8115118 6.4893394 -0.55955118
3.1293132 7.222867 -0.55701107
3.5450733 8.1824961 -0.55657279
4.0829535 9.4239941 -0.55537087
4.8150029 11.113661 -0.55403149
5.8599839 13.525615 -0.5515489
7.4957867 17.301262 -0.54863095
10.381999 23.96302 -0.54269528
16.877977 38.956593 -0.52930582
0.81550473 1.9475965 -0.56575787
0.8387754 2.0031719 -0.56259954
0.86801583 2.073004 -0.56232274
0.89933133 2.1477921 -0.56208819
0.93244284 2.2268693 -0.56159127
0.96808964 2.3120012 -0.56114346
1.0057986 2.4020581 -0.56031489
1.0477939 2.5023518 -0.5601607
1.0963706 2.6183631 -0.56157386
1.1464342 2.7379258 -0.56162363
1.200307 2.8665853 -0.56130332
1.2550443 2.9973094 -0.5590539
1.3215032 3.1560273 -0.55942053
1.3985714 3.3400822 -0.56118685
1.4811352 3.537262 -0.56172025
1.5693697 3.7479844 -0.56072938
1.6696736 3.9875312 -0.55999577
1.7749078 4.238853 -0.5564974
1.9240812 4.5951099 -0.56129956
2.0708451 4.9456129 -0.55902827
2.2576702 5.3917904 -0.56039387
2.4665813 5.8907142 -0.55872601
2.7281156 6.5153131 -0.55885601
3.0418077 7.2644753 -0.55729318
3.4389806 8.2130079 -0.55572987
3.9718297 9.4855633 -0.55607903
4.6820664 11.181757 -0.55451417
5.6969543 13.605523 -0.55190909
7.2892227 17.408195 -0.54913807
10.097279 24.114422 -0.54327112
16.426088 39.228947 -0.53022188
0.78918678 1.9517646 -0.564107
0.80786139 1.9979494 -0.55830061
0.84288329 2.0845633 -0.56260425
0.87038535 2.1525795 -0.56049776
0.90476722 2.2376103 -0.56145191
0.94413835 2.3349807 -0.56386042
0.97930366 2.4219491 -0.56210321
1.0193402 2.5209649 -0.56147897
1.0688099 2.6433098 -0.56406295
1.1144468 2.7561762 -0.56251377
1.1565925 2.8604081 -0.55726683
1.220211 3.0177453 -0.56002462
1.2911867 3.1932774 -0.56316644
1.3592985 3.361727 -0.56197268
1.4354582 3.5500803 -0.5609104
1.5217026 3.7633743 -0.56019014
1.6204486 4.0075865 -0.55997163
1.7341594 4.2888083 -0.56021392
1.8614497 4.6036143 -0.55950016
2.009649 4.9701309 -0.55896407
2.1918104 5.4206409 -0.56054878
2.3973927 5.9290733 -0.55952597
2.6450729 6.5416193 -0.55828035
2.955548 7.3094664 -0.55791444
3.3496046 8.2840204 -0.55770576
3.8537393 9.5308132 -0.55591166
4.5421071 11.233239 -0.55425555
5.5344315 13.687389 -0.55242765
7.0741534 17.495329 -0.54910117
9.8101387 24.261786 -0.5438323
15.974524 39.507137 -0.53128684
0.76562434 1.9625901 -0.56447214
0.78726906 2.0180736 -0.56117648
0.81632781 2.0925624 -0.56201154
0.84690475 2.170943 -0.56252515
0.88156402 2.259788 -0.56425399
0.91253608 2.3391812 -0.56212258
0.95346659 2.444102 -0.5644809
0.99408203 2.5482149 -0.5647831
1.026122 2.6303458 -0.55856174
1.0841362 2.7790587 -0.56442046
1.1284316 2.8926046 -0.5607937
1.1835331 3.0338509 -0.56027037
1.2479469 3.1989682 -0.56142133
1.3225729 3.3902636 -0.56398183
1.3900433 3.563216 -0.56024283
1.4820042 3.7989473 -0.56273013
1.5765277 4.0412474 -0.5619238
1.6785011 4.3026447 -0.55928296
1.8049893 4.6268826 -0.55958825
1.9534858 5.0075364 -0.56042701
2.1180367 5.4293437 -0.55871326
2.3221986 5.9526892 -0.5590176
2.5681942 6.5832705 -0.55909765
2.8635709 7.340435 -0.5575484
3.2457788 8.3201809 -0.55741107
3.7368023 9.5788631 -0.55599213
4.4084864 11.300648 -0.55486488
5.3704262 13.76647 -0.55291229
6.8700008 17.610456 -0.55002159
9.5227728 24.410532 -0.54450053
15.519352 39.782074 -0.53237754
0.73752183 1.9614474 -0.56149268
0.75802487 2.0159752 -0.5579589
0.79509836 2.1145728 -0.56525439
0.81802535 2.1755474 -0.56106943
0.84520322 2.2478271 -0.55863011
0.88433027 2.351886 -0.56251997
0.91794449 2.4412832 -0.56118059
0.96055901 2.5546169 -0.56354153
0.99933076 2.6577308 -0.56172514
1.0452225 2.7797806 -0.56191432
1.0979975 2.9201365 -0.56347114
1.1512949 3.0618815 -0.56278992
1.2088187 3.2148664 -0.56156033
1.2743969 3.3892725 -0.56116766
1.3497421 3.5896535 -0.56174761
1.4304153 3.8042049 -0.56086105
1.523867 4.0527406 -0.56087404
1.6256444 4.3234191 -0.55934268
1.75239 4.6605 -0.56100559
1.8882905 5.0219293 -0.55939692
2.0568225 5.4701419 -0.56026661
2.247189 5.9764237 -0.55860931
2.4879115 6.6166272 -0.55929011
2.7788489 7.390379 -0.55870432
3.1457171 8.3660688 -0.55785167
3.6195219 9.6261578 -0.55611187
4.271874 11.361095 -0.55521172
5.2050629 13.842921 -0.55337042
6.6539097 17.696146 -0.55010086
9.2288809 24.54431 -0.54491204
15.047952 40.020191 -0.53304762
0.71804577 1.9833404 -0.5651896
0.73561049 2.0318565 -0.55980849
0.76754296 2.1200583 -0.56415516
0.79249167 2.1889701 -0.56197542
0.82380784 2.2754695 -0.56293976
0.85323918 2.3567629 -0.56113458
0.8881523 2.4531977 -0.56136644
0.92531282 2.5558403 -0.56125897
0.97014809 2.6796813 -0.56380051
1.0106235 2.7914798 -0.56172472
1.0606203 2.9295781 -0.56273389
1.1118324 3.0710325 -0.56191653
1.1701628 3.2321491 -0.56202334
1.2355721 3.4128184 -0.56250811
1.3059701 3.6072674 -0.56194848
1.3865762 3.8299124 -0.56209499
1.4752291 4.0747838 -0.56137174
1.5729913 4.3448162 -0.55956626
1.6974537 4.6885986 -0.5618329
1.8299385 5.0545397 -0.56048054
1.9896641 5.4957232 -0.56033856
2.1802583 6.022171 -0.56033701
2.4010639 6.6320658 -0.55805725
2.6852825 7.4171166 -0.55818719
3.0382037 8.3919325 -0.55704308
3.5053706 9.6823111 -0.55682373
4.1364923 11.425556 -0.55583411
5.0321808 13.899569 -0.55311948
6.4470682 17.807682 -0.55106205
8.9406185 24.695208 -0.54578012
14.584866 40.285385 -0.53415078
0.6899516 1.9815259 -0.56221235
0.71351641 2.0492036 -0.56212813
0.74423903 2.1374383 -0.566302
0.76606923 2.200134 -0.56238073
0.79601866 2.2861483 -0.5631175
0.82963866 2.3827043 -0.56483942
0.85839641 2.4652958 -0.56167704
0.89518541 2.5709531 -0.56211793
0.93498141 2.6852462 -0.56250989
0.97483814 2.7997139 -0.56092709
1.0218153 2.9346311 -0.5612486
1.074108 3.0848148 -0.56197917
1.1327776 3.2533123 -0.56323862
1.1896812 3.4167385 -0.56070065
1.2589054 3.6155491 -0.56078464
1.3364236 3.8381796 -0.56085408
1.4207586 4.0803876 -0.55969459
1.5156831 4.3530087 -0.55817884
1.6362317 4.6992216 -0.56065249
1.7649909 5.0690155 -0.55963677
1.9257574 5.5307331 -0.56145132
2.1056328 6.0473313 -0.56022662
2.3257122 6.6793952 -0.55959105
2.5952432 7.4534822 -0.55848014
2.9411345 8.4468737 -0.55824721
3.3859165 9.7242785 -0.55680072
3.9953675 11.474608 -0.5557884
4.8702416 13.987227 -0.55418271
6.2254214 17.879274 -0.55086696
8.6437187 24.824572 -0.54624885
14.112219 40.529984 -0.5350526
0.6644026 1.9864724 -0.56125534
0.68752688 2.0556107 -0.56152409
0.71133101 2.1267817 -0.56111872
0.73723137 2.2042203 -0.56106555
0.7674973 2.2947114 -0.56285954
0.79468429 2.3759966 -0.56089044
0.82902455 2.4786692 -0.56235892
0.86497605 2.5861592 -0.56307459
0.90147126 2.6952748 -0.56224608
0.94191223 2.8161876 -0.56186467
0.98811114 2.9543161 -0.5626471
1.0388345 3.1059718 -0.56346375
1.0886366 3.2548735 -0.56114894
1.1457989 3.425781 -0.55983013
1.2136455 3.6286328 -0.56045693
1.2895755 3.855653 -0.56104785
1.3737546 4.107337 -0.5610317
1.464994 4.3801303 -0.55930436
1.5815582 4.728641 -0.56179976
1.7079396 5.1065044 -0.5614146
1.8524207 5.5384827 -0.5598833
2.0318072 6.0748234 -0.56041658
2.2442739 6.7100701 -0.55980664
2.5027554 7.4828939 -0.55833578
2.8362718 8.4800615 -0.55809343
3.2669203 9.767642 -0.55694139
3.8572609 11.532679 -0.55626172
4.6946959 14.036495 -0.55380565
6.0123096 17.975977 -0.5515269
8.3413229 24.939407 -0.54647744
13.64355 40.792336 -0.53626066
0.64033163 1.9957504 -0.56160963
0.66176069 2.0625393 -0.5611515
0.69101018 2.1537027 -0.56593686
0.71202254 2.2191927 -0.56260556
0.73647273 2.2953978 -0.56076425
0.7664572 2.3888516 -0.56165779
0.79614234 2.4813726 -0.56070876
0.82955068 2.5854981 -0.56066734
0.86663711 2.7010868 -0.56119311
0.90350473 2.8159938 -0.55956709
0.95164686 2.9660406 -0.56260884
0.99855548 3.1122429 -0.56233138
1.0524954 3.2803597 -0.56326902
1.105989 3.4470859 -0.56104684
1.1735018 3.6575062 -0.56264526
1.2442049 3.8778694 -0.56201184
1.3234752 4.1249352 -0.5611701
1.4171708 4.4169602 -0.56173956
1.5226599 4.7457428 -0.56156462
1.6385653 5.1069903 -0.5592106
1.786158 5.5669994 -0.56050342
1.9486333 6.0733933 -0.55803198
2.1590624 6.7292471 -0.55914938
2.4130411 7.5208344 -0.55891049
2.7335589 8.5198059 -0.55845469
3.1507816 9.8201828 -0.55768591
3.7125309 11.571012 -0.55586672
4.5233369 14.098088 -0.55399936
5.7988553 18.073555 -0.55229121
8.0506592 25.091852 -0.5476073
13.154242 40.998417 -0.53680289
0.61690128 2.007237 -0.56266487
0.63865286 2.078011 -0.5631817
0.66245502 2.155457 -0.56421471
0.68411243 2.2259247 -0.56213707
0.71208781 2.3169494 -0.56384754
0.73577827 2.394032 -0.56070614
0.7697888 2.5046935 -0.56379694
0.79581475 2.589375 -0.55934376
0.83243704 2.7085347 -0.56057137
0.87399185 2.8437431 -0.56290311
0.91664046 2.9825106 -0.56355232
0.95549393 3.1089299 -0.55956757
1.0063387 3.2743657 -0.56007266
1.0620478 3.4556286 -0.56026942
1.1238145 3.6566012 -0.56033784
1.1995274 3.9029517 -0.56346673
1.2752658 4.1493845 -0.56232047
1.3648566 4.4408898 -0.56260598
1.4613431 4.7548318 -0.56047142
1.5785512 5.1361966 -0.56024086
1.715205 5.580833 -0.55973041
1.8795755 6.1156521 -0.55974889
2.0806119 6.7697725 -0.56034851
2.3198354 7.5481439 -0.55877781
2.6265569 8.5461359 -0.55802137
3.0268025 9.8484316 -0.55713439
3.5733013 11.626597 -0.55638409
4.3624501 14.194283 -0.55562955
5.5743909 18.137625 -0.5521127
7.745182 25.200817 -0.54786545
12.673429 41.236057 -0.53783327
0.59073025 2.0097566 -0.56129253
0.61475891 2.0915058 -0.56474763
0.63222331 2.1509225 -0.56095034
0.65470701 2.2274156 -0.5604381
0.68264037 2.3224492 -0.56310064
0.70695442 2.4051695 -0.5612362
0.73789376 2.5104299 -0.56300318
0.76601791 2.6061125 -0.56088215
0.80103928 2.7252607 -0.56195205
0.83959973 2.8564494 -0.56333202
0.87452865 2.9752831 -0.56011242
0.92036861 3.131238 -0.56150335
0.9704408 3.3015914 -0.56264585
1.0226156 3.4790978 -0.5619933
1.0816799 3.6800442 -0.56184959
1.1452172 3.8962076 -0.56041765
1.2229638 4.1607141 -0.56177539
1.3036697 4.435288 -0.5598231
1.4056383 4.7822013 -0.56161773
1.5163274 5.1587825 -0.56062829
1.6468899 5.6029768 -0.55987793
1.8038268 6.1369004 -0.55962127
1.9949105 6.7869973 -0.5597015
2.2278738 7.5795751 -0.55903435
2.5244169 8.5884609 -0.55871582
2.9088931 9.8965082 -0.55778849
3.432234 11.676996 -0.5567342
4.1867151 14.243859 -0.55551291
5.3573694 18.226606 -0.55277425
7.4420657 25.319071 -0.54840535
12.191333 41.476818 -0.53897744
0.56406713 2.0100708 -0.55940086
0.58562577 2.0868957 -0.56151593
0.60380256 2.1516695 -0.55916655
0.63248807 2.253891 -0.56509995
0.65168673 2.3223062 -0.56108057
0.67692667 2.4122493 -0.56090355
0.7053445 2.5135171 -0.56170803
0.73615515 2.623312 -0.56259304
0.76647228 2.7313478 -0.56122136
0.80444819 2.8666761 -0.56335551
0.84095871 2.9967828 -0.56217062
0.88143164 3.1410093 -0.56126952
0.92639756 3.3012469 -0.5606035
0.97682559 3.4809487 -0.56030965
1.0392932 3.7035537 -0.56344515
1.0960854 3.9059348 -0.55983585
1.1728653 4.1795421 -0.56232774
1.2521105 4.461935 -0.56120068
1.345199 4.7936583 -0.56097829
1.4548659 5.1844602 -0.56143224
1.5781721 5.6238656 -0.55998379
1.7279814 6.1577158 -0.5595395
1.9119487 6.8132892 -0.55988854
2.137018 7.6153302 -0.55969107
2.419976 8.6236601 -0.55902767
2.7915027 9.947607 -0.55869162
3.2939982 11.738266 -0.55768204
4.009479 14.287905 -0.5552659
5.1379437 18.309223 -0.5533219
7.1421747 25.451363 -0.54932702
11.703441 41.705578 -0.54003924
0.53970075 2.0183172 -0.55980659
0.56208038 2.1020103 -0.56368041
0.57786739 2.1610489 -0.55971509
0.60401613 2.2588372 -0.56443524
0.62621349 2.3418486 -0.5638991
0.65205806 2.4384997 -0.56510025
0.67477804 2.5234654 -0.56203449
0.70656854 2.6423523 -0.56477046
0.73577076 2.7515597 -0.56347275
0.76693982 2.8681226 -0.56174392
0.79993433 2.9915121 -0.5592944
0.84245062 3.1505101 -0.56107372
0.88709104 3.3174517 -0.56146049
0.93675804 3.5031912 -0.5619933
0.99301773 3.7135854 -0.56307113
1.0507448 3.9294672 -0.56131446
1.1199285 4.1881933 -0.56159645
1.1973538 4.4777408 -0.56129438
1.2834817 4.7998328 -0.55981159
1.3884238 5.1922846 -0.56038833
1.5130104 5.6582003 -0.56150758
1.6545899 6.187665 -0.56036979
1.8300084 6.843677 -0.56049418
2.0426025 7.6387143 -0.55952144
2.3132873 8.6509933 -0.55891329
2.6698816 9.9845486 -0.55888027
3.1479716 11.77246 -0.55742544
3.8386338 14.355328 -0.55600971
4.9179401 18.391607 -0.5539422
6.8375525 25.570375 -0.55003947
11.209032 41.918385 -0.54096913
0.5157299 2.0282862 -0.56077027
0.53091568 2.0880096 -0.55813313
0.55452424 2.1808581 -0.56303716
0.57493138 2.2611165 -0.56319565
0.59488589 2.3395944 -0.56155246
0.61819154 2.431252 -0.56161666
0.64531356 2.5379188 -0.5634436
0.6739732 2.6506326 -0.56472623
0.70054978 2.7551541 -0.56240231
0.73155856 2.8771069 -0.56169933
0.76397473 3.0045948 -0.55994165
0.80586183 3.1693301 -0.56261814
0.84988815 3.342479 -0.56388491
0.89359385 3.5143669 -0.5619809
0.94279569 3.70787 -0.56040436
1.000759 3.9358308 -0.5604232
1.0708905 4.2116475 -0.56293315
1.1390693 4.479784 -0.55975246
1.2293152 4.8347068 -0.56207347
1.3268559 5.2183199 -0.56139487
1.4413539 5.6686225 -0.56074065
1.5779152 6.2056971 -0.56020331
1.7474008 6.8722577 -0.56103271
1.9496951 7.66785 -0.55985713
2.2117484 8.6984653 -0.56018084
2.5436854 10.003922 -0.55817169
3.0067003 11.824888 -0.55811507
3.6616075 14.400537 -0.5559749
4.696939 18.472338 -0.55459225
6.5290537 25.677761 -0.5505808
10.710876 42.124226 -0.54188496
0.49266466 2.042403 -0.56295574
0.51115155 2.1190426 -0.56470561
0.52990687 2.1967952 -0.56542665
0.54472333 2.2582185 -0.56076312
0.56880438 2.3580496 -0.56426066
0.58938074 2.4433515 -0.56269497
0.61175531 2.536108 -0.56132913
0.6374709 2.6427155 -0.56132698
0.66831094 2.7705665 -0.56382823
0.69858509 2.8960719 -0.56368214
0.7327283 3.0376167 -0.56437391
0.76279598 3.162266 -0.55965674
0.80572397 3.3402295 -0.56179154
0.85274166 3.5351472 -0.56358451
0.90182149 3.7386138 -0.56333232
0.95350218 3.9528625 -0.56113648
1.0180376 4.2204022 -0.56238759
1.0897853 4.5178413 -0.56279081
1.1677619 4.8411036 -0.56110531
1.2636528 5.2386308 -0.56186587
1.3704501 5.6813726 -0.56029254
1.5018574 6.2261376 -0.56033903
1.6602316 6.8826976 -0.56017607
1.8522011 7.6785312 -0.55893189
2.1016784 8.7127705 -0.55939555
2.4237292 10.047873 -0.55891883
2.8600233 11.856585 -0.55790901
3.487623 14.458378 -0.55651015
4.4709835 18.535023 -0.55478173
6.2160697 25.769495 -0.5508672
10.213201 42.340103 -0.54300541
0.46652323 2.043961 -0.56176156
0.48358306 2.1187048 -0.56298834
0.4999212 2.1902864 -0.5621267
0.51807606 2.2698276 -0.56202143
0.53820586 2.3580217 -0.56262779
0.55892217 2.4487853 -0.56232101
0.58271658 2.5530348 -0.56344712
0.60994214 2.672317 -0.56597865
0.6304813 2.7623045 -0.56052679
0.66278809 2.9038491 -0.56356704
0.69040984 3.0248673 -0.56038547
0.72649765 3.1829774 -0.56169873
0.76515228 3.3523335 -0.56220233
0.80922121 3.5454111 -0.56359184
0.85415834 3.7422926 -0.56226152
0.90707368 3.9741285 -0.56252944
0.96412385 4.2240806 -0.56125551
1.0294223 4.5101705 -0.56021601
1.1107855 4.8666434 -0.56243992
1.1991036 5.2535887 -0.56184626
1.3032043 5.7096815 -0.56146157
1.4266812 6.2506657 -0.5609253
1.5759108 6.9044805 -0.56032938
1.7634376 7.7260842 -0.56077254
1.998559 8.7562132 -0.56056452
2.2974105 10.06556 -0.55828905
2.7171974 11.904757 -0.55856138
3.3138828 14.518993 -0.55723274
4.2444386 18.596004 -0.55500287
5.9102216 25.894238 -0.55193847
9.7108736 42.545895 -0.54407209
0.44207609 2.0528851 -0.56267762
0.45735109 2.1238182 -0.56281012
0.47631842 2.2118974 -0.56612706
0.49302718 2.2894886 -0.56534576
0.50935823 2.3653257 -0.56283355
0.52803218 2.4520426 -0.5615356
0.54585141 2.5347905 -0.55789709
0.57322878 2.6619234 -0.56224197
0.59728241 2.7736223 -0.56129062
0.62681156 2.9107478 -0.56336743
0.65547234 3.0438411 -0.56236482
0.68851972 3.1973045 -0.56269038
0.72376937 3.3609943 -0.56211978
0.76430017 3.5492089 -0.56265903
0.80773038 3.7508874 -0.5620181
0.85973763 3.9923954 -0.56357604
0.91443527 4.246397 -0.56268418
0.97490299 4.5271926 -0.560799
1.0493165 4.8727498 -0.56161195
1.1335317 5.2638226 -0.56140763
1.2307879 5.7154551 -0.56049865
1.3473108 6.256557 -0.5599249
1.4914249 6.9257851 -0.56052768
1.6663158 7.7379322 -0.56010294
1.8892829 8.7733326 -0.56013089
2.1792102 10.119678 -0.55976212
2.57147 11.94123 -0.55874681
3.1341302 14.554076 -0.55705798
4.021925 18.676762 -0.55589503
5.5949078 25.981279 -0.55228561
9.2051001 42.746063 -0.54514313
0.41785231 2.0633552 -0.56409645
0.43212935 2.1338551 -0.5640192
0.44576642 2.201195 -0.56194234
0.46189857 2.2808557 -0.56176907
0.47970152 2.3687665 -0.56220627
0.49829769 2.4605944 -0.56204832
0.51911283 2.5633795 -0.56274199
0.53879356 2.6605632 -0.56051296
0.56665182 2.7981274 -0.56479686
0.59049851 2.9158821 -0.5629133
0.6174199 3.04882 -0.56183952
0.64959365 3.2076941 -0.56307054
0.68187457 3.3670974 -0.56169569
0.72068805 3.558758 -0.56272548
0.76120597 3.7588358 -0.56176412
0.80803365 3.9900708 -0.56180286
0.86154169 4.2542939 -0.56228429
0.91922593 4.5391388 -0.5608362
0.98910081 4.8841805 -0.56148517
1.0693548 5.2804751 -0.56173879
1.1621379 5.7386379 -0.56132829
1.271525 6.2787919 -0.56047314
1.4054685 6.9402046 -0.56025362
1.5749197 7.7769551 -0.56148332
1.7814072 8.7965908 -0.56017494
2.0525372 10.135431 -0.5591951
2.4223759 11.961695 -0.55826843
2.9569681 14.60151 -0.55743968
3.7922976 18.72637 -0.55594164
5.2814541 26.079826 -0.55295813
8.6920557 42.921379 -0.54597461
0.39272258 2.0697701 -0.56448728
0.404843 2.1336484 -0.56260616
0.41763327 2.201057 -0.56055373
0.43378654 2.2861898 -0.56172663
0.44948927 2.368948 -0.56089509
0.47168487 2.4859257 -0.56646681
0.48256344 2.5432591 -0.55698013
0.50976074 2.6865976 -0.56463444
0.53209758 2.8043194 -0.56468338
0.55527073 2.9264493 -0.56359249
0.5821358 3.0680363 -0.56401896
0.61099297 3.2201226 -0.56389081
0.63961518 3.3709707 -0.56098741
0.67752784 3.5707822 -0.56326681
0.7127142 3.7562253 -0.56002188
0.75782323 3.9939637 -0.56099653
0.80800086 4.2584157 -0.56147343
0.86353892 4.5511184 -0.56096196
0.93011302 4.9019842 -0.56217462
1.0041206 5.292027 -0.56161177
1.0931185 5.7610745 -0.56216568
1.1954896 6.3006015 -0.56106538
1.321197 6.963119 -0.56074953
1.4779923 7.7894783 -0.56103289
1.6726294 8.8152761 -0.56001276
1.9297817 10.170548 -0.55978113
2.2772086 12.001596 -0.55878162
2.7823601 14.663902 -0.55847323
3.565551 18.791561 -0.55653334
4.9672384 26.178888 -0.55372161
8.182827 43.126038 -0.54725665
0.36471981 2.0601842 -0.56060743
0.37711126 2.1301794 -0.56042641
0.3909339 2.2082591 -0.56112128
0.40693519 2.2986453 -0.56351489
0.42120099 2.3792281 -0.5620603
0.44008994 2.4859257 -0.56519097
0.45427391 2.5660462 -0.56070489
0.47571504 2.6871603 -0.56348073
0.49541938 2.7984638 -0.56223506
0.51675701 2.918993 -0.56089038
0.54445106 3.075428 -0.56410444
0.570593 3.2230952 -0.56314009
0.6012429 3.3962264 -0.56391746
0.63377684 3.5800004 -0.56344903
0.66992104 3.7841673 -0.56291705
0.70916641 4.0058517 -0.56139904
0.75545686 4.2673316 -0.5613817
0.80939096 4.5719876 -0.56226504
0.86911952 4.9093747 -0.56175405
0.9392426 5.3054776 -0.56177104
1.0218153 5.7719035 -0.56195384
1.1197187 6.3249283 -0.56196308
1.2373866 6.9895964 -0.56161404
1.3811582 7.8017159 -0.56064874
1.5676315 8.8550425 -0.56127203
1.8065494 10.204613 -0.56039101
2.1305175 12.034604 -0.55905634
2.6022482 14.699259 -0.55855888
3.3355253 18.841303 -0.55674964
4.6478367 26.254126 -0.55406225
7.663836 43.290527 -0.54810673
0.34164757 2.0784223 -0.56438446
0.34899873 2.1231432 -0.55740404
0.36558887 2.2240698 -0.56395388
0.38059396 2.3153539 -0.56642091
0.39319268 2.3919983 -0.5638923
0.41043717 2.4969058 -0.56649709
0.42508599 2.5860221 -0.56388503
0.44079775 2.6816051 -0.56113684
0.45925102 2.7938659 -0.56013441
0.48420417 2.9456694 -0.56482953
0.50391436 3.0655768 -0.56111854
0.5298301 3.2232358 -0.56198388
0.55865467 3.398591 -0.56312686
0.58897471 3.5830438 -0.56274557
0.62160349 3.7815416 -0.56134701
0.65972239 4.0134392 -0.56128305
0.70446759 4.2856479 -0.5626092
0.75258434 4.5783677 -0.56186908
0.81155837 4.9371371 -0.56374627
0.87455255 5.3203645 -0.56216615
0.94993544 5.7789578 -0.56146097
1.0406183 6.3306293 -0.56129026
1.1530794 7.0147901 -0.56245655
1.2854949 7.8203435 -0.56080902
1.4577471 8.8682442 -0.56093019
1.6824222 10.235061 -0.56088459
1.9856042 12.079477 -0.55996436
2.4225583 14.7377 -0.55884546
3.1069016 18.900921 -0.55734032
4.3344383 26.368673 -0.55531287
7.1457477 43.471352 -0.54924208
0.31419858 2.0701594 -0.56104922
0.32661217 2.1519489 -0.5638696
0.33725402 2.2220645 -0.56235135
0.35120863 2.3140075 -0.56499231
0.36468503 2.4027991 -0.56533861
0.37697634 2.483783 -0.56242555
0.39292732 2.5888791 -0.56341183
0.40889892 2.6941111 -0.56265908
0.42843789 2.8228476 -0.56484592
0.44597834 2.9384165 -0.56234473
0.46794444 3.0831442 -0.56323826
0.49071121 3.2331476 -0.56261742
0.51740623 3.4090331 -0.56376022
0.54363453 3.5818434 -0.56146473
0.5746038 3.7858903 -0.56090128
0.61110187 4.0263653 -0.56199735
0.65195292 4.2955203 -0.5628103
0.69555175 4.5827799 -0.56131852
0.74860704 4.9323454 -0.56210548
0.80901212 5.3303361 -0.56212616
0.87972939 5.7962708 -0.56204951
0.96456969 6.355258 -0.56237978
1.0676043 7.034121 -0.56291139
1.1902362 7.8421063 -0.56127769
1.3494 8.8907881 -0.56126422
1.5555266 10.248894 -0.56055206
1.8371898 12.104688 -0.56004345
2.2423553 14.7742 -0.5591417
2.8768921 18.954971 -0.55784881
4.0128303 26.439323 -0.55571955
6.6230063 43.636982 -0.55026424
0.28865781 2.0734115 -0.5609262
0.30054224 2.1587765 -0.56464761
0.30826211 2.2142279 -0.55936646
0.3222121 2.31443 -0.56408542
0.33352524 2.3956914 -0.56265879
0.34576485 2.483608 -0.56138074
0.36202198 2.6003819 -0.56490362
0.37659997 2.7050946 -0.56394321
0.39390269 2.8293791 -0.56514096
0.40981489 2.9436755 -0.56234425
0.42919099 3.0828528 -0.56217837
0.44919574 3.2265458 -0.5604651
0.47711745 3.4271057 -0.56573594
0.50206298 3.606288 -0.56428605
0.5320133 3.821419 -0.56515312
0.56065691 4.0271645 -0.56110424
0.59977156 4.3081226 -0.5634526
0.64057773 4.6012306 -0.56257111
0.68931764 4.9513268 -0.56326014
0.74282449 5.3356633 -0.56168222
0.80778754 5.8022885 -0.56162745
0.88570774 6.3619847 -0.5619688
0.97966194 7.0368519 -0.56212342
1.0950968 7.8660135 -0.56198251
1.2400568 8.9072523 -0.56129849
1.4287816 10.262851 -0.56031215
1.6885905 12.129043 -0.56016725
2.0643585 14.828162 -0.56018084
2.6465826 19.010242 -0.55847543
3.6910768 26.512779 -0.55626744
6.0995111 43.812416 -0.551489
0.26486015 2.0903621 -0.56458813
0.27207682 2.1473184 -0.56073314
0.28335941 2.2363641 -0.56403577
0.29363829 2.3174884 -0.56390822
0.30608907 2.4157541 -0.56644398
0.31656969 2.4984703 -0.56381762
0.32842618 2.5920455 -0.56217289
0.34259731 2.7038889 -0.56277102
0.3571839 2.819011 -0.56215024
0.37442738 2.955102 -0.56360501
0.39013788 3.0790944 -0.56057578
0.41164902 3.2488673 -0.56342059
0.43149292 3.4054818 -0.56124806
0.45773658 3.6126051 -0.5643512
0.48112023 3.7971566 -0.56064761
0.51133138 4.0355926 -0.56136006
0.54461616 4.2982869 -0.56124789
0.58697033 4.6325598 -0.56547636
0.62664819 4.9457102 -0.56170213
0.67600107 5.3352194 -0.56071806
0.73814958 5.8257155 -0.56297386
0.80656105 6.3656406 -0.56137323
0.89359522 7.0525427 -0.56245655
0.9973377 7.8713117 -0.56144243
1.131125 8.9272041 -0.56163687
1.3048115 10.297995 -0.56131244
1.5402628 12.156252 -0.56050682
1.8812181 14.847181 -0.55998313
2.4138672 19.051022 -0.55875921
3.3689435 26.588791 -0.55695099
5.5702415 43.962147 -0.55246979
0.23857705 2.0885499 -0.56326377
0.24676044 2.1601889 -0.56325912
0.25695515 2.2494354 -0.56649274
0.26467165 2.316987 -0.56295174
0.27364194 2.3955147 -0.56086689
0.28535804 2.4980798 -0.56289512
0.2972914 2.6025469 -0.56361496
0.30910549 2.7059696 -0.56237054
0.32161051 2.8154411 -0.56060737
0.33783224 2.9574492 -0.56321782
0.3530035 3.0902612 -0.5617761
0.37010586 3.2399788 -0.56104743
0.39112639 3.4239967 -0.56346416
0.41238558 3.6101036 -0.56312567
0.43542093 3.8117595 -0.56197071
0.46381608 4.0603361 -0.56396598
0.4935073 4.3202586 -0.56328189
0.52909416 4.6317935 -0.56454599
0.56907654 4.9818068 -0.56496435
0.61115968 5.3502107 -0.56146133
0.66510576 5.8224654 -0.561827
0.72770399 6.3704624 -0.56096697
0.80741751 7.0682902 -0.56287807
0.90091854 7.886816 -0.56171566
1.0222825 8.9492607 -0.56219113
1.1791564 10.322565 -0.5618189
1.390447 12.172244 -0.56041348
1.6981122 14.865605 -0.55984819
2.1829884 19.110306 -0.55966842
3.0458992 26.664394 -0.55770797
5.0394073 44.115952 -0.55358207
0.21260881 2.0886695 -0.56254846
0.22141416 2.1751733 -0.56641352
0.22774114 2.2373297 -0.56269628
0.23646997 2.3230815 -0.56368345
0.24506316 2.4075012 -0.56292522
0.2554388 2.5094316 -0.56470263
0.26595721 2.6127644 -0.56507677
0.27583447 2.7097986 -0.56241888
0.28768528 2.826221 -0.56200695
0.30246264 2.9713938 -0.56512237
0.31484693 3.0930569 -0.5615381
0.33076701 3.2494562 -0.5619418
0.35027102 3.4410634 -0.56552118
0.36865678 3.6216853 -0.56418252
0.38925284 3.8240211 -0.56303018
0.41448522 4.0719042 -0.56482208
0.43940711 4.3167367 -0.56207573
0.47090077 4.6261306 -0.56310743
0.50647223 4.9755845 -0.56350982
0.54607183 5.3646111 -0.5622254
0.59471387 5.8424706 -0.56300914
0.65243292 6.409503 -0.56365567
0.71991938 7.0724897 -0.56246501
0.80346578 7.89325 -0.56142783
0.91177243 8.9572554 -0.56194657
1.0516728 10.331636 -0.56156635
1.2424173 12.205511 -0.56119931
1.5162541 14.895684 -0.56023645
1.9491193 19.148155 -0.56003261
2.720403 26.725246 -0.55823886
4.5048652 44.25581 -0.5546
0.18586537 2.079423 -0.55940014
0.19381797 2.168395 -0.56398517
0.19969133 2.2341049 -0.56122524
0.20845158 2.3321128 -0.5652101
