# .PCD v0.7 - Point Cloud Data file format
VERSION 0.7
FIELDS x y z
SIZE 4 4 4
TYPE F F F
COUNT 1 1 1
WIDTH 1464
HEIGHT 1
VIEWPOINT 0 0 0 1 0 0 0
POINTS 1464
DATA ascii
-1.1243372 2.3908746 -0.56847245
-1.1682705 2.4842978 -0.56685495
-1.2176102 2.5892174 -0.56604314
-1.2744347 2.710053 -0.56663781
-1.335062 2.8389757 -0.56662846
-1.4003295 2.9777653 -0.56613052
-1.4700879 3.1261048 -0.56481367
-1.5556691 3.3080909 -0.56654155
-1.648351 3.5051768 -0.56737053
-1.7560235 3.7341397 -0.56944281
-1.8636248 3.9629509 -0.56728774
-1.991918 4.2357631 -0.56682694
-2.1505733 4.5731397 -0.56939971
-2.3201005 4.9336352 -0.56844002
-2.5286293 5.3770666 -0.5696522
-2.7659128 5.8816433 -0.56863511
-3.0662158 6.5202303 -0.57007444
-3.4299121 7.2936215 -0.57033068
-3.9049621 8.3038034 -0.57272029
-4.5104613 9.591382 -0.57313716
-5.3540816 11.38532 -0.57550859
-6.5759268 13.983542 -0.5781939
-8.5175571 18.11237 -0.58238089
-12.076163 25.679657 -0.58970255
-20.773195 44.173676 -0.60858124
-0.91863549 1.8926694 -0.5637179
-0.95446455 1.9664882 -0.56627578
-0.97674835 2.0123997 -0.55969983
-1.0241481 2.1100576 -0.56618977
-1.0685725 2.2015855 -0.56926781
-1.1016754 2.2697873 -0.56484139
-1.146513 2.3621666 -0.56495601
-1.2042319 2.4810851 -0.56945759
-1.2492461 2.5738282 -0.56599426
-1.3075564 2.6939652 -0.56659293
-1.3710005 2.8246796 -0.56709701
-1.433955 2.9543848 -0.56499505
-1.5161691 3.123771 -0.56771755
-1.5983633 3.2931161 -0.56730008
-1.6927209 3.4875216 -0.56783903
-1.7961981 3.7007165 -0.56767118
-1.9155357 3.946588 -0.5682742
-2.0471835 4.217823 -0.56775194
-2.2027659 4.5383697 -0.56840008
-2.3800244 4.9035769 -0.56830579
-2.5926766 5.3417048 -0.56924039
-2.847425 5.8665643 -0.57051921
-3.1470106 6.4838023 -0.57022971
-3.5280204 7.2687988 -0.57173872
-4.0064654 8.2545414 -0.57267725
-4.6380229 9.5557423 -0.57437199
-5.4936419 11.318579 -0.57550609
-6.7450585 13.896879 -0.57799631
-8.7466879 18.020847 -0.58285224
-12.408552 25.565405 -0.59053808
-21.356018 43.999916 -0.60975915
-0.94634211 1.8902289 -0.56641412
-0.98117954 1.9598134 -0.56778502
-1.0113623 2.0201006 -0.56525779
-1.0552802 2.1078224 -0.56902885
-1.0819283 2.1610496 -0.56218386
-1.1327876 2.2626359 -0.56648523
-1.1822643 2.3614612 -0.56822127
-1.2262986 2.4494154 -0.56560707
-1.2819827 2.5606391 -0.56651765
-1.3380747 2.6726778 -0.56553352
-1.4038265 2.8040109 -0.56637025
-1.4758345 2.94784 -0.56717104
-1.5504252 3.0968275 -0.56624281
-1.6401929 3.2761302 -0.56780541
-1.7439128 3.4833009 -0.57060015
-1.8385824 3.6723943 -0.56675184
-1.9640377 3.9229796 -0.56830931
-2.1005104 4.1955709 -0.56819046
-2.2564588 4.5070629 -0.56791127
-2.4393742 4.8724194 -0.56812817
-2.6614377 5.3159699 -0.56994236
-2.9138932 5.8202262 -0.56945431
-3.2345767 6.4607611 -0.57165807
-3.6169465 7.2245088 -0.57171011
-4.1114874 8.212307 -0.57321125
-4.7569194 9.5014963 -0.57458389
-5.634572 11.254524 -0.5757286
-6.9339428 13.849895 -0.5795446
-8.9787588 17.934221 -0.58357733
-12.740447 25.447838 -0.59139645
-21.94953 43.84211 -0.61126637
-0.9672783 1.8741225 -0.56510913
-1.0007114 1.9389 -0.56524837
-1.0364043 2.0080554 -0.56541061
-1.0750337 2.0829008 -0.56582689
-1.1227027 2.1752608 -0.56942916
-1.1564889 2.2407219 -0.56451643
-1.2056735 2.3360183 -0.5656237
-1.2550519 2.4316897 -0.56503487
-1.3158572 2.5495017 -0.56759042
-1.3732115 2.6606269 -0.56651372
-1.4288614 2.7684495 -0.56269377
-1.5144738 2.9343255 -0.56811094
-1.59469 3.089746 -0.56849045
-1.6794564 3.2539828 -0.56750321
-1.7809218 3.4505742 -0.56878352
-1.8895822 3.6611059 -0.56855255
-2.0076423 3.8898499 -0.56704336
-2.1467407 4.1593561 -0.566818
-2.3221359 4.4991879 -0.57047379
-2.501802 4.8472948 -0.56874269
-2.7274587 5.2845097 -0.570122
-2.9891152 5.7914748 -0.5701943
-3.308166 6.4096427 -0.57069123
-3.7043486 7.1772547 -0.57153207
-4.2150841 8.1668158 -0.57361042
-4.8707309 9.4371452 -0.57427084
-5.7771406 11.193335 -0.5761888
-7.1018677 13.760021 -0.57939428
-9.1987743 17.822823 -0.58358896
-13.061913 25.307735 -0.59182841
-22.528851 43.650131 -0.61240584
-0.98851657 1.8588308 -0.56412077
-1.0197282 1.9175217 -0.56262892
-1.0579363 1.9893693 -0.5637694
-1.1007233 2.0698271 -0.56590939
-1.1408169 2.14522 -0.56519473
-1.1869912 2.2320473 -0.56596535
-1.2384979 2.3289015 -0.56754512
-1.2831678 2.4129002 -0.56429249
-1.3415124 2.5226128 -0.56523395
-1.4032785 2.6387591 -0.56548893
-1.4758544 2.7752328 -0.56771815
-1.5506107 2.9158063 -0.56817406
-1.6294411 3.0640411 -0.56740463
-1.723521 3.2409511 -0.5688836
-1.817337 3.4173648 -0.56695008
-1.9354712 3.6395073 -0.56885135
-2.0598829 3.8734541 -0.56830269
-2.2028193 4.1422353 -0.56813323
-2.3783851 4.4723735 -0.57073891
-2.5649099 4.8231196 -0.56956369
-2.7939403 5.2537937 -0.57047153
-3.0662374 5.7658281 -0.57133824
-3.3870337 6.369061 -0.57074308
-3.7941544 7.1346207 -0.57180899
-4.3102298 8.1050615 -0.57295227
-4.9875302 9.3786745 -0.57440132
-5.9232368 11.1382 -0.57705629
-7.270103 13.670879 -0.5793612
-9.4263935 17.72562 -0.58415741
-13.394717 25.187754 -0.59282953
-23.12038 43.476131 -0.61390692
-1.0138851 1.8512613 -0.56556433
-1.0480276 1.9136024 -0.56521744
-1.0903585 1.9908947 -0.56795835
-1.1243415 2.0529444 -0.56503081
-1.1668802 2.1306162 -0.56508476
-1.2185051 2.2248785 -0.56790394
-1.2608649 2.3022237 -0.5647794
-1.3211523 2.412303 -0.56790912
-1.3739461 2.5086994 -0.5658592
-1.4347713 2.6197608 -0.56515568
-1.5214602 2.7780468 -0.57207769
-1.5850512 2.8941581 -0.5677107
-1.6636455 3.0376639 -0.56626552
-1.7653373 3.2233441 -0.56956029
-1.8652018 3.4056873 -0.56877482
-1.9773282 3.6104198 -0.56806237
-2.1102092 3.8530486 -0.56907284
-2.2608805 4.1281605 -0.56997275
-2.4287121 4.4346056 -0.56968725
-2.6197245 4.7833767 -0.56863153
-2.8585949 5.2195325 -0.57052499
-3.1358454 5.7257662 -0.57114619
-3.4722478 6.3400064 -0.5719223
-3.8825874 7.0892487 -0.57195574
-4.4078698 8.0483665 -0.57273263
-5.1041541 9.3197165 -0.57459098
-6.0553513 11.056517 -0.57663846
-7.448967 13.60113 -0.58024317
-9.6507416 17.621368 -0.58458835
-13.718597 25.048901 -0.59348691
-23.702286 43.278198 -0.61518097
-1.042359 1.8489223 -0.56872249
-1.0696239 1.8972844 -0.56423986
-1.1101756 1.9692142 -0.56562501
-1.1494402 2.0388613 -0.56500214
-1.1981288 2.1252246 -0.56751931
-1.2410436 2.2013462 -0.56574976
-1.2956736 2.2982481 -0.56766969
-1.3495972 2.3938971 -0.56743997
-1.4100955 2.5012081 -0.56803751
-1.4756647 2.6175139 -0.56854248
-1.5419041 2.7350082 -0.56707639
-1.6149533 2.8645821 -0.56576169
-1.7054366 3.0250802 -0.56778604
-1.798012 3.1892891 -0.56740659
-1.9005063 3.3710918 -0.56685716
-2.0149748 3.5741348 -0.56620884
-2.1512508 3.8158596 -0.56744426
-2.3174434 4.1106491 -0.57144624
-2.4798329 4.3986936 -0.56894815
-2.6824899 4.7581639 -0.56951243
-2.9242585 5.1870098 -0.57085735
-3.2068505 5.6882677 -0.57129598
-3.5458972 6.2896643 -0.57127112
-3.9719841 7.0454512 -0.57231939
-4.511416 8.0022879 -0.573358
-5.218133 9.2558537 -0.57456613
-6.204577 11.005594 -0.57791799
-7.611474 13.501129 -0.57992601
-9.8858328 17.535355 -0.58572334
-14.043824 24.910744 -0.59426016
-24.288836 43.083206 -0.61660808
-1.0572807 1.8226352 -0.56459302
-1.0966058 1.8904274 -0.56616795
-1.1345536 1.955845 -0.56574941
-1.179794 2.0338347 -0.56758648
-1.225021 2.1118009 -0.56791419
-1.2687535 2.187191 -0.56607854
-1.3260053 2.2858868 -0.56860083
-1.3763862 2.3727379 -0.56639344
-1.4415655 2.4850998 -0.568362
-1.5001588 2.586108 -0.56568485
-1.5743717 2.7140431 -0.56670052
-1.6572164 2.8568583 -0.56821793
-1.7358968 2.9924943 -0.56563354
-1.8374091 3.1674905 -0.56750512
-1.9437672 3.3508401 -0.56742793
-2.0623856 3.5553248 -0.56720364
-2.2030315 3.7977831 -0.56874162
-2.3557651 4.061079 -0.5685392
-2.5336225 4.3676853 -0.56892407
-2.741694 4.7263775 -0.5697
-2.9843872 5.1447539 -0.57020253
-3.2760756 5.6475925 -0.57121354
-3.6231625 6.2459321 -0.57130235
-4.0618234 7.0021353 -0.57281464
-4.6142397 7.9544396 -0.57395154
-5.3333359 9.1940823 -0.57475919
-6.3352199 10.92122 -0.57753444
-7.7897768 13.428716 -0.58088607
-10.101646 17.414124 -0.58577871
-14.360061 24.755159 -0.59471601
-24.859978 42.855854 -0.61768258
-1.0798306 1.8098657 -0.56470788
-1.1167821 1.8717985 -0.56465888
-1.1522747 1.9312865 -0.56270152
-1.2048548 2.0194142 -0.56765383
-1.2470149 2.0900772 -0.56615299
-1.2933034 2.1676598 -0.5650968
-1.3461689 2.2562656 -0.5653075
-1.4027941 2.3511732 -0.56532055
-1.4767693 2.4751604 -0.57019877
-1.5288159 2.5623937 -0.56456697
-1.6066539 2.6928554 -0.5663588
-1.6953379 2.8414955 -0.5692656
-1.7744447 2.9740834 -0.56623501
-1.8709849 3.135891 -0.5659228
-1.9854738 3.3277817 -0.56761461
-2.1047049 3.5276208 -0.56686985
-2.2527316 3.775723 -0.56954324
-2.4048378 4.0306625 -0.56837791
-2.5921021 4.3445296 -0.57001656
-2.8068497 4.7044606 -0.57117522
-3.0562861 5.1225319 -0.57186162
-3.3442903 5.6052456 -0.57104653
-3.7008564 6.2028732 -0.57148314
-4.1449752 6.9472446 -0.57245058
-4.7120123 7.8976359 -0.57399023
-5.455914 9.1444626 -0.57580769
-6.4779243 10.857417 -0.57832909
-7.9642439 13.348585 -0.58161217
-10.326567 17.307989 -0.58643562
-14.689012 24.619728 -0.59575671
-25.440845 42.640495 -0.61904061
-1.106607 1.8039582 -0.5670675
-1.1466478 1.8692315 -0.56809497
-1.1841447 1.9303578 -0.56663054
-1.2240838 1.9954654 -0.56511015
-1.2745177 2.0776811 -0.56699759
-1.3193257 2.1507258 -0.56486881
-1.3694321 2.2324078 -0.56350642
-1.4299066 2.3309915 -0.56465304
-1.4985524 2.4428959 -0.5669682
-1.5664948 2.5536537 -0.5668425
-1.6428554 2.6781344 -0.56746858
-1.7281461 2.8171728 -0.56860709
-1.8193983 2.9659295 -0.56889898
-1.9230132 3.1348395 -0.56995726
-2.0311995 3.3112016 -0.56900382
-2.1564415 3.5153673 -0.56911886
-2.296515 3.743711 -0.5689311
-2.4580615 4.0070591 -0.56926864
-2.6427763 4.308176 -0.56946748
-2.8608899 4.6637383 -0.57045913
-3.1082852 5.0670352 -0.5698899
-3.4067092 5.5535169 -0.57000118
-3.7803867 6.1626749 -0.57201916
-4.2382059 6.9089985 -0.57354999
-4.8101354 7.841341 -0.57415414
-5.5701756 9.0803366 -0.5760392
-6.6033416 10.764573 -0.57766503
-8.1286068 13.251016 -0.58167201
-10.545961 17.191715 -0.58684546
-15.012651 24.473181 -0.59663248
-26.022476 42.421074 -0.62045366
-1.1262896 1.786386 -0.56585449
-1.1735491 1.8613434 -0.57004023
-1.2129077 1.9237692 -0.56903148
-1.2474971 1.9786308 -0.56464416
-1.300509 2.062712 -0.56723374
-1.3572872 2.1527669 -0.56974524
-1.403281 2.2257166 -0.56613022
-1.4683405 2.3289063 -0.56847864
-1.5268071 2.421639 -0.56634915
-1.5954592 2.5305266 -0.56602097
-1.6782354 2.6618166 -0.5683406
-1.7613096 2.7935789 -0.56817341
-1.8494774 2.9334202 -0.56698263
-1.9575044 3.1047597 -0.56882167
-2.0634141 3.2727408 -0.5667119
-2.196393 3.4836562 -0.56831443
-2.3449152 3.7192245 -0.56954873
-2.5140238 3.9874442 -0.57083064
-2.7023568 4.2861557 -0.57090598
-2.9212084 4.6332717 -0.57108301
-3.174017 5.0342464 -0.57054865
-3.4760332 5.5132685 -0.57021409
-3.85589 6.1157522 -0.57202148
-4.3152127 6.844275 -0.57253861
-4.9117084 7.7903652 -0.57480055
-5.6850314 9.0169182 -0.57640713
-6.7440014 10.696529 -0.57842004
-8.2912188 13.15054 -0.58169287
-10.760198 17.06654 -0.58704466
-15.321229 24.300703 -0.59697545
-26.590052 42.173965 -0.62157464
-1.1507292 1.7763548 -0.5671162
-1.1921691 1.8403245 -0.56804973
-1.2300961 1.8988715 -0.56609827
-1.2640465 1.9512802 -0.56123227
-1.3303177 2.0535815 -0.56917828
-1.3679538 2.1116793 -0.56328034
-1.4363027 2.2171879 -0.56841028
-1.494895 2.3076358 -0.56773061
-1.5559406 2.4018705 -0.56615764
-1.6297709 2.5158405 -0.56717569
-1.7070441 2.6351254 -0.56708062
-1.7842548 2.7543139 -0.56460702
-1.8863062 2.9118483 -0.56725347
-1.9913088 3.0739386 -0.56761813
-2.1093509 3.2561572 -0.56828868
-2.244189 3.4643037 -0.5696162
-2.3841448 3.6803505 -0.56804222
-2.5566986 3.9467177 -0.56945789
-2.7529044 4.2495966 -0.5705021
-2.9769289 4.595418 -0.57088608
-3.2376461 4.9978814 -0.57089609
-3.5471976 5.475729 -0.57079959
-3.9309118 6.0680599 -0.57203847
-4.4019451 6.7951837 -0.57291663
-4.9982958 7.7157564 -0.57378709
-5.7941833 8.9443502 -0.57627916
-6.8816624 10.623067 -0.57897955
-8.4514608 13.046329 -0.58163619
-10.979058 16.948124 -0.58757085
-15.649085 24.157139 -0.59813058
-27.165504 41.934776 -0.62292546
-1.1715447 1.7606608 -0.56666213
-1.2118316 1.8212061 -0.56670517
-1.2537357 1.8841817 -0.56627214
-1.2982783 1.9511229 -0.56573594
-1.3483489 2.0263717 -0.56618923
-1.4082204 2.1163499 -0.56910217
-1.4572347 2.1900113 -0.56599402
-1.5251064 2.2920125 -0.56845772
-1.5850325 2.3820724 -0.56604236
-1.6559706 2.4886823 -0.56560087
-1.7403786 2.615535 -0.56742728
-1.8227062 2.7392616 -0.56607312
-1.9194673 2.8846793 -0.56651592
-2.0272663 3.0466855 -0.56714594
-2.1497946 3.2308276 -0.56843859
-2.2844479 3.4331918 -0.56907636
-2.4240937 3.643059 -0.56684434
-2.6064174 3.9170649 -0.56976068
-2.8011229 4.2096791 -0.5697242
-3.0321069 4.5568142 -0.57067901
-3.3042669 4.9658313 -0.57183301
-3.6163414 5.4348335 -0.57112885
-4.0043592 6.0179682 -0.57191491
-4.4941268 6.7540169 -0.57406169
-5.1109233 7.6809726 -0.57583046
-5.9034724 8.8720579 -0.57625496
-7.0144715 10.541727 -0.57920361
-8.6281233 12.96681 -0.58277696
-11.19046 16.817629 -0.58777285
-15.951709 23.973091 -0.59838504
-27.73567 41.682667 -0.62419951
-1.193284 1.7463858 -0.56674749
-1.2327416 1.8041323 -0.56606638
-1.2745893 1.8653769 -0.56528813
-1.3188043 1.9300863 -0.56429571
-1.3767323 2.0148644 -0.56766129
-1.4313772 2.0948381 -0.56800753
-1.4914137 2.1827021 -0.5688017
-1.5546008 2.2751772 -0.56898046
-1.6113718 2.3582623 -0.56505007
-1.6837664 2.4642127 -0.56470251
-1.7760973 2.59934 -0.56860888
-1.8662784 2.7313213 -0.56913161
-1.9581307 2.8657482 -0.56748378
-2.0664222 3.0242341 -0.56765378
-2.1956573 3.213371 -0.57007438
-2.3298771 3.4098036 -0.56990534
-2.4778626 3.6263824 -0.56894732
-2.6524208 3.8818502 -0.56933957
-2.8564842 4.1804996 -0.57048571
-3.0784812 4.5053949 -0.56893712
-3.3603623 4.9179311 -0.57103217
-3.6810441 5.3872533 -0.57084227
-4.0850778 5.9785614 -0.57290041
-4.5723214 6.691648 -0.57349598
-5.1936569 7.6009808 -0.57457787
-6.0119619 8.7985792 -0.57624042
-7.1443992 10.455915 -0.57927185
-8.7922039 12.867497 -0.58312839
-11.415166 16.706234 -0.58874089
-16.263962 23.802507 -0.59907371
-28.306505 41.426914 -0.62553471
-1.2157481 1.7331234 -0.5672521
-1.2576662 1.7928804 -0.56734532
-1.300001 1.8532311 -0.56640887
-1.3449621 1.9173259 -0.56535751
-1.3999978 1.9957827 -0.56709248
-1.4596574 2.0808311 -0.56903327
-1.5175469 2.1633561 -0.56858009
-1.5783446 2.2500269 -0.56750149
-1.6446917 2.3446088 -0.56658155
-1.7258017 2.4602361 -0.56861132
-1.8064399 2.5751908 -0.56814229
-1.894678 2.7009797 -0.56762093
-2.0018339 2.8537369 -0.56993663
-2.1102505 3.0082915 -0.56948882
-2.2338085 3.1844308 -0.5697701
-2.368784 3.3768466 -0.56922227
-2.5216811 3.5948107 -0.56881589
-2.6997068 3.8485978 -0.56928837
-2.9029257 4.1382985 -0.56955492
-3.1421826 4.4793739 -0.57048726
-3.4204607 4.8760762 -0.57101279
-3.7489507 5.3443594 -0.57113868
-4.1535144 5.9210896 -0.57224399
-4.6613927 6.6451006 -0.57437569
-5.2900162 7.5412421 -0.57493585
-6.1205487 8.7252169 -0.57632124
-7.2774053 10.374388 -0.57966894
-8.9547215 12.765505 -0.58345222
-11.630782 16.580393 -0.58930159
-16.576828 23.631283 -0.59984916
-28.870054 41.156033 -0.62675744
-1.234851 1.7151066 -0.56628221
-1.2872251 1.78785 -0.57071912
-1.3196423 1.8328749 -0.56510413
-1.3767776 1.9122311 -0.5688042
-1.4152598 1.9656799 -0.56344116
-1.4736571 2.0467889 -0.56463665
-1.5397022 2.13852 -0.56698573
-1.6043637 2.2283297 -0.56696188
-1.6740098 2.3250623 -0.56678945
-1.7561487 2.4391465 -0.568685
-1.838917 2.5541048 -0.56843609
-1.9316913 2.6829607 -0.56878299
-2.0282238 2.8170364 -0.56754494
-2.1343613 2.9644527 -0.5661155
-2.2712486 3.1545777 -0.56938273
-2.403414 3.3381448 -0.56763726
-2.5670803 3.565464 -0.56912398
-2.7534652 3.8243372 -0.57066488
-2.9664755 4.1201911 -0.5720399
-3.200691 4.4454975 -0.57114208
-3.484935 4.8402886 -0.57179689
-3.8214316 5.3076549 -0.5721947
-4.22997 5.8750815 -0.57278109
-4.7396221 6.5829463 -0.5739975
-5.3955679 7.4940014 -0.57634884
-6.2333827 8.6576576 -0.57687795
-7.4107666 10.292947 -0.58016628
-9.1112089 12.654722 -0.5834654
-11.842211 16.447859 -0.58972204
-16.890158 23.459044 -0.6007036
-29.431622 40.878109 -0.62798887
-1.2551955 1.6989138 -0.56598902
-1.3031188 1.7637782 -0.56810707
-1.3455335 1.8211867 -0.56655878
-1.392774 1.8851269 -0.5657934
-1.4505023 1.9632626 -0.56781787
-1.5005436 2.0309937 -0.56532663
-1.5595945 2.1109195 -0.56470978
-1.6342908 2.2120214 -0.56788272
-1.6998334 2.3007336 -0.56591129
-1.7781596 2.4067485 -0.56618643
-1.8703638 2.5315473 -0.56849128
-1.9579735 2.6501274 -0.56688362
-2.068635 2.7999084 -0.5691759
-2.184804 2.9571435 -0.56980699
-2.3102114 3.1268833 -0.56946832
-2.4576905 3.3264971 -0.57075244
-2.6145937 3.5388663 -0.56996721
-2.7940044 3.7816997 -0.56938612
-3.006139 4.0688252 -0.56999737
-3.2513707 4.4007473 -0.57048613
-3.5390821 4.7901664 -0.57097352
-3.895963 5.2732062 -0.57360214
-4.305439 5.8274341 -0.57325393
-4.827157 6.5335827 -0.57482535
-5.4771256 7.4133186 -0.57527989
-6.3459015 8.5892115 -0.57747304
-7.5339608 10.197256 -0.57995051
-9.2729502 12.550987 -0.58389568
-12.053925 16.31505 -0.59022999
-17.200916 23.281532 -0.6015287
-29.987408 40.588112 -0.62915105
-1.2772344 1.6849942 -0.56654114
-1.3189067 1.7399702 -0.56561953
-1.3681041 1.8048741 -0.56667471
-1.412552 1.863512 -0.56447655
-1.4747527 1.9455705 -0.5679028
-1.5389715 2.0302913 -0.57035553
-1.6008508 2.1119256 -0.57020193
-1.6487162 2.1750722 -0.56355906
-1.7249857 2.275691 -0.56492621
-1.8222417 2.403996 -0.57076705
-1.9004838 2.5072172 -0.5682326
-1.9957354 2.6328778 -0.56840026
-2.107789 2.780705 -0.57049781
-2.214808 2.9218898 -0.56821877
-2.3455491 3.0943704 -0.56875676
-2.4888546 3.2834268 -0.56857049
-2.6530232 3.5000062 -0.56891966
-2.8428168 3.750392 -0.56989247
-3.0580037 4.0342774 -0.5703823
-3.3079581 4.3640308 -0.57095629
-3.6044807 4.7552185 -0.57204771
-3.9570365 5.2203283 -0.57309973
-4.3767014 5.773972 -0.57324564
-4.9082589 6.4752307 -0.57495803
-5.5704594 7.3488398 -0.57554823
-6.4619761 8.5249758 -0.57845283
-7.661025 10.106823 -0.5801211
-9.4347982 12.446877 -0.5844053
-12.264161 16.17952 -0.59073794
-17.4932 23.07794 -0.60178065
-30.543322 40.294338 -0.63037139
-1.2956225 1.6662903 -0.56556624
-1.3317107 1.712703 -0.5620364
-1.3917127 1.7898711 -0.56729436
-1.4447975 1.8581431 -0.56818873
-1.5001185 1.929291 -0.56849229
-1.5534825 1.9979222 -0.56658572
-1.6120754 2.073278 -0.56507665
-1.6865653 2.1690788 -0.56733668
-1.7617451 2.2657671 -0.56779754
-1.8470029 2.3754163 -0.56933081
-1.9321458 2.4849181 -0.56852037
-2.0254073 2.6048608 -0.56768554
-2.139277 2.7513077 -0.56982046
-2.2581241 2.9041562 -0.57012689
-2.3818188 3.0632389 -0.56837499
-2.5249085 3.2472658 -0.56764215
-2.6933041 3.4638379 -0.56838089
-2.9007921 3.7306867 -0.57227504
-3.1053581 3.9937775 -0.57001185
-3.3656235 4.3285027 -0.57167941
-3.6542461 4.699698 -0.5707311
-4.010076 5.1573281 -0.57155353
-4.4462266 5.7182579 -0.5730989
-4.9953847 6.4245262 -0.57586652
-5.6627598 7.2828326 -0.57578856
-6.5654287 8.4437475 -0.57837546
-7.7967081 10.027287 -0.58101487
-9.5907297 12.334564 -0.58462495
-12.462386 16.027781 -0.59074819
-17.798038 22.889921 -0.60253918
-31.107817 40.007526 -0.6318208
-1.3157809 1.6499435 -0.5654667
-1.3670384 1.7142186 -0.56800705
-1.4086632 1.7664145 -0.56530714
-1.4588621 1.8293623 -0.56483072
-1.5247782 1.9120189 -0.56888455
-1.5806749 1.9821113 -0.5675711
-1.646372 2.0644932 -0.56815708
-1.7037215 2.1364076 -0.56422818
-1.7813803 2.233789 -0.56523043
-1.8743917 2.3504219 -0.56882143
-1.9664871 2.4659064 -0.56965995
-2.057647 2.5802178 -0.56778622
-2.1664007 2.7165909 -0.56810457
-2.289705 2.8712103 -0.56914335
-2.4225857 3.037838 -0.56914622
-2.5844374 3.2407947 -0.57202291
-2.7438304 3.4406679 -0.57007211
-2.9401801 3.6868837 -0.57105851
-3.1568985 3.9586408 -0.57049423
-3.4194303 4.2878466 -0.57181984
-3.7180448 4.6622987 -0.57169819
-4.0838804 5.1210442 -0.57305437
-4.5228381 5.6714816 -0.57394135
-5.0720091 6.3601227 -0.5756405
-5.7607598 7.2237926 -0.57667768
-6.6696362 8.363492 -0.57845205
-7.9279494 9.9413729 -0.58164138
-9.7504406 12.226714 -0.58515167
-12.678862 15.898851 -0.59169775
-18.097544 22.693689 -0.60318595
-31.661554 39.702488 -0.63310409
-1.3450553 1.6447521 -0.56931287
-1.3773203 1.6842062 -0.56363165
-1.4419416 1.763226 -0.56991804
-1.4950989 1.8282276 -0.57011366
-1.5481145 1.8930558 -0.56886333
-1.6083834 1.9667534 -0.56879359
-1.665996 2.0372026 -0.56624162
-1.7420208 2.130167 -0.56819433
-1.8123562 2.2161741 -0.56636947
-1.8930067 2.3147945 -0.56578982
-1.9864725 2.429086 -0.56675392
-2.0913579 2.5573413 -0.56836814
-2.2079093 2.699862 -0.57024062
-2.3275466 2.8461559 -0.56980717
-2.459336 3.0073099 -0.56904936
-2.6126416 3.1947742 -0.56952745
-2.7820849 3.4019716 -0.56928575
-2.9880717 3.6538551 -0.57159054
-3.2011774 3.9144437 -0.56975454
-3.4571674 4.2274718 -0.56939453
-3.7743137 4.6152825 -0.57158077
-4.1509657 5.0758576 -0.57366627
-4.5859566 5.6077704 -0.57315725
-5.1485343 6.2956982 -0.57549602
-5.8447642 7.1470585 -0.57624578
-6.7738094 8.2831068 -0.57860953
-8.0486736 9.8420296 -0.58157557
-9.9111223 12.119457 -0.58580685
-12.872303 15.74043 -0.59164792
-18.396421 22.495396 -0.60388237
-32.198063 39.372234 -0.63410324
-1.3618762 1.6241534 -0.56793642
-1.3986981 1.6680666 -0.56394356
-1.4480357 1.7269061 -0.56389117
-1.5049615 1.7947948 -0.56541604
-1.5564545 1.8562046 -0.5634982
-1.6136463 1.9244107 -0.56224382
-1.6949756 2.0214028 -0.56760025
-1.7648417 2.1047242 -0.56715339
-1.8391304 2.1933198 -0.56626546
-1.9180421 2.2874286 -0.56482297
-2.0231009 2.4127202 -0.5686968
-2.1177483 2.5255952 -0.56705731
-2.2347169 2.6650903 -0.56865734
-2.3651443 2.820636 -0.57047743
-2.4918571 2.9717519 -0.56807607
-2.6535397 3.1645722 -0.56991708
-2.8244255 3.3683681 -0.56943125
-3.0301082 3.6136622 -0.57108855
-3.2479088 3.8734081 -0.56955171
-3.5223503 4.2007031 -0.57157958
-3.8412054 4.580965 -0.57313693
-4.2046623 5.0144181 -0.57252252
-4.6589322 5.5561738 -0.5736956
-5.2122469 6.2160482 -0.57403046
-5.9406619 7.0847454 -0.57706779
-6.8772922 8.2017574 -0.57879049
-8.1599255 9.7314062 -0.58092397
-10.063152 12.001167 -0.58602601
-13.082997 15.602589 -0.59246892
-18.690077 22.289511 -0.60447925
-32.757298 39.065868 -0.63560832
-1.3775762 1.6024386 -0.56622374
-1.4302088 1.6636626 -0.56835735
-1.4763992 1.7173924 -0.56666982
-1.5308559 1.7807381 -0.5668751
-1.5883777 1.8476493 -0.56678748
-1.6522502 1.9219477 -0.5674172
-1.718781 1.9993384 -0.56729639
-1.7984275 2.0919855 -0.56963682
-1.8726311 2.1783016 -0.56829005
-1.9569991 2.2764409 -0.56800896
-2.0448253 2.378603 -0.56653893
-2.1594279 2.5119123 -0.56990397
-2.2619092 2.6311216 -0.56730115
-2.3903546 2.7805333 -0.56826842
-2.5357277 2.9496355 -0.56976569
-2.6861815 3.1246481 -0.5686326
-2.8746052 3.3438282 -0.57121515
-3.0792069 3.5818272 -0.571998
-3.30336 3.8425689 -0.57094663
-3.5739176 4.15729 -0.57160896
-3.8882465 4.5229268 -0.57181424
-4.2739201 4.9715543 -0.57358557
-4.7441354 5.5185227 -0.5757879
-5.3055534 6.1715813 -0.57590526
-6.0227408 7.0058355 -0.57662904
-6.9849954 8.1251593 -0.57940245
-8.2943964 9.6482944 -0.58200699
-10.212851 11.879899 -0.58619237
-13.27762 15.444932 -0.59263718
-18.991478 22.091465 -0.60539573
-33.283604 38.716499 -0.63653481
-1.3946575 1.5825229 -0.56520349
-1.4519114 1.6474891 -0.56888825
-1.4992044 1.7011527 -0.56735128
-1.548943 1.7575912 -0.56552702
-1.6130103 1.8302886 -0.56750339
-1.6653665 1.8896974 -0.56389904
-1.7448447 1.9798815 -0.56782049
-1.8202596 2.0654552 -0.56846446
-1.898586 2.1543324 -0.5680846
-1.9808482 2.2476754 -0.56686628
-2.0685351 2.3471742 -0.56506878
-2.1869597 2.4815512 -0.5690738
-2.2959483 2.6052208 -0.56776083
-2.4180093 2.7437236 -0.56677926
-2.5702038 2.9164193 -0.56941128
-2.7284546 3.0959871 -0.56947935
-2.9080944 3.2998252 -0.56976384
-3.1067922 3.5252883 -0.56902677
-3.3551593 3.8071113 -0.57176507
-3.6237006 4.1118259 -0.57144129
-3.9521496 4.4845185 -0.57305908
-4.3264356 4.9092216 -0.57248861
-4.7898269 5.4350338 -0.57317883
-5.379281 6.1038899 -0.57571751
-6.109427 6.9323888 -0.57672352
-7.0820608 8.0360394 -0.57921356
-8.4160299 9.5496988 -0.58225811
-10.360806 11.756445 -0.58634275
-13.478679 15.294306 -0.59317225
-19.27515 21.871582 -0.60581946
-33.830582 38.387684 -0.63791996
-1.4179517 1.5696183 -0.56677902
-1.4730213 1.6305784 -0.56926036
-1.5255722 1.6887503 -0.56942827
-1.5765053 1.7451313 -0.56771249
-1.6310407 1.8054999 -0.56599313
-1.6986804 1.8803744 -0.56730717
-1.7613858 1.9497868 -0.5653584
-1.8502026 2.0481036 -0.56990743
-1.9279144 2.1341279 -0.56896496
-2.0116804 2.2268534 -0.56781054
-2.1061387 2.3314152 -0.5674668
-2.2226427 2.4603806 -0.57044333
-2.3403928 2.5907254 -0.57083046
-2.4576862 2.7205648 -0.56819516
-2.5996616 2.8777261 -0.56805503
-2.7712185 3.0676332 -0.57048875
-2.9511077 3.2667637 -0.57027781
-3.1490855 3.4859176 -0.56887913
-3.4060268 3.7703416 -0.57248962
-3.6805067 4.0741806 -0.57245588
-4.0085735 4.4373379 -0.57328552
-4.3953705 4.8655071 -0.57365024
-4.874948 5.3963814 -0.5753808
-5.4554625 6.0389886 -0.57587975
-6.1989551 6.8620071 -0.57716602
-7.1760006 7.9435592 -0.5788641
-8.5283546 9.4405632 -0.58195394
-10.507499 11.6314 -0.58650595
-13.682393 15.145887 -0.59389633
-19.580206 21.67454 -0.60698473
-34.365658 38.04147 -0.63914061
-1.4491676 1.5650506 -0.57152098
-1.4908628 1.61008 -0.56846118
-1.5348504 1.657585 -0.5652408
-1.592424 1.7197626 -0.56578696
-1.6588901 1.7915436 -0.56796974
-1.7172036 1.8545201 -0.56583476
-1.7885019 1.9315197 -0.5663957
-1.8621541 2.0110617 -0.56592888
-1.9518862 2.107969 -0.56834686
-2.0381148 2.201093 -0.56758946
-2.1336608 2.3042793 -0.56720501
-2.2522907 2.4323955 -0.570333
-2.3728428 2.5625875 -0.57101637
-2.4999666 2.699877 -0.57025158
-2.645575 2.8571289 -0.57036763
-2.8154829 3.0406234 -0.57186091
-3.0004954 3.2404306 -0.57207847
-3.196353 3.4519501 -0.56970692
-3.4447737 3.7202358 -0.57127005
-3.7274017 4.0254641 -0.5720076
-4.0581751 4.3826876 -0.57262868
-4.4516177 4.8075919 -0.57323247
-4.9362035 5.3309278 -0.57483029
-5.5241117 5.9658484 -0.57533908
-6.275393 6.7772059 -0.57648021
-7.2824659 7.8648095 -0.57960725
-8.6545095 9.3465691 -0.58267581
-10.664677 11.51748 -0.58732969
-13.882034 14.992114 -0.59451509
-19.867439 21.456144 -0.60766417
-34.900379 37.691193 -0.6404174
-1.4576193 1.5358586 -0.56736314
-1.5142854 1.5955665 -0.56986809
-1.5622499 1.6461054 -0.56783402
-1.6244788 1.7116746 -0.56965476
-1.6794 1.7695438 -0.5674991
-1.7342976 1.827388 -0.56402051
-1.8187647 1.916389 -0.56847394
-1.8963928 1.9981838 -0.56882411
-1.969601 2.0753217 -0.56603163
-2.0637343 2.1745076 -0.56723487
-2.157789 2.2736108 -0.56614429
-2.2799263 2.4023039 -0.56980771
-2.4017253 2.5306408 -0.57043535
-2.5220008 2.6573722 -0.56778115
-2.6772504 2.820955 -0.56967515
-2.8447654 2.9974616 -0.57027912
-3.0381804 3.2012582 -0.57171506
-3.2437456 3.4178572 -0.57062
-3.4932721 3.6807775 -0.57176381
-3.784759 3.9879105 -0.57324106
-4.1100597 4.3306718 -0.57239246
-4.5215878 4.7642889 -0.57465518
-4.9990468 5.2673764 -0.57456249
-5.5962114 5.896595 -0.57525319
-6.3798885 6.7223363 -0.57844228
-7.3831334 7.7794313 -0.57996196
-8.773777 9.2447205 -0.58300811
-10.816954 11.397566 -0.58795315
-14.064283 14.819201 -0.59447128
-20.136221 21.217056 -0.60785943
-35.414856 37.315788 -0.64138961
-1.4810469 1.5226046 -0.56915152
-1.5300436 1.572976 -0.56847638
-1.5768229 1.621068 -0.56584287
-1.6270102 1.6726636 -0.56328732
-1.7063767 1.754257 -0.56928265
-1.7656989 1.8152437 -0.56693065
-1.8467275 1.898546 -0.56987411
-1.9115993 1.9652381 -0.5660941
-1.9982772 2.054348 -0.56697017
-2.0929542 2.1516819 -0.56795108
-2.1943276 2.2558994 -0.56840992
-2.3113849 2.3762414 -0.57032424
-2.4295158 2.4976871 -0.56969815
-2.5585144 2.6303053 -0.56867695
-2.7141097 2.7902665 -0.5701744
-2.8804338 2.9612577 -0.57008672
-3.0739543 3.1602085 -0.57109129
-3.2838149 3.3759575 -0.57032305
-3.5309527 3.6300299 -0.57058215
-3.8272913 3.9346836 -0.5723117
-4.171042 4.2880797 -0.57349861
-4.5753007 4.7036819 -0.5740875
-5.0627937 5.2048535 -0.57448977
-5.6882014 5.8478103 -0.57727391
-6.4463797 6.6272626 -0.57703859
-7.4856033 7.6956463 -0.58053398
-8.8965178 9.1461506 -0.58364677
-10.965416 11.273102 -0.5884437
-14.2515 14.651392 -0.59472454
-20.426882 21.000053 -0.60879254
-35.945831 36.95446 -0.64272773
-1.5006202 1.5052462 -0.56951737
-1.5489058 1.5536807 -0.56834328
-1.5985388 1.6034665 -0.56651735
-1.6631559 1.6682829 -0.56865615
-1.7274275 1.7327527 -0.56915432
-1.7912335 1.7967553 -0.56799257
-1.8655298 1.8712806 -0.56853259
-1.9461526 1.9521519 -0.56917489
-2.0221465 2.0283799 -0.56662297
-2.1265674 2.1331229 -0.56991154
-2.2172968 2.2241321 -0.56723249
-2.3225791 2.3297389 -0.56597489
-2.4531064 2.4606686 -0.56809193
-2.583256 2.5912194 -0.56705129
-2.7473505 2.7558196 -0.56999558
-2.921299 2.9303045 -0.57100004
-3.1072667 3.1168454 -0.5701167
-3.3293743 3.3396378 -0.57106036
-3.5890751 3.6001391 -0.57277745
-3.8789418 3.8908992 -0.57283753
-4.2240386 4.2370601 -0.57357842
-4.626389 4.6406507 -0.5732944
-5.1392035 5.155046 -0.57592374
-5.7464786 5.7641931 -0.5759514
-6.5366774 6.556828 -0.57786065
-7.5714183 7.5947585 -0.57990277
-9.0090647 9.0368366 -0.58369619
-11.09631 11.130516 -0.58807874
-14.454646 14.499206 -0.59571683
-20.699072 20.762882 -0.60924959
-36.455284 36.567665 -0.64374828
-1.5102127 1.4780669 -0.5662173
-1.5547205 1.5216273 -0.56356877
-1.616709 1.5822964 -0.5660187
-1.6843693 1.6485165 -0.56893539
-1.7428911 1.7057927 -0.56729543
-1.8148532 1.7762229 -0.56851351
-1.8907763 1.8505299 -0.56924886
-1.9834379 1.9412192 -0.57305503
-2.0545793 2.0108464 -0.56873941
-2.1425283 2.0969234 -0.56723589
-2.2474463 2.1996081 -0.56798315
-2.3662906 2.3159225 -0.56964409
-2.48037 2.4275739 -0.56744993
-2.6344762 2.5783997 -0.5712918
-2.7876425 2.7283056 -0.57135141
-2.9506242 2.8878183 -0.5697481
-3.1477485 3.0807467 -0.5705505
-3.3690779 3.297365 -0.57087266
-3.6195784 3.5425334 -0.57065046
-3.9138036 3.8304958 -0.57098681
-4.2772493 4.1862054 -0.57377064
-4.6844931 4.5847807 -0.57346511
-5.1867671 5.0763636 -0.57421535
-5.8153381 5.691555 -0.57579499
-6.632781 6.4915986 -0.57925606
-7.6683931 7.5051665 -0.58021796
-9.1248875 8.9306593 -0.58404124
-11.244014 11.004678 -0.58869058
-14.630908 14.31948 -0.59567928
-20.972176 20.52577 -0.60981297
-36.966808 36.179947 -0.64487624
-1.5286648 1.4597613 -0.5663628
-1.5909196 1.5192099 -0.56987578
-1.6347386 1.5610539 -0.56556773
-1.7065821 1.6296589 -0.56962657
-1.7660139 1.6864119 -0.56802905
-1.8333836 1.7507449 -0.56753153
-1.9165531 1.8301657 -0.57019091
-1.9876165 1.898026 -0.56747627
-2.0826616 1.9887869 -0.56970042
-2.1716478 2.0737622 -0.56815124
-2.2700942 2.1677711 -0.56692737
-2.3896701 2.2819574 -0.56847441
-2.5239336 2.4101689 -0.57059294
-2.6609702 2.5410287 -0.57021832
-2.8205936 2.6934571 -0.57127368
-2.9847674 2.8502309 -0.56953037
-3.1958363 3.0517859 -0.57242161
-3.4182985 3.2642207 -0.57236832
-3.6687446 3.5033784 -0.57156694
-3.9673202 3.7884958 -0.57195479
-4.3250012 4.1300545 -0.57332039
-4.7494836 4.5354037 -0.57455051
-5.2561398 5.0192223 -0.57501918
-5.8882909 5.62288 -0.57612878
-6.7047758 6.4025621 -0.57862419
-7.7672396 7.4171362 -0.58075225
-9.2346621 8.8184156 -0.58408284
-11.384895 10.871729 -0.58902293
-14.821863 14.153777 -0.59632283
-21.254375 20.296349 -0.61071551
-37.48127 35.791828 -0.64612442
-1.5537329 1.447596 -0.5690124
-1.605132 1.4954839 -0.56833667
-1.6586517 1.5453477 -0.56722385
-1.7200063 1.6025112 -0.56748724
-1.7818741 1.6601526 -0.56652153
-1.850275 1.723881 -0.56615573
-1.9264194 1.7948239 -0.56651741
-2.0209844 1.8829291 -0.57034945
-2.1000953 1.956636 -0.56784505
-2.2113047 2.0602484 -0.57185525
-2.3020682 2.1448116 -0.56828302
-2.421562 2.2561429 -0.56941837
-2.5444071 2.3705964 -0.56858844
-2.6845334 2.5011504 -0.56863409
-2.8459308 2.6515226 -0.56975871
-3.0288491 2.8219457 -0.57127732
-3.2266035 3.0061913 -0.5712682
-3.4517329 3.2159419 -0.57130206
-3.7200327 3.4659138 -0.57287431
-4.0181398 3.7436569 -0.57260144
-4.3692918 4.0708213 -0.57251275
-4.8045645 4.4763603 -0.57451153
-5.3249741 4.9612203 -0.57583213
-5.9623675 5.5550728 -0.57664967
-6.7851615 6.321661 -0.57880926
-7.8667741 7.3293877 -0.58141178
-9.3408661 8.7027826 -0.58398741
-11.521929 10.734855 -0.58923876
-15.001738 13.976955 -0.59659988
-21.515278 20.045549 -0.61108339
-37.988434 35.39341 -0.6473158
-1.5745231 1.4312083 -0.5701381
-1.6143842 1.4674412 -0.5651809
-1.6804982 1.5275375 -0.56822842
-1.7396584 1.5813127 -0.56751275
-1.8091668 1.6444944 -0.56872672
-1.8812964 1.7100587 -0.56917065
-1.9418877 1.765135 -0.5646407
-2.0364945 1.8511306 -0.56825984
-2.1229529 1.9297196 -0.56756657
-2.2295408 2.0266054 -0.57008362
-2.3348968 2.1223719 -0.56990159
-2.4428523 2.2205012 -0.56796128
-2.5895853 2.3538785 -0.57217288
-2.7210405 2.4733684 -0.56988174
-2.8809106 2.6186869 -0.57027203
-3.0567584 2.7785287 -0.57005411
-3.265018 2.9678326 -0.57156503
-3.5013554 3.1826582 -0.57299447
-3.7597754 3.4175565 -0.57247972
-4.0736241 3.7028382 -0.57397634
-4.4371428 4.0332689 -0.57486141
-4.8592234 4.4169316 -0.57450956
-5.3881817 4.8977432 -0.57611114
-6.0355678 5.4862041 -0.57716107
-6.8571496 6.2330041 -0.57836837
-7.9517665 7.2279878 -0.58108068
-9.4612217 8.6000509 -0.58485633
-11.646343 10.58628 -0.58889967
-15.196277 13.813095 -0.5975365
-21.773331 19.791498 -0.61145437
-38.483418 34.980614 -0.64837176
-1.5741478 1.3959082 -0.56374419
-1.6347181 1.4496202 -0.56601638
-1.6985152 1.5061936 -0.5680151
-1.768025 1.5678329 -0.57043427
-1.8152552 1.6097152 -0.56437564
-1.8986267 1.6836467 -0.56810731
-1.9725013 1.7491565 -0.56724524
-2.0588095 1.8256922 -0.56817931
-2.1444345 1.9016218 -0.56701529
-2.2417612 1.9879283 -0.56691509
-2.3568995 2.0900297 -0.56895608
-2.4824355 2.2013512 -0.57082766
-2.6016636 2.3070791 -0.56853044
-2.7543225 2.4424529 -0.57051897
-2.9240696 2.5929794 -0.57246047
-3.1049576 2.7533855 -0.57268554
-3.2950647 2.921967 -0.57049203
-3.5336466 3.1335344 -0.57192999
-3.7997861 3.3695393 -0.57221985
-4.1068716 3.6418538 -0.57230788
-4.4829998 3.9753933 -0.57442594
-4.9179678 4.3611102 -0.57507122
-5.4446959 4.8281975 -0.57576233
-6.1002326 5.4095082 -0.5769403
-6.9456792 6.1592255 -0.57940358
-8.0445337 7.1336579 -0.58140564
-9.5678797 8.4845161 -0.58495605
-11.801475 10.465203 -0.59019232
-15.364294 13.624607 -0.59751028
-22.047726 19.551279 -0.61236244
-38.97757 34.564171 -0.64948744
-1.604058 1.3875772 -0.56830239
-1.6440638 1.4221839 -0.56315464
-1.7147473 1.483328 -0.56730086
-1.7848861 1.544001 -0.56970567
-1.8376759 1.5896664 -0.56522626
-1.9266455 1.6666288 -0.5703159
-2.0037148 1.7332969 -0.57004917
-2.0841072 1.8028398 -0.56899983
-2.1771204 1.8833001 -0.56949157
-2.2749689 1.967943 -0.56915033
-2.3754671 2.0548782 -0.56729579
-2.5005052 2.1630414 -0.5688237
-2.6396096 2.2833726 -0.5706439
-2.7812579 2.4059043 -0.56992722
-2.9418941 2.5448611 -0.56978065
-3.1401579 2.716368 -0.57297397
-3.3457561 2.8942187 -0.57306355
-3.5753541 3.0928307 -0.57248181
-3.8456547 3.3266521 -0.57292384
-4.1664567 3.6041591 -0.5743919
-4.5194826 3.9095411 -0.57289743
-4.9798284 4.3077593 -0.57606721
-5.5119886 4.7681003 -0.57663465
-6.1802492 5.3461738 -0.57824689
-7.0282655 6.0797434 -0.58001268
-8.1346769 7.0368357 -0.5816229
-9.6728392 8.3674097 -0.58503836
-11.93206 10.321731 -0.59033096
-15.536091 13.439368 -0.59771943
-22.29565 19.286669 -0.61261511
-39.461773 34.136082 -0.65051216
-1.6174909 1.3647906 -0.56707293
-1.6749605 1.4132817 -0.56774223
-1.734834 1.4638011 -0.5679484
-1.8076882 1.5252733 -0.57095414
-1.8624754 1.5715011 -0.56686759
-1.9321867 1.6303215 -0.56597912
-2.0224299 1.706466 -0.56936079
-2.1072319 1.7780193 -0.56930119
-2.1933122 1.8506513 -0.56773138
-2.2979853 1.9389714 -0.56890064
-2.3980308 2.0233867 -0.56669968
-2.5153341 2.1223638 -0.56621748
-2.6580203 2.2427583 -0.56861907
-2.812032 2.3727088 -0.57021159
-2.97386 2.5092542 -0.56995273
-3.1535285 2.6608531 -0.56940043
-3.3758848 2.8484709 -0.57218146
-3.6115317 3.0473027 -0.57223141
-3.8902371 3.2824659 -0.57350916
-4.1930957 3.5380092 -0.57202351
-4.5681152 3.8544393 -0.57301086
-5.0221024 4.2375002 -0.57488632
-5.5679998 4.698112 -0.57640707
-6.2450666 5.2694011 -0.57820529
-7.0991206 5.990026 -0.57973766
-8.2265453 6.9413128 -0.58204466
-9.7864275 8.2574949 -0.58572292
-12.062003 10.177558 -0.59052354
-15.709477 13.255188 -0.59807414
-22.562878 19.037882 -0.61347902
-39.939003 33.699341 -0.65149891
-1.6307807 1.3420271 -0.5659039
-1.6888562 1.3898196 -0.56661671
-1.7474043 1.4380009 -0.56623203
-1.823691 1.5007799 -0.57013673
-1.8839641 1.5503807 -0.56756258
-1.951872 1.6062646 -0.56591696
-2.0391052 1.6780519 -0.56820339
-2.1302299 1.7530416 -0.56964767
-2.2168376 1.8243141 -0.56797135
-2.3226352 1.9113787 -0.56914151
-2.4273198 1.9975272 -0.56777364
-2.5580759 2.1051311 -0.56996876
-2.694675 2.2175434 -0.570584
-2.8382497 2.335696 -0.5696609
-3.0153539 2.4814415 -0.57201403
-3.2046621 2.6372299 -0.57273448
-3.4003711 2.7982857 -0.5704565
-3.6410248 2.9963281 -0.57102346
-3.9096792 3.2174132 -0.57049972
-4.2538199 3.5006189 -0.57439184
-4.6116967 3.7951286 -0.57258064
-5.0805287 4.1809473 -0.57564592
-5.6223292 4.6268134 -0.57609808
-6.3092647 5.1921172 -0.57819426
-7.1742225 5.9039216 -0.57989836
-8.300622 6.8308754 -0.58129895
-9.8859768 8.13552 -0.58564943
-12.195171 10.035838 -0.59095687
-15.889482 13.076017 -0.59876043
-22.812641 18.773329 -0.61394697
-40.43576 33.27602 -0.65287822
-1.6529804 1.3265468 -0.56790417
-1.7032732 1.3669076 -0.5657717
-1.758557 1.4112737 -0.56417996
-1.8290451 1.4678417 -0.56612509
-1.9046395 1.5285076 -0.56808603
-1.9824624 1.5909619 -0.56907111
-2.0651848 1.6573482 -0.56974864
-2.1388569 1.7164713 -0.56626767
-2.2506528 1.8061895 -0.57090157
-2.3407135 1.8784648 -0.56786841
-2.46295 1.9765619 -0.57037973
-2.5915596 2.0797734 -0.57168794
-2.7212355 2.1838405 -0.5704788
-2.8566239 2.2924924 -0.56764799
-3.0330925 2.4341116 -0.56965804
-3.2220025 2.5857153 -0.57010806
-3.449666 2.7684195 -0.57297212
-3.6850622 2.957329 -0.57218355
-3.9579871 3.1763563 -0.57180631
-4.2945485 3.4464526 -0.57412553
-4.6649356 3.743695 -0.57343173
-5.1281924 4.1154671 -0.57526904
-5.682529 4.5603323 -0.57647705
-6.3754516 5.116415 -0.57845044
-7.2451434 5.8143582 -0.579808
-8.3922462 6.7349291 -0.58187181
-9.9832363 8.0117273 -0.5855307
-12.309919 9.878933 -0.59058619
-16.056246 12.885427 -0.59902859
-23.06497 18.510056 -0.61456585
-40.890064 32.815018 -0.65364897
-1.673106 1.3092051 -0.56924462
-1.7242646 1.3492367 -0.56719053
-1.7842401 1.3961675 -0.56686896
-1.8627591 1.4576086 -0.5709694
-1.9211292 1.5032833 -0.56744802
-1.9915819 1.5584124 -0.5661453
-2.083813 1.6305832 -0.56931317
-2.1723535 1.6998662 -0.56955898
-2.2684026 1.7750245 -0.5698244
-2.3731425 1.8569835 -0.57015306
-2.4791491 1.9399338 -0.56856394
-2.6044247 2.0379617 -0.56895483
-2.7454081 2.1482813 -0.56996536
-2.8975589 2.2673392 -0.57019907
-3.0741787 2.405544 -0.57177591
-3.270947 2.5595155 -0.57315618
-3.4659553 2.7121093 -0.57009536
-3.7150631 2.9070361 -0.57124829
-4.010159 3.1379485 -0.5737257
-4.3293767 3.3877363 -0.57316929
-4.7133574 3.6882012 -0.57376575
-5.1824427 4.0552602 -0.57571739
-5.7411599 4.4924564 -0.57677734
-6.4313803 5.0325537 -0.57786655
-7.3245459 5.7314558 -0.58047843
-8.4936609 6.6462884 -0.58319288
-10.079792 7.887435 -0.58546108
-12.452667 9.7442093 -0.59164149
-16.225361 12.696341 -0.59946805
-23.315086 18.244049 -0.61520618
-41.376873 32.377396 -0.65501702
-1.6820055 1.2831399 -0.56686151
-1.7388036 1.3264691 -0.56656486
-1.8022689 1.3748844 -0.56718272
-1.8681941 1.4251763 -0.56722081
-1.9533657 1.4901506 -0.57151431
-2.0166302 1.5384126 -0.56784528
-2.0897396 1.5941852 -0.56553406
-2.1854119 1.6671699 -0.56756485
-2.2892988 1.7464215 -0.56963599
-2.4017513 1.8322073 -0.57157034
-2.5027111 1.9092258 -0.56854045
-2.6362922 2.0111299 -0.57047099
-2.7780192 2.1192482 -0.57128233
-2.9211745 2.2284563 -0.56941086
-3.0961595 2.3619456 -0.57041913
-3.2936506 2.5126045 -0.57167745
-3.497617 2.6682029 -0.56986356
-3.7628438 2.8705347 -0.57312447
-4.0420856 3.0835578 -0.57282537
-4.3799539 3.341305 -0.57438236
-4.7561445 3.6282871 -0.57349986
-5.2246041 3.9856575 -0.5749132
-5.7952647 4.4209933 -0.57670778
-6.4906378 4.951468 -0.57767665
-7.4033484 5.6477413 -0.58117592
-8.5726089 6.5397267 -0.58304799
-10.194114 7.7767134 -0.58650267
-12.58119 9.5977249 -0.59209579
-16.378141 12.49428 -0.59939122
-23.565365 17.977146 -0.61593074
-41.817173 31.900776 -0.6557278
-1.6982051 1.2627705 -0.56704509
-1.7563053 1.3059734 -0.5669921
-1.8269675 1.3585172 -0.5696553
-1.8857391 1.4022192 -0.5672698
-1.9504206 1.4503158 -0.56539208
-2.0410845 1.5177326 -0.56943303
-2.1231916 1.5787868 -0.56929016
-2.2086346 1.6423215 -0.56830829
-2.3153517 1.7216755 -0.57080775
-2.4221017 1.8010539 -0.57109976
-2.5304158 1.8815951 -0.56953502
-2.6687579 1.9844651 -0.5721727
-2.7966866 2.079592 -0.56981951
-2.9605949 2.2014728 -0.57177496
-3.1201916 2.3201473 -0.56954753
-3.3280957 2.4747429 -0.57233089
-3.54003 2.6323354 -0.57145685
-3.7874475 2.816313 -0.57155401
-4.0760002 3.0308783 -0.57230675
-4.430613 3.2945654 -0.57566959
-4.8241377 3.5871868 -0.57633621
-5.2784562 3.9250143 -0.57548463
-5.8497982 4.3498592 -0.57676822
-6.5496063 4.8702302 -0.57755125
-7.4575906 5.5453997 -0.58003724
-8.6518087 6.4334097 -0.58301014
-10.280752 7.6446776 -0.58603466
-12.692459 9.4380026 -0.59182584
-16.55361 12.309121 -0.60022819
-23.80604 17.701965 -0.61648536
-42.283398 31.441566 -0.65692639
-1.7261627 1.2508962 -0.57120115
-1.76872 1.2817363 -0.56586909
-1.8412424 1.334291 -0.56894749
-1.9054536 1.3808228 -0.56804973
-1.9882057 1.4407907 -0.5711664
-2.0640171 1.4957287 -0.5706566
-2.1401305 1.5508858 -0.56867564
-2.2330971 1.6182557 -0.56943953
-2.3285882 1.6874552 -0.56891245
-2.441803 1.7694983 -0.57057148
-2.5588515 1.8543198 -0.57076001
-2.6773841 1.9402168 -0.56886411
-2.8141723 2.0393429 -0.56822985
-2.9742928 2.1553771 -0.56925881
-3.1480622 2.2813025 -0.56947136
-3.3400013 2.4203947 -0.56921709
-3.5655675 2.5838554 -0.57040727
-3.8250239 2.7718754 -0.57203776
-4.1209784 2.9863446 -0.57342267
-4.4577208 3.230371 -0.57398719
-4.8533535 3.5170739 -0.57461637
-5.3168621 3.8529642 -0.57446301
-5.9113798 4.2837925 -0.57760268
-6.6244593 4.800539 -0.57890278
-7.5289373 5.455986 -0.58032453
-8.7297421 6.3261719 -0.5829758
-10.377583 7.5203104 -0.58623874
-12.807146 9.2809391 -0.59180743
-16.716335 12.113808 -0.60068202
-24.016867 17.404274 -0.61635631
-42.734371 30.968266 -0.65796691
-1.729081 1.2208705 -0.5671562
-1.7950811 1.2674718 -0.56927353
-1.8516389 1.3074062 -0.56714952
-1.9236647 1.3582622 -0.56845671
-1.9960369 1.4093628 -0.5683946
-2.056123 1.4517884 -0.56349581
-2.1505086 1.5184323 -0.56642908
-2.2577045 1.5941212 -0.57067275
-2.3526328 1.6611482 -0.56975341
-2.4476712 1.728253 -0.56693411
-2.5715151 1.8156967 -0.56856161
-2.7189429 1.9197927 -0.57263505
-2.8566346 2.0170143 -0.57175255
-3.0001547 2.118351 -0.56918013
-3.1890647 2.2517366 -0.57183659
-3.3773215 2.384661 -0.57053685
-3.6016271 2.5430388 -0.57113028
-3.8594048 2.7250507 -0.57212496
-4.1495032 2.9298835 -0.57233548
-4.495811 3.1744046 -0.57382232
-4.9030323 3.4619358 -0.5754146
-5.3729634 3.793745 -0.57544076
-5.9578695 4.2067356 -0.57704723
-6.6834731 4.7190704 -0.57894516
-7.6067467 5.370976 -0.58118743
-8.8143616 6.2236495 -0.58347201
-10.476786 7.3974543 -0.58665985
-12.934025 9.1324635 -0.59243643
-16.875 11.915109 -0.60107315
-24.262493 17.131275 -0.61720717
-43.186428 30.493097 -0.65910417
-1.743618 1.1992819 -0.5670445
-1.7962681 1.2354953 -0.56478935
-1.8732023 1.2884115 -0.56885862
-1.9526414 1.3430507 -0.57209599
-2.0048592 1.3789667 -0.56603551
-2.1050282 1.4478642 -0.57197618
-2.1716638 1.493697 -0.56712055
-2.2733672 1.5636498 -0.56972861
-2.366596 1.6277739 -0.56824464
-2.4788158 1.70496 -0.56924886
-2.5906453 1.7818776 -0.56790394
-2.7263653 1.8752276 -0.56929886
-2.8666441 1.9717129 -0.56886029
-3.0390596 2.0903027 -0.5716415
-3.2119396 2.2092116 -0.57102406
-3.4122488 2.3469865 -0.57151872
-3.6443918 2.5066574 -0.57298058
-3.8929942 2.6776493 -0.57218009
-4.1771932 2.8731246 -0.57123858
-4.5252395 3.1125152 -0.57265013
-4.9363012 3.3952487 -0.57437593
-5.4299531 3.7347884 -0.57658219
-6.0020676 4.1282959 -0.5763678
-6.7387276 4.6349797 -0.57875079
-7.6572952 5.2667818 -0.58005756
-8.8945303 6.1177673 -0.58375496
-10.585657 7.2809448 -0.58769852
-13.044129 8.9719124 -0.59238166
-17.0257 11.710485 -0.60126644
-24.490843 16.845102 -0.6177001
-43.606007 29.992746 -0.6598292
-1.7701985 1.1857682 -0.57090378
-1.8140585 1.215148 -0.56564218
-1.8808501 1.2598883 -0.56643361
-1.9353689 1.2964077 -0.56232232
-2.0391452 1.3659223 -0.57093036
-2.1054018 1.4103043 -0.56732273
-2.198782 1.4728551 -0.5694297
-2.277709 1.5257244 -0.56607223
-2.3840342 1.5969462 -0.56767374
-2.4966621 1.6723902 -0.5685817
-2.617559 1.753373 -0.56903446
-2.7454691 1.8390538 -0.56852299
-2.8981547 1.9413302 -0.57033306
-3.0493426 2.0426035 -0.56880826
-3.2365746 2.168021 -0.57062107
-3.4264865 2.2952335 -0.56913322
-3.6628845 2.4535847 -0.57110143
-3.9303682 2.6327589 -0.57287169
-4.2338519 2.8360476 -0.5741744
-4.5642977 3.0573969 -0.57279199
-4.9824529 3.3374982 -0.57492721
-5.4691501 3.6635125 -0.5759173
-6.0629883 4.0612955 -0.57737863
-6.786809 4.5461469 -0.57803541
-7.72539 5.1748557 -0.58035171
-8.975769 6.0124226 -0.58419037
-10.67128 7.1481614 -0.58752781
-13.163744 8.8177395 -0.5928449
-17.179735 11.507854 -0.60166347
-24.711548 16.553041 -0.61808622
-44.035442 29.49716 -0.66078889
-1.7928493 1.1692642 -0.57352853
-1.8476348 1.2049943 -0.57144827
-1.8990365 1.2385175 -0.56728125
-1.9822212 1.2927692 -0.57127339
-2.0473919 1.3352723 -0.56859922
-2.1101875 1.3762264 -0.56400961
-2.232157 1.4557728 -0.57339382
-2.304775 1.5031329 -0.56816238
-2.4054615 1.568799 -0.56813967
-2.5209727 1.6441332 -0.56947088
-2.6328862 1.7171211 -0.56773341
-2.7730265 1.8085182 -0.56958133
-2.9167788 1.9022708 -0.56935191
-3.0822434 2.0101838 -0.57029146
-3.2618728 2.1273348 -0.57042623
-3.4777682 2.2681382 -0.57297522
-3.7005095 2.4134061 -0.57229751
-3.9495332 2.5758147 -0.5710054
-4.2534294 2.7740104 -0.57216024
-4.6120028 3.0078657 -0.57409376
-5.0176334 3.2724106 -0.57430017
-5.513145 3.5955744 -0.57585084
-6.1023278 3.9798286 -0.57642096
-6.8592329 4.4734688 -0.57947499
-7.7990737 5.0864158 -0.58114451
-9.04492 5.8989348 -0.5839259
-10.757509 7.0158544 -0.58748114
-13.277891 8.6596022 -0.59314525
-17.330267 11.302489 -0.60202247
-24.949274 16.271469 -0.618981
-44.467144 29.000673 -0.66186571
-1.7807713 1.1304244 -0.56517541
-1.8479502 1.1730692 -0.56704164
-1.9046708 1.2090752 -0.56448048
-1.9840822 1.2594851 -0.56730342
-2.0577157 1.3062272 -0.56696266
-2.1414957 1.3594104 -0.56786692
-2.2305443 1.415938 -0.56846404
-2.3156037 1.4699333 -0.56633323
-2.4431245 1.5508828 -0.57248765
-2.5354378 1.6094829 -0.56822485
-2.6597395 1.6883889 -0.56900406
-2.7993009 1.7769817 -0.57044685
-2.9498339 1.8725393 -0.57126641
-3.1176608 1.979075 -0.57229859
-3.2921605 2.0898466 -0.57118577
-3.5004091 2.2220416 -0.57216054
-3.7265525 2.3655963 -0.57178324
-3.9993193 2.5387473 -0.57364661
-4.2847323 2.7199261 -0.57182878
-4.6468258 2.9497812 -0.57387
-5.0624828 3.2136378 -0.57486707
-5.5553875 3.5265312 -0.57569015
-6.1606741 3.9107642 -0.57734632
-6.9072199 4.3846674 -0.57893026
-7.8704715 4.9961348 -0.58184296
-9.110774 5.7834721 -0.58354205
-10.844266 6.883884 -0.58755189
-13.392578 8.5015392 -0.59355372
-17.469282 11.08941 -0.6020692
-25.169096 15.977213 -0.61951369
-44.888744 28.495144 -0.66287553
-1.7978755 1.1105063 -0.56622726
-1.862434 1.1503825 -0.56710249
-1.9347726 1.1950644 -0.56900352
-2.0182819 1.2466463 -0.57265574
-2.0858531 1.2883834 -0.5703072
-2.1614149 1.3350561 -0.56875271
-2.2582712 1.3948821 -0.57111591
-2.3625872 1.4593157 -0.57339203
-2.448112 1.5121424 -0.56925631
-2.5621154 1.5825597 -0.56979936
-2.6768026 1.6533992 -0.56826198
-2.8265972 1.745924 -0.57159126
-2.9656744 1.8318286 -0.56992882
