# .PCD v0.7 - Point Cloud Data file format
VERSION 0.7
FIELDS x y z
SIZE 4 4 4
TYPE F F F
COUNT 1 1 1
WIDTH 1425
HEIGHT 1
VIEWPOINT 0 0 0 1 0 0 0
POINTS 1425
DATA ascii
-13.479149 -1.1630727 1.7525648
-13.032536 -1.1245358 1.8051587
-12.66926 -1.09319 1.8626661
-12.412619 -1.0710453 1.9308327
-12.258543 -1.0577506 2.0117197
-12.338407 -1.0646417 2.13065
-5.4230638 -0.46793887 1.0768437
-4.8073239 -0.41480863 0.99631947
-4.4791474 -0.38649133 0.96733057
-4.2485051 -0.36658993 0.95466924
-4.0362468 -0.34827483 0.94239777
-3.869844 -0.33391649 0.93764108
-3.7375281 -0.32249936 0.93864393
-3.6018932 -0.31079587 0.93657577
-3.5041559 -0.30236241 0.94242316
-2.1134524 -0.20857237 -0.56904799
-2.1875658 -0.21588647 -0.5694651
-2.2611914 -0.22315243 -0.56852245
-2.3523567 -0.23214935 -0.57061106
-2.4317849 -0.23998797 -0.56842816
-2.5253897 -0.24922563 -0.56811869
-2.6419754 -0.26073125 -0.57121843
-2.7426729 -0.27066886 -0.56906658
-2.8730271 -0.28353325 -0.57113862
-2.9977827 -0.29584515 -0.56996566
-3.1418762 -0.31006545 -0.57022548
-3.3064961 -0.32631144 -0.57162988
-3.4678149 -0.34223169 -0.5697422
-3.6833858 -0.36350593 -0.5736174
-3.8773315 -0.38264605 -0.57070357
-4.1333942 -0.40791637 -0.57317495
-4.4023099 -0.43445513 -0.57304156
-4.7054749 -0.46437386 -0.5725891
-5.0734591 -0.50068951 -0.57441765
-5.4952164 -0.54231185 -0.57573581
-5.9833627 -0.59048605 -0.57640862
-6.5802569 -0.64939231 -0.57849371
-7.290967 -0.71953088 -0.57966167
-8.1802101 -0.80728847 -0.58165938
-9.3151913 -0.91929752 -0.58422226
-10.82176 -1.0679778 -0.58802539
-12.885852 -1.2716788 -0.59229833
-15.930112 -1.5721107 -0.59895742
-20.876169 -2.0602272 -0.6103844
-30.227839 -2.9831247 -0.63120681
-54.737129 -5.4018974 -0.68573737
-17.71991 -1.7487422 1.7070516
-17.636724 -1.7405328 1.847806
-15.014157 -1.481717 1.6999047
-13.786506 -1.3605624 1.6776208
-13.236815 -1.3063147 1.7230148
-12.82707 -1.2658777 1.7787211
-12.482661 -1.2318887 1.8373201
-12.260749 -1.2099887 1.909379
-12.116252 -1.1957285 1.990631
-12.145212 -1.1985866 2.0996747
-5.6967058 -0.56219643 1.0831094
-4.972259 -0.49070224 0.98845196
-4.6390157 -0.45781514 0.96253151
-4.3554301 -0.42982861 0.9416824
-4.1678939 -0.41132107 0.93762094
-3.9761553 -0.39239877 0.92942375
-3.8421948 -0.37917846 0.93200105
-3.6981845 -0.36496639 0.92981994
-3.577409 -0.35304731 0.9312678
-3.4677775 -0.342228 0.93370062
-2.1135104 -0.23485179 -0.56979805
-2.1850519 -0.24280146 -0.56954485
-2.2679946 -0.252018 -0.57096899
-2.3455212 -0.26063269 -0.56968737
-2.4328704 -0.27033886 -0.56941587
-2.5270634 -0.28080553 -0.56922895
-2.6425421 -0.29363742 -0.57207835
-2.727088 -0.3030321 -0.56656325
-2.8499098 -0.31667998 -0.56727433
-2.99705 -0.3330301 -0.57056183
-3.1450853 -0.34947971 -0.57154465
-3.2983351 -0.36650869 -0.57095498
-3.4779911 -0.38647196 -0.57215154
-3.6764188 -0.40852109 -0.57327139
-3.8850763 -0.43170696 -0.57258159
-4.1240082 -0.4582569 -0.57261145
-4.4014931 -0.48909086 -0.57367468
-4.7017903 -0.52245963 -0.57287914
-5.075491 -0.56398505 -0.57538939
-5.4949961 -0.61060017 -0.57645583
-5.9779358 -0.66426408 -0.57662916
-6.5785613 -0.73100513 -0.57909107
-7.2791424 -0.80885321 -0.57946849
-8.1687937 -0.90771061 -0.58159727
-9.3106728 -1.0345955 -0.58469254
-10.806393 -1.2007989 -0.58794826
-12.872647 -1.4303997 -0.59245509
-15.924325 -1.7694999 -0.59951264
-20.852917 -2.3171616 -0.61049145
-30.180763 -3.3536654 -0.63103718
-54.664547 -6.0742865 -0.68571198
-14.403215 -1.6004753 1.6328385
-13.503321 -1.5004796 1.645282
-13.01849 -1.4466056 1.6967828
-12.644653 -1.4050651 1.7556885
-12.320402 -1.3690345 1.8157779
-12.09995 -1.344538 1.8867695
-11.942461 -1.3270379 1.9646105
-11.974049 -1.3305479 2.0727556
-5.1365824 -0.57077348 0.97787422
-4.7836137 -0.53155184 0.95217794
-4.4915581 -0.49909881 0.93313891
-4.2693567 -0.47440797 0.92426401
-4.0798965 -0.45335525 0.91900945
-3.9275396 -0.43642545 0.91924477
-3.7795033 -0.41997579 0.91797733
-3.6549358 -0.40613392 0.92013222
-3.5438747 -0.3937929 0.92372888
-3.4407372 -0.38233235 0.92761576
-2.1047711 -0.26011738 -0.56826133
-2.1770821 -0.26905391 -0.56828684
-2.2527668 -0.27840737 -0.56795424
-2.3453448 -0.2898486 -0.57046705
-2.410605 -0.29791373 -0.56501931
-2.5363166 -0.31344977 -0.57213819
-2.6261122 -0.32454711 -0.56934237
-2.7493918 -0.3397826 -0.57202178
-2.8593857 -0.35337615 -0.56998235
-2.9909978 -0.36964139 -0.57023185
-3.1336596 -0.38727218 -0.57029057
-3.3002827 -0.40786424 -0.57211703
-3.4607496 -0.42769548 -0.57013732
-3.6651983 -0.45296222 -0.57234704
-3.8699691 -0.47826874 -0.57117867
-4.1177797 -0.50889432 -0.57257229
-4.404593 -0.54434001 -0.57490766
-4.7003441 -0.58089036 -0.57352996
-5.0685315 -0.62639266 -0.57543015
-5.4801283 -0.67725962 -0.57572615
-5.9814587 -0.73921645 -0.57780206
-6.5558062 -0.81019694 -0.57792127
-7.2774558 -0.89938176 -0.58017075
-8.1680412 -1.0094445 -0.58238351
-9.2891369 -1.1479946 -0.58418244
-10.781366 -1.3324113 -0.58743364
-12.849228 -1.5879673 -0.59223115
-15.897135 -1.9646417 -0.59935319
-20.810463 -2.5718534 -0.61012834
-30.130348 -3.7236481 -0.63089275
-54.566483 -6.7435789 -0.68547022
-13.997062 -1.7298218 1.5890856
-13.263215 -1.6391296 1.6183604
-12.795088 -1.5812763 1.6700734
-12.431197 -1.536305 1.7285428
-12.150122 -1.5015683 1.7932676
-11.931911 -1.4746009 1.8632536
-11.799379 -1.458222 1.9438756
-11.798477 -1.4581106 2.0453126
-5.352138 -0.66144204 0.97402847
-4.9223752 -0.60832995 0.93844771
-4.6320372 -0.57244867 0.92333794
-4.3934197 -0.54295921 0.91406828
-4.2009587 -0.51917398 0.91076988
-4.0315924 -0.49824291 0.9094401
-3.8894949 -0.48068181 0.91165483
-3.740895 -0.46231717 0.90991199
-3.6367559 -0.44944718 0.91687745
-3.5165634 -0.4345932 0.91793352
-3.3968537 -0.41979894 0.91710711
-2.1088591 -0.28699023 -0.57027471
-2.1806345 -0.29675803 -0.57012355
-2.2627425 -0.3079319 -0.57138067
-2.3224967 -0.31606373 -0.56581211
-2.4368742 -0.33162913 -0.57208908
-2.5318229 -0.34455049 -0.57203698
-2.6175659 -0.35621908 -0.56839621
-2.721184 -0.37032026 -0.56705755
-2.8560088 -0.3886683 -0.5702188
-2.9754701 -0.40492553 -0.56817776
-3.1130128 -0.42364341 -0.56743819
-3.2810311 -0.44650868 -0.56968838
-3.4596667 -0.47081882 -0.57086951
-3.6630926 -0.49850264 -0.57293212
-3.8708134 -0.52677089 -0.57221603
-4.1203647 -0.56073189 -0.57384712
-4.3930721 -0.597844 -0.57431996
-4.7155051 -0.64172328 -0.57629913
-5.0580058 -0.68833345 -0.57515258
-5.4781108 -0.74550468 -0.57643372
-5.9699931 -0.81244391 -0.57761586
-6.5660362 -0.8935582 -0.57974792
-7.2567129 -0.98755097 -0.57944137
-8.1512012 -1.10928 -0.5821113
-9.2826004 -1.2632498 -0.58470404
-10.765351 -1.4650342 -0.58749819
-12.83934 -1.7472792 -0.59272087
-15.875632 -2.1604817 -0.59949875
-20.780447 -2.8279676 -0.61022168
-30.09362 -4.0953779 -0.63113046
-54.472694 -7.4130754 -0.68538535
-13.622632 -1.8538756 1.5490476
-13.014996 -1.7711836 1.5906101
-12.590974 -1.7134794 1.6460572
-12.236904 -1.6652948 1.7042451
-11.961575 -1.6278257 1.76826
-11.773702 -1.6022586 1.8414854
-11.635713 -1.5834799 1.919975
-5.5821471 -0.75966275 0.96923327
-5.0978174 -0.69375134 0.92922723
-4.7841811 -0.65106922 0.91355836
-4.5321465 -0.61677033 0.90486932
-4.3158646 -0.58733702 0.89936721
-4.1367097 -0.56295615 0.89827347
-3.9649639 -0.53958368 0.89583915
-3.826333 -0.52071768 0.8982833
-3.7181394 -0.50599384 0.90582192
-3.5881946 -0.48830992 0.90607971
-3.4901614 -0.47496879 0.91249734
-3.3985791 -0.46250555 0.91903895
-2.1082168 -0.31335083 -0.57109982
-2.1730855 -0.32299244 -0.5691452
-2.2576232 -0.33555758 -0.57108676
-2.3358705 -0.3471877 -0.57006729
-2.420212 -0.35972363 -0.5691728
-2.5240519 -0.37515768 -0.5712803
-2.6086469 -0.38773128 -0.56745189
-2.743789 -0.4078179 -0.57276982
-2.8474867 -0.42323083 -0.56951332
-2.9961085 -0.44532093 -0.57312113
-3.1162031 -0.46317095 -0.56901485
-3.2794945 -0.48744148 -0.57041919
-3.4504912 -0.51285726 -0.57035297
-3.6487281 -0.5423218 -0.57168519
-3.8776464 -0.57634664 -0.57423043
-4.0957689 -0.60876685 -0.57142091
-4.3838148 -0.65158004 -0.57411379
-4.6943755 -0.69773966 -0.57472193
-5.0687175 -0.75337923 -0.57738036
-5.4708109 -0.81314361 -0.5766741
-5.9650297 -0.88660097 -0.57814676
-6.5265908 -0.97006744 -0.57727462
-7.2476134 -1.0772353 -0.57972866
-8.1237707 -1.2074614 -0.58116877
-9.2577677 -1.3760108 -0.58416146
-10.761377 -1.5994971 -0.58831018
-12.81261 -1.9043779 -0.5925231
-15.837878 -2.354033 -0.59912086
-20.745363 -3.0834479 -0.6102587
-30.016281 -4.4614134 -0.63061136
-54.354916 -8.0789404 -0.68510157
-13.28558 -1.974677 1.5133675
-12.746373 -1.8945332 1.56051
-12.368434 -1.8383589 1.6197968
-12.069348 -1.7939048 1.6838543
-11.802965 -1.7543114 1.7478698
-11.595265 -1.7234404 1.816754
-5.815155 -0.86432463 0.96122289
-5.2936597 -0.78681308 0.92075324
-4.9466906 -0.73524201 0.90325963
-4.6698012 -0.69408709 0.89327931
-4.453804 -0.66198277 0.89078575
-4.2603779 -0.63323319 0.88935989
-4.1048493 -0.61011654 0.8929168
-3.9341714 -0.58474815 0.89043915
-3.7966495 -0.56430781 0.89287621
-3.6781783 -0.54669905 0.89765638
-3.5700459 -0.53062707 0.90307629
-3.4810312 -0.51739651 0.91170472
-3.3606889 -0.49950963 0.91038489
-2.1156425 -0.34109285 -0.57420415
-2.1801713 -0.35149649 -0.57208979
-2.2472863 -0.36231706 -0.56955588
-2.3203831 -0.374102 -0.56736737
-2.410547 -0.38863862 -0.56798077
-2.5060291 -0.40403265 -0.5682826
-2.6302109 -0.42405376 -0.57323354
-2.7164516 -0.43795785 -0.56814432
-2.841336 -0.45809224 -0.56936669
-2.968298 -0.47856158 -0.5688839
-3.1396997 -0.50619572 -0.57439846
-3.2764614 -0.52824503 -0.57097828
-3.4563789 -0.55725211 -0.57241559
-3.6472523 -0.58802551 -0.57254356
-3.8591387 -0.62218672 -0.57257932
-4.1084337 -0.66237915 -0.5742808
-4.3677149 -0.70418155 -0.57309604
-4.6825571 -0.7549417 -0.57436812
-5.0346332 -0.81170493 -0.57459134
-5.4473448 -0.87824404 -0.57529545
-5.9303851 -0.95612186 -0.57588488
-6.5244651 -1.0519019 -0.57818699
-7.2356758 -1.1665664 -0.57987738
-8.1179934 -1.3088174 -0.58186281
-9.2373867 -1.4892907 -0.58398682
-10.728539 -1.7297007 -0.58763331
-12.787564 -2.0616655 -0.59249246
-15.795872 -2.5466776 -0.5986712
-20.699053 -3.3371892 -0.61005741
-29.9662 -4.8312778 -0.6307596
-54.223099 -8.7420778 -0.68474329
-13.914317 -2.2433252 1.4694945
-12.99833 -2.0956461 1.4834701
-12.522316 -2.0189009 1.5360023
-12.164194 -1.961163 1.5960866
-9.8310785 -1.5850083 1.3741976
-9.4727335 -1.5272343 1.4054668
-6.1543021 -0.99222273 0.96609879
-5.5257287 -0.89088148 0.91512334
-5.1265903 -0.82653069 0.89339423
-4.8309369 -0.7788642 0.88380516
-4.5912485 -0.74022055 0.87992764
-4.3944883 -0.708498 0.88059813
-4.216352 -0.67977816 0.88184762
-4.0402822 -0.65139145 0.88054746
-3.9063148 -0.62979263 0.88582009
-3.7677424 -0.60745144 0.88776749
-3.6497791 -0.58843291 0.89242399
-3.5634954 -0.57452184 0.90313798
-3.4507678 -0.55634743 0.90550178
-3.3784916 -0.54469478 0.91695261
-2.0972214 -0.36463422 -0.57037824
-2.1653068 -0.37647194 -0.56936097
-2.2413151 -0.38968715 -0.56921387
-2.3094027 -0.4015252 -0.56584698
-2.4002345 -0.41731772 -0.56671715
-2.5059144 -0.43569183 -0.5694285
-2.6092124 -0.45365176 -0.56982982
-2.7263217 -0.474013 -0.57138455
-2.8345902 -0.49283716 -0.56918627
-2.9657011 -0.51563281 -0.56955832
-3.1239777 -0.54315162 -0.57270074
-3.2559214 -0.56609207 -0.56856894
-3.4374833 -0.59765941 -0.5704602
-3.6362257 -0.63221383 -0.57198972
-3.8320172 -0.66625524 -0.56972778
-4.0846257 -0.7101751 -0.57213026
-4.3532434 -0.75687844 -0.57237506
-4.6666574 -0.81137025 -0.57359827
-5.0236621 -0.87344104 -0.57452154
-5.445488 -0.94678199 -0.5762853
-5.9183407 -1.0289947 -0.57590044
-6.5283952 -1.135062 -0.57972831
-7.2072487 -1.2530912 -0.57879031
-8.1192904 -1.4116637 -0.58315587
-9.2274618 -1.6043364 -0.58456236
-10.716202 -1.8631767 -0.58816797
-12.743839 -2.2157128 -0.59168416
-15.76745 -2.7414141 -0.59882635
-20.655771 -3.5913241 -0.61003727
-29.894348 -5.1975932 -0.63054484
-54.099911 -9.4061022 -0.68459648
-13.420428 -2.3333483 1.4202576
-10.33717 -1.7972761 1.1821908
-9.8291798 -1.7089543 1.2081454
-9.5310478 -1.6571194 1.2531655
-9.2907381 -1.6153378 1.3013463
-6.6292009 -1.1525886 0.98560095
-5.7633934 -1.0020547 0.90659994
-5.3370142 -0.92792213 0.88569278
-5.0003853 -0.869394 0.87319785
-4.7493305 -0.82574427 0.87066728
-4.5282912 -0.78731322 0.86965138
-4.3409543 -0.75474179 0.87166446
-4.1617665 -0.72358721 0.87222612
-4.0124388 -0.69762433 0.87628251
-3.8821187 -0.6749661 0.88214862
-3.7542388 -0.65273225 0.88640994
-3.6413646 -0.63310736 0.89220268
-3.5490079 -0.61704969 0.90132117
-3.4487214 -0.59961337 0.90683103
-3.3564649 -0.5835731 0.91285288
-2.0890415 -0.38973308 -0.5694139
-2.1572821 -0.40246409 -0.56850922
-2.2444358 -0.41872358 -0.57127088
-2.3174298 -0.4323414 -0.56907332
-2.3972273 -0.44722846 -0.56726271
-2.501956 -0.46676672 -0.56979012
-2.6011333 -0.48526934 -0.56932551
-2.7144616 -0.50641191 -0.57016087
-2.8343575 -0.5287798 -0.57040203
-2.9644713 -0.55305392 -0.57058507
-3.1070607 -0.57965547 -0.57086295
-3.2607715 -0.60833192 -0.57067901
-3.4255841 -0.63907945 -0.56974655
-3.632925 -0.67776114 -0.57273823
-3.8523333 -0.71869409 -0.57401884
-4.0824494 -0.76162475 -0.57309395
-4.3548098 -0.81243652 -0.57385123
-4.6606565 -0.86949545 -0.57413143
-5.0133038 -0.93528557 -0.57460874
-5.4146614 -1.0101632 -0.57429409
-5.914238 -1.1033646 -0.57677788
-6.4920917 -1.2111694 -0.57778335
-7.2053275 -1.3442311 -0.57991958
-8.0968533 -1.5105548 -0.58283436
-9.1941395 -1.7152654 -0.58374345
-10.676959 -1.9919012 -0.58731401
-12.726746 -2.374311 -0.59220129
-15.736788 -2.9358666 -0.59898758
-20.614645 -3.8458834 -0.61017317
-29.798782 -5.5592828 -0.62992334
-53.950298 -10.065007 -0.68421763
-10.48512 -1.9561116 1.0225466
-10.038591 -1.8728069 1.064721
-9.7058268 -1.810726 1.1124506
-9.4665365 -1.766084 1.1661525
-9.2299967 -1.7219549 1.2162746
-7.3223548 -1.3660638 1.0279115
-6.0656843 -1.1316184 0.90382022
-5.5653095 -1.0382682 0.8773827
-5.1972866 -0.96960962 0.86441791
-4.9031019 -0.91472626 0.85810894
-4.675364 -0.87223929 0.85900867
-4.4574533 -0.83158576 0.85794598
-4.2898707 -0.8003214 0.86331767
-4.1246309 -0.76949418 0.86636084
-3.990556 -0.74448103 0.87343669
-3.8491037 -0.71809161 0.87658668
-3.7404003 -0.69781178 0.88510156
-3.6526775 -0.68144619 0.89695978
-3.5257981 -0.65777546 0.89741296
-3.4389994 -0.64158225 0.90628058
-3.3506081 -0.62509185 0.91328144
-2.0777202 -0.41411963 -0.56767315
-2.1572888 -0.42997879 -0.56986123
-2.2155766 -0.44159642 -0.56526482
-2.3030267 -0.45902646 -0.56687969
-2.4006369 -0.47848156 -0.56941873
-2.497226 -0.49773321 -0.57006371
-2.6001997 -0.51825732 -0.57047284
-2.7156665 -0.54127157 -0.57176876
-2.82741 -0.56354362 -0.5703553
-2.9684031 -0.5916456 -0.57269883
-3.1008594 -0.61804605 -0.57107675
-3.2512159 -0.64801425 -0.57035804
-3.4379737 -0.68523782 -0.5731653
-3.6154981 -0.72062093 -0.57134461
-3.8197944 -0.76134014 -0.57052213
-4.0784025 -0.81288451 -0.57388562
-4.3451228 -0.86604565 -0.57393456
-4.6548595 -0.92778063 -0.57477921
-5.0098362 -0.99853265 -0.57557511
-5.4109373 -1.078478 -0.57526219
-5.9158435 -1.179113 -0.57830471
-6.4836097 -1.292277 -0.57839894
-7.1805162 -1.4311806 -0.57929528
-8.0658665 -1.6076437 -0.58198291
-9.189538 -1.8316076 -0.58483702
-10.659855 -2.1246629 -0.58776587
-12.681435 -2.5275929 -0.59149438
-15.690033 -3.12725 -0.59862638
-20.543888 -4.0946937 -0.60952306
-29.744465 -5.9285011 -0.63026851
-53.802292 -10.723573 -0.68396115
-11.037191 -2.1998715 0.89043635
-10.42094 -2.0770438 0.9296459
-10.052712 -2.0036507 0.9827053
-9.7401829 -1.941359 1.0355246
-9.472846 -1.8880749 1.0883259
-9.2343273 -1.8405347 1.1402491
-9.0773773 -1.8092523 1.1990043
-6.4426188 -1.284107 0.90656239
-5.8047113 -1.1569628 0.86698812
-5.4202814 -1.0803404 0.85654825
-5.0974784 -1.016001 0.84983128
-4.8370867 -0.96410114 0.848566
-4.6398664 -0.92479235 0.85451144
-4.4319386 -0.88334936 0.85506111
-4.2631221 -0.8497017 0.8599723
-4.1003246 -0.81725389 0.86330092
-3.966104 -0.79050177 0.87014657
-3.8385367 -0.76507574 0.87625641
-3.7306499 -0.74357235 0.88489103
-3.6155903 -0.72063935 0.8899613
-3.5203185 -0.70165026 0.89814639
-3.4184694 -0.68135029 0.90300995
-3.3305771 -0.66383207 0.90997773
-2.0751526 -0.44020379 -0.56840754
-2.1392491 -0.45380062 -0.56652713
-2.2173214 -0.47036216 -0.56714267
-2.3040442 -0.48875877 -0.5685665
-2.4108148 -0.51140809 -0.57328117
-2.4972117 -0.52973551 -0.57150418
-2.5754178 -0.54632545 -0.56646693
-2.7068782 -0.57421225 -0.57136178
-2.8389437 -0.60222739 -0.57413232
-2.9488156 -0.62553465 -0.57036066
-3.0910807 -0.65571344 -0.57071757
-3.231622 -0.68552661 -0.56835657
-3.4253054 -0.72661281 -0.57249957
-3.6047955 -0.76468819 -0.57109606
-3.81376 -0.80901599 -0.57106352
-4.0686789 -0.86309212 -0.57396734
-4.333034 -0.91917002 -0.57378739
-4.6466174 -0.98569071 -0.57521462
-4.9869027 -1.0578756 -0.57439137
-5.4096766 -1.147559 -0.5765847
-5.8928509 -1.2500552 -0.57751596
-6.4621563 -1.3708224 -0.57794511
-7.1813006 -1.5233752 -0.58082587
-8.0411768 -1.7057815 -0.58167088
-9.1549673 -1.9420507 -0.58411252
-10.624895 -2.2538676 -0.58732194
-12.658216 -2.6851974 -0.59190673
-15.655121 -3.3209333 -0.59880716
-20.488802 -4.3463063 -0.60942829
-29.662199 -6.2922664 -0.63011718
-53.624828 -11.375478 -0.68343174
-11.180389 -2.3717051 0.80875063
-10.572157 -2.2426801 0.85507935
-10.153721 -2.1539168 0.90810144
-9.812603 -2.0815556 0.96166277
-9.5419521 -2.024142 1.017019
-9.3115463 -1.9752659 1.0725037
-9.1201258 -1.9346596 1.1289997
-6.9163566 -1.4671723 0.91587508
-6.1326289 -1.3009195 0.86512822
-5.652173 -1.199 0.84634322
-5.3113384 -1.1266985 0.84145814
-5.0373273 -1.0685723 0.84193009
-4.7847862 -1.0150006 0.84151697
-4.5855799 -0.9727428 0.84665251
-4.4044237 -0.93431395 0.85190469
-4.2274399 -0.8967703 0.85493422
-4.082191 -0.86595851 0.86165977
-3.9391842 -0.83562237 0.86642933
-3.8300381 -0.81246907 0.87653071
-3.7129488 -0.78763086 0.88292295
-3.6037831 -0.76447344 0.88930166
-3.5152881 -0.7457009 0.8991344
-3.42975 -0.72755563 0.90828437
-3.3473673 -0.71007973 0.91688144
-2.0550952 -0.46242565 -0.56442851
-2.1487858 -0.48350736 -0.57058412
-2.2156241 -0.49854693 -0.56823367
-2.3054729 -0.51876414 -0.57045001
-2.397182 -0.53940004 -0.57157338
-2.4939642 -0.56117743 -0.57229698
-2.5833464 -0.58128971 -0.56973988
-2.6844494 -0.60403931 -0.56815249
-2.7990339 -0.62982243 -0.56758451
-2.9453404 -0.66274345 -0.57122153
-3.0843649 -0.69402593 -0.57101017
-3.2283006 -0.72641355 -0.56930029
-3.420435 -0.76964647 -0.57322395
-3.5976291 -0.80951768 -0.57149452
-3.8098781 -0.85727674 -0.57201743
-4.0603085 -0.91362721 -0.57432801
-4.3286543 -0.97400874 -0.57474995
-4.6477351 -1.0458064 -0.57690132
-4.9792676 -1.120406 -0.57505536
-5.4032269 -1.2158029 -0.57744712
-5.8661966 -1.3199776 -0.57645094
-6.4448409 -1.4501809 -0.57794768
-7.1342206 -1.605301 -0.57857084
-8.0232067 -1.8053356 -0.58193278
-9.1176786 -2.0516074 -0.58329892
-10.606339 -2.3865771 -0.587874
-12.618778 -2.8394046 -0.59165049
-15.603481 -3.5110052 -0.59843802
-20.445065 -4.6004305 -0.60976386
-29.571369 -6.6539788 -0.62987816
-53.461117 -12.029511 -0.68317884
-11.581669 -2.60604 0.74093139
-10.876044 -2.4472647 0.78885251
-10.384321 -2.3366201 0.84214741
-10.01449 -2.2534027 0.89805967
-9.6811743 -2.1784019 0.95133561
-9.4212303 -2.1199107 1.0068542
-9.2114363 -2.0727041 1.0638282
-7.4273152 -1.6712515 0.92191744
-6.5310154 -1.4695712 0.86717498
-5.9470181 -1.3381636 0.84120178
-5.5507832 -1.2490051 0.83339798
-5.228869 -1.1765698 0.83062196
-4.9649973 -1.117195 0.83207417
-4.7371693 -1.0659305 0.83538443
-4.5551476 -1.0249729 0.84329695
-4.3663149 -0.98248291 0.84680641
-4.2252688 -0.95074558 0.85679466
-4.0798249 -0.91801864 0.86347783
-3.93978 -0.88650656 0.86889231
-3.8105078 -0.85741842 0.87440789
-3.6938705 -0.83117342 0.88075
-3.6022625 -0.81056029 0.89131862
-3.5254211 -0.79326987 0.90415287
-3.4086566 -0.7669962 0.90512753
-3.3380446 -0.75110751 0.91678834
-2.0732627 -0.49337253 -0.57104123
-2.1324844 -0.50746548 -0.56786948
-2.2032888 -0.5243147 -0.56668067
-2.2881734 -0.5445146 -0.56778336
-2.3810365 -0.5666132 -0.56934196
-2.4686258 -0.5874567 -0.56809717
-2.5788357 -0.61368328 -0.57036626
-2.6903815 -0.64022774 -0.57103097
-2.8057036 -0.66767079 -0.57055867
-2.935375 -0.69852859 -0.57091153
-3.0808589 -0.73314929 -0.57198685
-3.2308388 -0.7688399 -0.57137191
-3.3917346 -0.80712807 -0.57003433
-3.5998352 -0.85664958 -0.57347488
-3.8018978 -0.90473425 -0.57244635
-4.0267782 -0.95824891 -0.57120866
-4.3120618 -1.0261376 -0.57417881
-4.6111293 -1.0973064 -0.57398903
-4.9645181 -1.1814021 -0.57498622
-5.3720045 -1.2783712 -0.57574677
-5.8532329 -1.3928888 -0.5768165
-6.4256911 -1.529116 -0.57787287
-7.1367145 -1.6983176 -0.58042276
-7.9924216 -1.9019496 -0.58135229
-9.1048336 -2.1666691 -0.58413738
-10.575021 -2.5165284 -0.58780879
-12.590716 -2.9962018 -0.59201747
-15.565635 -3.7041404 -0.59868813
-20.365648 -4.8463955 -0.60912663
-29.487764 -7.0171776 -0.6298877
-53.275482 -12.67792 -0.68274719
-11.267428 -2.6812999 0.72288263
-10.685845 -2.5429013 0.77726638
-10.249663 -2.4391034 0.83359617
-9.8972607 -2.3552425 0.89007682
-9.5912809 -2.2824287 0.94518858
-9.3488617 -2.2247403 1.001968
-8.0439434 -1.9142101 0.93164247
-6.9795833 -1.6609254 0.86881196
-6.3068871 -1.5008445 0.83980268
-5.8245625 -1.386066 0.82622886
-5.4571223 -1.2986267 0.82167119
-5.1663961 -1.2294427 0.82303727
-4.9306669 -1.1733465 0.8286761
-4.740036 -1.1279821 0.83827251
-4.5236101 -1.0764794 0.83984548
-4.357461 -1.0369412 0.84749812
-4.1955719 -0.99841654 0.85319769
-4.0677094 -0.96798921 0.8633675
-3.930424 -0.93531954 0.86929971
-3.8089349 -0.90640891 0.87653834
-3.716794 -0.8844822 0.88874179
-3.6047437 -0.85781771 0.89447486
-3.5040123 -0.83384675 0.90122372
-3.4113846 -0.81180423 0.90843397
-3.3215966 -0.79043746 0.91487128
-2.0649629 -0.51830578 -0.57046741
-2.1439769 -0.53813833 -0.5726487
-2.2043359 -0.55328846 -0.56865686
-2.2736225 -0.57067943 -0.56587124
-2.3703227 -0.59495115 -0.56848645
-2.457643 -0.61686856 -0.56727242
-2.5820727 -0.64810044 -0.57280147
-2.6711512 -0.67045909 -0.56865621
-2.7902002 -0.70034045 -0.56911421
-2.9335268 -0.73631537 -0.57226974
-3.0623462 -0.7686491 -0.57026148
-3.2170644 -0.80748338 -0.57064873
-3.3972692 -0.85271484 -0.57268345
-3.5759952 -0.89757502 -0.57139212
-3.8021333 -0.95433575 -0.57420534
-4.0233669 -1.0098654 -0.57244301
-4.2990646 -1.0790656 -0.57417154
-4.5971479 -1.1538845 -0.57397151
-4.9441361 -1.2409785 -0.57434946
-5.3501043 -1.3428766 -0.57512587
-5.8355103 -1.4647135 -0.5768013
-6.4130278 -1.6096704 -0.57847035
-7.0992022 -1.7819003 -0.57911021
-7.9648132 -1.9991686 -0.58108824
-9.0767517 -2.2782652 -0.58408892
-10.535054 -2.6442993 -0.58735025
-12.551153 -3.1503401 -0.59193391
-15.497468 -3.8898654 -0.59786081
-20.310274 -5.0978799 -0.60929918
-29.374207 -7.3729277 -0.62935102
-53.080914 -13.323313 -0.68230164
-11.890643 -2.9845521 0.66292703
-11.107872 -2.7880766 0.71479148
-10.594079 -2.6591146 0.77291143
-10.154553 -2.5487936 0.82834733
-9.8083305 -2.4618917 0.88473475
-9.5476151 -2.3964522 0.94371814
-8.8246365 -2.2149844 0.94863141
-7.4847536 -1.8786736 0.86948746
-6.7091455 -1.683996 0.83766246
-6.1547685 -1.5448472 0.82201433
-5.7281709 -1.4377712 0.81500173
-5.4071364 -1.3571916 0.81659585
-5.135169 -1.2889278 0.82052553
-4.9045625 -1.2310455 0.82677042
-4.6942482 -1.1782566 0.83267432
-4.5151277 -1.1332973 0.84079432
-4.3572111 -1.0936602 0.8500008
-4.1931291 -1.0524757 0.85526812
-4.0533276 -1.0173855 0.86290503
-3.9236243 -0.98482996 0.87040836
-3.8077583 -0.9557476 0.87890565
-3.6893187 -0.92601925 0.88482791
-3.6045673 -0.90474665 0.89712381
-3.5017807 -0.8789472 0.90336126
-3.4162908 -0.85748923 0.91247928
-3.333122 -0.83661383 0.92080957
-2.0414851 -0.53918004 -0.56577027
-2.1142454 -0.55839694 -0.5664987
-2.2033596 -0.58193302 -0.57020783
-2.2670436 -0.59875268 -0.56602347
-2.3655834 -0.62477827 -0.56914932
-2.4651906 -0.65108567 -0.57081938
-2.554589 -0.6746968 -0.56850201
-2.6645143 -0.70372939 -0.56904244
-2.7942371 -0.73799074 -0.57174534
-2.931983 -0.77437097 -0.57378274
-3.0463285 -0.80457097 -0.56907803
-3.2175336 -0.84978825 -0.57254219
-3.3779452 -0.89215481 -0.57123208
-3.569566 -0.9427641 -0.57217389
-3.7681623 -0.99521571 -0.57087994
-4.0037045 -1.0574253 -0.57145226
-4.2751679 -1.1291218 -0.57279098
-4.5637741 -1.2053461 -0.57161194
-4.9304399 -1.3021868 -0.57457513
-5.3216748 -1.4055165 -0.57388425
-5.8182011 -1.5366549 -0.57691443
-6.3902578 -1.6877419 -0.57824475
-7.0825949 -1.8705962 -0.579588
-7.9380255 -2.0965254 -0.58097082
-9.0388231 -2.387259 -0.58349311
-10.508457 -2.7754066 -0.5877257
-12.517781 -3.3060923 -0.59223253
-15.446249 -4.079535 -0.59777492
-20.253454 -5.349174 -0.60952181
-29.271307 -7.7308946 -0.62913555
-52.891926 -13.969377 -0.68202883
-11.714692 -3.0939872 0.65518898
-11.01131 -2.9082155 0.7108252
-10.502317 -2.7737849 0.76864702
-10.098855 -2.6672258 0.82641673
-9.7585115 -2.577337 0.88303286
-9.7846432 -2.5842385 0.97021425
-8.09554 -2.1381266 0.87301517
-7.1896224 -1.8988634 0.83785182
-6.54811 -1.7294323 0.8201496
-6.0612502 -1.600847 0.81209195
-5.6810794 -1.5004395 0.8108654
-5.3671861 -1.4175366 0.81313348
-5.1033478 -1.3478539 0.81802732
-4.8747125 -1.2874686 0.82434493
-4.6806774 -1.2362217 0.83290058
-4.5129638 -1.1919266 0.84305698
-4.3266416 -1.1427166 0.8467145
-4.1897449 -1.1065606 0.85728842
-4.0509558 -1.0699048 0.86513549
-3.9274735 -1.0372916 0.8740257
-3.8017528 -1.0040874 0.88030279
-3.7043173 -0.97835356 0.89124304
-3.6050885 -0.95214605 0.90009946
-3.502794 -0.92512882 0.90648872
-3.4073164 -0.89991212 0.91296887
-3.3363116 -0.88115889 0.92461413
-2.0478642 -0.5678907 -0.56943041
-2.1098475 -0.58507919 -0.56720507
-2.1836815 -0.60555398 -0.5669995
-2.2695146 -0.62935627 -0.56852967
-2.3621171 -0.65503579 -0.57021016
-2.4566739 -0.68125719 -0.57074386
-2.5446763 -0.70566106 -0.56818408
-2.6575563 -0.73696363 -0.56944877
-2.7786622 -0.77054739 -0.57045406
-2.896188 -0.80313832 -0.56866741
-3.0497072 -0.84571052 -0.5716086
-3.1917772 -0.88510782 -0.56985265
-3.3669465 -0.93368381 -0.57127047
-3.5451012 -0.98308766 -0.57014704
-3.7733493 -1.0463828 -0.57357174
-3.9986866 -1.1088709 -0.57263887
-4.2643352 -1.1825374 -0.57324445
-4.5644093 -1.2657506 -0.57359755
-4.9181066 -1.363834 -0.57504869
-5.3151913 -1.4739492 -0.57509613
-5.7982206 -1.6078974 -0.57685012
-6.3614626 -1.7640893 -0.57755834
-7.0636554 -1.9588135 -0.57996535
-7.9263821 -2.1980553 -0.58205277
-8.9919949 -2.4935589 -0.58240545
-10.462666 -2.9013889 -0.58711559
-12.473001 -3.4588726 -0.59208143
-15.404974 -4.2719345 -0.59816527
-20.159279 -5.5903449 -0.60871041
-29.171371 -8.0894766 -0.62907797
-52.669086 -14.605599 -0.68141967
-13.499657 -3.7435732 0.64081579
-11.630587 -3.2252636 0.65265381
-10.926538 -3.0300248 0.70770454
-10.437223 -2.8943336 0.76642978
-10.046331 -2.7859359 0.82485962
-9.7196054 -2.6953318 0.88244468
-8.778409 -2.4343297 0.87334138
-7.7298779 -2.1435628 0.83636177
-7.0186701 -1.9463388 0.82065672
-6.4603562 -1.7915134 0.81185627
-5.9915195 -1.6615008 0.80542582
-5.627635 -1.5605924 0.80591524
-5.3424425 -1.4815062 0.81208336
-5.0925756 -1.4122158 0.81902218
-4.8753982 -1.3519906 0.82720971
-4.6852527 -1.2992616 0.83649433
-4.5052652 -1.2493495 0.84442478
-4.3466129 -1.2053539 0.85345882
-4.1927242 -1.1626792 0.8607583
-4.0668473 -1.1277723 0.87142503
-3.9369209 -1.0917426 0.87904924
-3.8135731 -1.0575372 0.88598388
-3.7114985 -1.0292311 0.89594799
-3.6118226 -1.00159 0.90478736
-3.4991753 -0.97035199 0.90857148
-3.4063594 -0.94461334 0.91575551
-3.3363237 -0.92519182 0.92770028
-2.0366371 -0.59183884 -0.56828916
-2.106389 -0.61210853 -0.56825584
-2.1760454 -0.63235039 -0.56699288
-2.2615504 -0.65719783 -0.56851596
-2.3544092 -0.68418223 -0.57033724
-2.4563234 -0.71379811 -0.5726583
-2.525857 -0.73400432 -0.56595457
-2.6466618 -0.76910967 -0.56909776
-2.7617543 -0.80255514 -0.56896585
-2.8863149 -0.83875197 -0.56871098
-3.0480676 -0.88575667 -0.57329941
-3.1776731 -0.92341954 -0.56931871
-3.3547616 -0.97488075 -0.57119375
-3.5563731 -1.0334684 -0.57396024
-3.7404075 -1.086948 -0.57055295
-3.9782307 -1.1560585 -0.571702
-4.2534375 -1.2360326 -0.57377934
-4.5599399 -1.3251009 -0.57504004
-4.8983736 -1.4234486 -0.57474458
-5.2881703 -1.5367219 -0.57417363
-5.7763243 -1.6785777 -0.57668161
-6.345057 -1.8438492 -0.57808363
-7.0347672 -2.0442762 -0.57961351
-7.9036927 -2.2967827 -0.58241653
-8.9672194 -2.6058393 -0.5828321
-10.428093 -3.0303636 -0.58722216
-12.428329 -3.6116242 -0.59202421
-15.346797 -4.4597201 -0.59799045
-20.093443 -5.839077 -0.6088444
-29.063112 -8.4456282 -0.6289354
-52.448811 -15.241423 -0.68094313
-13.198693 -3.8354895 0.62872058
-11.562858 -3.3601217 0.65112251
-10.872354 -3.1594641 0.70665795
-10.396521 -3.0211887 0.76611096
-10.007063 -2.9080141 0.82450908
-9.6151457 -2.7941244 0.87601388
-8.3811588 -2.4355323 0.83673626
-7.5380087 -2.1905162 0.81845433
-6.8884468 -2.001756 0.80824733
-6.3775253 -1.8532844 0.80425018
-5.9603705 -1.7320608 0.80404085
-5.6105695 -1.6304098 0.80628145
-5.3194647 -1.5458159 0.81141859
-5.0786142 -1.4758258 0.81963354
-4.8736367 -1.41626 0.82980293
-4.6755147 -1.3586866 0.83767527
-4.4990234 -1.3073989 0.84620416
-4.3475699 -1.2633871 0.85663235
-4.1855106 -1.2162933 0.86228263
-4.0564604 -1.1787918 0.87223941
-3.9393575 -1.144762 0.88266963
-3.8166392 -1.1091006 0.88979739
-3.7049317 -1.0766388 0.89749074
-3.6131902 -1.0499791 0.90829563
-3.5100355 -1.0200028 0.91457891
-3.4271042 -0.99590325 0.92455477
-3.32057 -0.96494484 0.92654902
-2.034678 -0.61849904 -0.56982166
-2.1010869 -0.63868594 -0.56890118
-2.1726105 -0.66042763 -0.56817096
-2.2360094 -0.67969948 -0.56415379
-2.3536332 -0.7154547 -0.57223713
-2.4197063 -0.7355395 -0.56618732
-2.5278387 -0.76840943 -0.56847268
-2.6352019 -0.8010456 -0.56870866
-2.7562635 -0.83784574 -0.5699141
-2.8874907 -0.87773603 -0.57102609
-3.0442481 -0.92538697 -0.57467782
-3.1804724 -0.96679622 -0.57190692
-3.3557434 -1.020075 -0.57345325
-3.5394738 -1.0759251 -0.57332468
-3.7254 -1.1324427 -0.57034469
-3.9787261 -1.2094486 -0.57386702
-4.2312336 -1.2862054 -0.57287431
-4.5490856 -1.3828257 -0.57577199
-4.8843975 -1.4847535 -0.57520342
-5.2832022 -1.6059816 -0.57573485
-5.7399769 -1.7448314 -0.57515132
-6.3303385 -1.9242889 -0.57885468
-7.0055771 -2.1295471 -0.57932222
-7.8644872 -2.3906376 -0.58164972
-8.9369898 -2.7166557 -0.5829944
-10.385452 -3.1569576 -0.58696258
-12.363249 -3.7581658 -0.59108078
-15.287297 -4.6470146 -0.59785336
-20.008989 -6.0823088 -0.60850561
-28.939655 -8.7970428 -0.62855715
-52.231438 -15.877252 -0.68060422
-13.093203 -3.9800565 0.62597948
-11.523702 -3.5029614 0.65129393
-10.831126 -3.292433 0.70655626
-10.353025 -3.1471004 0.76569957
-9.948452 -3.0241187 0.82268155
-9.1306152 -2.7755136 0.83491576
-8.1332006 -2.4723208 0.81495476
-7.4158411 -2.2542586 0.80813831
-6.8450584 -2.0807528 0.80609757
-6.3560386 -1.9321011 0.80447572
-5.9431047 -1.8065779 0.80464756
-5.6090922 -1.7050453 0.80902106
-5.3222866 -1.6178625 0.81482202
-5.0940061 -1.54847 0.8251282
-4.8633757 -1.4783633 0.83108819
-4.692318 -1.4263654 0.84376436
-4.5222998 -1.3746834 0.85369688
-4.3506694 -1.3225113 0.86038226
-4.2256875 -1.2845196 0.87374777
-4.0753679 -1.2388256 0.87951404
-3.9458237 -1.1994468 0.8873561
-3.8279996 -1.1636308 0.89571404
-3.7251103 -1.1323546 0.90568334
-3.6381621 -1.1059242 0.91792232
-3.5249135 -1.0714991 0.92181891
-3.4387913 -1.0453198 0.93110496
-3.3505819 -1.0185059 0.93834698
-2.0180988 -0.64066958 -0.56734192
-2.093636 -0.66464972 -0.56905365
-2.1680453 -0.68827182 -0.56914729
-2.2513444 -0.71471614 -0.57019717
-2.3352082 -0.74133974 -0.56993073
-2.4232891 -0.76930201 -0.56919611
-2.5277851 -0.80247551 -0.57063657
-2.6253645 -0.8334533 -0.56875437
-2.7498415 -0.87296993 -0.57076263
-2.878583 -0.91384053 -0.57144356
-3.0002325 -0.95245957 -0.56853664
-3.1649029 -1.0047362 -0.57128567
-3.3252373 -1.0556363 -0.57041526
-3.5171671 -1.1165667 -0.5718922
-3.7194788 -1.1807929 -0.5716179
-3.9532559 -1.2550082 -0.57237589
-4.2132897 -1.337559 -0.57262832
-4.5152063 -1.4334061 -0.57367146
-4.8511114 -1.5400432 -0.57347029
-5.2736359 -1.6741785 -0.57689214
-5.7382236 -1.8216676 -0.57717651
-6.298131 -1.9994168 -0.57811403
-6.9594884 -2.2093725 -0.57771385
-7.833395 -2.4868047 -0.58156782
-8.9186392 -2.8313284 -0.58402431
-10.339509 -3.2824004 -0.58660281
-12.313467 -3.9090571 -0.59095418
-15.234812 -4.836473 -0.59808135
-19.936491 -6.3290768 -0.60862166
-28.819244 -9.1490126 -0.6283378
-51.987316 -16.503994 -0.68001622
-16.054785 -5.0967832 0.63027149
-13.030124 -4.1365681 0.62534827
-11.464128 -3.6394243 0.65040708
-10.784462 -3.423656 0.70620507
-10.284363 -3.2648938 0.76353288
-9.9196405 -3.1491084 0.823439
-8.8774042 -2.8182378 0.81486899
-8.013298 -2.5439169 0.80601382
-7.3548317 -2.3348792 0.80455774
-6.7987003 -2.1583285 0.80370295
-6.3472543 -2.0150115 0.8064391
-5.9561553 -1.8908526 0.80950129
-5.6162195 -1.782936 0.81314969
-5.3548498 -1.6999609 0.82294536
-5.1075292 -1.621446 0.8304854
-4.895927 -1.5542704 0.83985329
-4.7031851 -1.4930823 0.84895575
-4.5251479 -1.4365622 0.85750437
-4.3754296 -1.3890324 0.86859095
-4.2168264 -1.3386819 0.87525302
-4.0824337 -1.2960172 0.88441122
-3.9488859 -1.253621 0.89144397
-3.8470569 -1.221294 0.90361887
-3.7325411 -1.1849396 0.91096365
-3.6271243 -1.1514739 0.91864038
-3.5406866 -1.1240332 0.92948806
-3.4418437 -1.0926543 0.93549865
-3.3709586 -1.0701511 0.94766724
-2.0110133 -0.6657474 -0.56760848
-2.0841768 -0.68996823 -0.56874561
-2.1547475 -0.71333075 -0.56791615
-2.22876 -0.73783261 -0.56673217
-2.3206277 -0.76824546 -0.56863475
-2.4042511 -0.79592901 -0.56698036
-2.5190613 -0.83393699 -0.57093894
-2.6218867 -0.86797744 -0.57027
-2.7361288 -0.90579736 -0.57018512
-2.8534031 -0.94462115 -0.56870782
-2.9813371 -0.9869737 -0.56721294
-3.156178 -1.044855 -0.57198673
-3.2998867 -1.0924299 -0.56832796
-3.5058713 -1.1606212 -0.5723328
-3.7040014 -1.2262123 -0.5715133
-3.9333911 -1.3021519 -0.57177484
-4.1983767 -1.3898755 -0.57288098
-4.4925776 -1.487271 -0.57307667
-4.8374085 -1.6014276 -0.57413483
-5.2505069 -1.738184 -0.57665652
-5.7062912 -1.8890718 -0.57625759
-6.2791376 -2.0787129 -0.57867306
-6.9492779 -2.3005633 -0.57917076
-7.7830176 -2.5765736 -0.58013606
-8.8739395 -2.9377241 -0.58341867
-10.289139 -3.4062266 -0.58607703
-12.266829 -4.0609422 -0.59106767
-15.165256 -5.0204687 -0.59772909
-19.836864 -6.567008 -0.60799944
-28.667913 -9.4905329 -0.62753534
-51.744232 -17.129965 -0.67954046
-15.916801 -5.2692685 0.62735081
-12.988904 -4.2999859 0.62586033
-11.419759 -3.7805192 0.65047807
-10.726171 -3.5509069 0.705194
-10.23747 -3.3891215 0.76308769
-9.7452164 -3.2261608 0.81219155
-8.7397547 -2.893302 0.80543882
-7.9649754 -2.6368108 0.80435383
-7.3337188 -2.4278328 0.805453
-6.8141098 -2.255816 0.80874252
-6.3559647 -2.1041465 0.81077176
-5.9789524 -1.9793365 0.81584585
-5.6457767 -1.8690383 0.82069463
-5.3745723 -1.779256 0.82927603
-5.1208644 -1.6952659 0.83598012
-4.9102154 -1.6255302 0.84566921
-4.7221956 -1.5632862 0.85579234
-4.5539231 -1.5075794 0.86640465
-4.3794761 -1.4498286 0.87286729
-4.2471008 -1.4060057 0.88505846
-4.1090956 -1.360319 0.8937434
-3.9854565 -1.3193882 0.90329379
-3.8684883 -1.2806658 0.91228276
-3.7515557 -1.2419552 0.91926211
-3.6284213 -1.2011914 0.92264003
-3.5512869 -1.1756561 0.9359951
-3.4501076 -1.1421605 0.94149089
-3.3782866 -1.1183842 0.95352143
-1.9979587 -0.68879741 -0.5662716
-2.0839481 -0.71844232 -0.57105082
-2.1506436 -0.74143565 -0.56919444
-2.2291546 -0.7685023 -0.56919241
-2.325948 -0.8018719 -0.57231128
-2.4046791 -0.82901442 -0.56944215
-2.5009863 -0.86221647 -0.56920224
-2.6118574 -0.90043932 -0.5704537
-2.7198601 -0.93767333 -0.56915462
-2.8423169 -0.97989041 -0.56885678
-2.9799936 -1.0273546 -0.56931782
-3.1306543 -1.0792949 -0.56972319
-3.3068941 -1.1400536 -0.57190591
-3.5000801 -1.2066545 -0.57376623
-3.6993618 -1.2753571 -0.57317382
-3.927372 -1.3539637 -0.5732767
-4.1802659 -1.4411491 -0.57278454
-4.472877 -1.5420269 -0.5729391
-4.8319678 -1.6658236 -0.57587671
-5.2192287 -1.7993321 -0.57560778
-5.6751881 -1.9565244 -0.57550263
-6.2524743 -2.155544 -0.57861483
-6.9183264 -2.385097 -0.57899171
-7.7657595 -2.6772501 -0.58125955
-8.8269415 -3.0430932 -0.58274484
-10.253307 -3.5348334 -0.58646762
-12.216447 -4.211627 -0.59109074
-15.098943 -5.2053695 -0.59759307
-16.900776 -5.8265524 -0.52016503
-28.55924 -9.8458147 -0.62775922
-51.499069 -17.754333 -0.67913651
-15.845184 -5.4626365 0.62712818
-12.928915 -4.4572506 0.62556338
-11.345152 -3.9112477 0.64891887
-10.668732 -3.6780515 0.70433778
-10.187521 -3.5121536 0.76252604
-9.621562 -3.317039 0.80522436
-8.6888151 -2.9954741 0.80407804
-7.9592528 -2.743957 0.80712229
-7.3509417 -2.5342414 0.81070584
-6.8256526 -2.3531477 0.81348526
-6.3903513 -2.2030773 0.8185519
-6.0120468 -2.0726566 0.82377708
-5.6963158 -1.9638082 0.83148867
-5.420198 -1.8686163 0.83979768
-5.1588459 -1.7785152 0.84568685
-4.9492321 -1.7062507 0.85593772
-4.754931 -1.6392652 0.86531252
-4.5741978 -1.5769573 0.87388515
-4.420424 -1.5239438 0.8846966
-4.2649283 -1.4703364 0.8924737
-4.1260128 -1.4224453 0.90115923
-3.9920423 -1.3762589 0.90855336
-3.8821647 -1.3383785 0.91931957
-3.7792323 -1.3028924 0.92989922
-3.6717641 -1.2658428 0.9375484
-3.581707 -1.2347956 0.94794303
-3.4890687 -1.2028584 0.95608693
-3.3914216 -1.1691946 0.96121395
-2.0022266 -0.71793252 -0.56994021
-2.0747313 -0.74393034 -0.57098871
-2.1490614 -0.77058274 -0.57124031
-2.2131653 -0.79356819 -0.56755841
-2.2926121 -0.82205528 -0.56655318
-2.4005027 -0.86074126 -0.57091647
-2.4839289 -0.8906551 -0.56776977
-2.5962367 -0.93092507 -0.56949914
-2.7107685 -0.97199237 -0.56971014
-2.8408971 -1.0186522 -0.57103634
-2.9746189 -1.0666004 -0.57075346
-3.1217542 -1.1193583 -0.57056522
-3.2915895 -1.1802557 -0.57172585
-3.4832404 -1.2489754 -0.57347995
-3.6874158 -1.322186 -0.57379854
-3.8955009 -1.3967984 -0.57108843
-4.161057 -1.4920181 -0.57262307
-4.4678555 -1.602026 -0.5747757
-4.7965679 -1.7198913 -0.57413483
-5.2052703 -1.8664386 -0.57655591
-5.6719522 -2.0337756 -0.57766682
-6.2163939 -2.2289941 -0.57776862
-6.8926129 -2.4714642 -0.57933933
-7.7129493 -2.7656097 -0.57980835
-8.7999067 -3.1553569 -0.58347744
-10.22179 -3.6651976 -0.58719838
-12.166703 -4.3625793 -0.5912348
-15.020953 -5.3860192 -0.59708244
-19.648438 -7.0452828 -0.60735178
-28.413479 -10.188138 -0.62726152
-51.230049 -18.36941 -0.67851633
-15.772471 -5.655489 0.62695527
-12.878106 -4.6176653 0.62580508
-11.311811 -4.0560431 0.64981544
-10.633401 -3.8127878 0.70504719
-10.134957 -3.6340623 0.76187885
-9.5896635 -3.4385376 0.80603236
-8.6986113 -3.1190357 0.80847269
-8.006381 -2.8708246 0.8154195
-7.4032769 -2.6545715 0.82001561
-6.8955712 -2.4725249 0.82537925
-6.4433837 -2.3103852 0.82892132
-6.0705137 -2.1766865 0.83539259
-5.7289138 -2.0541999 0.83987057
-5.4589128 -1.9573865 0.84946108
-5.2044201 -1.8661338 0.85685468
-4.9839644 -1.7870857 0.86567944
-4.785933 -1.716078 0.87472838
-4.6105299 -1.6531843 0.88464302
-4.4548502 -1.5973626 0.89544994
-4.2806888 -1.5349141 0.89965332
-4.1692944 -1.4949718 0.91455817
-4.0290132 -1.4446716 0.92094105
-3.9044516 -1.4000078 0.92860365
-3.8050985 -1.3643831 0.94032079
-3.6925471 -1.3240259 0.94694066
-3.6033647 -1.292048 0.95780742
-3.4975801 -1.2541171 0.96257222
-3.4198463 -1.2262443 0.97347027
-1.9911721 -0.74172354 -0.56934673
-2.0416298 -0.76051933 -0.56440979
-2.1431067 -0.79832006 -0.57222348
-2.2228017 -0.82800698 -0.57259744
-2.3000503 -0.85678244 -0.57095164
-2.3938093 -0.89170831 -0.5718891
-2.4803467 -0.92394394 -0.5695048
-2.5948093 -0.96658194 -0.57174993
-2.7108314 -1.0098009 -0.57228971
-2.8121321 -1.047536 -0.56780064
-2.9537399 -1.1002858 -0.56930029
-3.1009121 -1.1551083 -0.56930888
-3.2727094 -1.2191038 -0.57100707
-3.4526289 -1.2861248 -0.57100064
-3.6437428 -1.357316 -0.56955671
-3.8893502 -1.4488062 -0.57275516
-4.1565557 -1.5483418 -0.57458019
-4.4280643 -1.6494805 -0.57222277
-4.7710795 -1.7772557 -0.57365644
-5.1609092 -1.9224695 -0.57421726
-5.6212559 -2.0939515 -0.57508248
-6.1974497 -2.3085871 -0.57860261
-6.8595691 -2.5552304 -0.57915908
-7.705833 -2.8704689 -0.58188277
-8.7570257 -3.2620444 -0.58324975
-10.163762 -3.786062 -0.58649492
-12.106434 -4.5097189 -0.59095609
-14.957779 -5.5718622 -0.59724957
-19.575735 -7.292078 -0.60783023
-28.27281 -10.531791 -0.62696767
-50.944527 -18.97714 -0.67777407
-15.714789 -5.8538532 0.62747627
-12.827629 -4.7783685 0.62616009
-11.242174 -4.187777 0.6487242
-10.560968 -3.9340236 0.70339882
-10.084526 -3.7565463 0.76150262
-9.6492624 -3.5944078 0.81469518
-8.7965536 -3.2767689 0.8212586
-8.080121 -3.0098934 0.82663661
-7.4832706 -2.7875631 0.83260977
-6.9846621 -2.6018283 0.83980918
-6.5337658 -2.4338667 0.84433496
-6.1453786 -2.2891903 0.84950459
-5.7959991 -2.1590443 0.85353291
-5.5181985 -2.055562 0.86255461
-5.2748551 -1.964915 0.87236303
-5.0255117 -1.8720332 0.8768279
-4.8353276 -1.8011883 0.88773715
-4.6524916 -1.7330809 0.89671558
-4.4824505 -1.6697397 0.90505642
-4.3333673 -1.6142052 0.91482687
-4.195137 -1.5627136 0.9243722
-4.0645232 -1.5140592 0.93324274
-3.9347467 -1.4657167 0.9400242
-3.8274622 -1.4257525 0.95010787
-3.719152 -1.3854064 0.95805973
-3.62076 -1.3487548 0.9667666
-3.5241086 -1.3127515 0.97424203
-3.4366496 -1.2801725 0.98265994
-1.9754626 -0.76366079 -0.5674969
-2.045831 -0.79086334 -0.56821674
-2.1254754 -0.8216517 -0.5701704
-2.1954296 -0.84869409 -0.56819165
-2.2834828 -0.88273311 -0.56949043
-2.3660128 -0.91463703 -0.56789237
-2.462369 -0.95188576 -0.5680216
-2.5716496 -0.99413061 -0.56929731
-2.6871288 -1.0387719 -0.56993932
-2.8135672 -1.0876496 -0.57074767
-2.9533229 -1.1416754 -0.57188243
-3.0953596 -1.1965829 -0.57094765
-3.2470572 -1.2552252 -0.56918138
-3.4404271 -1.3299767 -0.57164413
-3.6319788 -1.4040254 -0.57037336
-3.8627005 -1.4932163 -0.57149142
-4.1225843 -1.5936804 -0.57254988
-4.4177976 -1.7078018 -0.57356638
-4.7481179 -1.8354949 -0.57356596
-5.1496749 -1.9907261 -0.57564741
-5.6092224 -2.1683748 -0.57653558
-6.1546569 -2.379225 -0.57729512
-6.8217721 -2.6371138 -0.57866198
-7.6519022 -2.95802 -0.58051306
-8.7153378 -3.3691156 -0.5831883
-10.118016 -3.9113533 -0.58658624
-12.056692 -4.6607933 -0.59128088
-14.881526 -5.7527986 -0.59698427
-19.460907 -7.5230641 -0.60709125
-28.130571 -10.874524 -0.62673134
-50.659016 -19.583414 -0.67712814
-15.659529 -6.0535536 0.62819451
-12.763137 -4.9338861 0.62592614
-11.184448 -4.3236074 0.64841199
-10.521952 -4.0675039 0.7040782
-10.036581 -3.8798728 0.76142716
-9.6704683 -3.7383435 0.82030481
-8.938715 -3.4554672 0.83843452
-8.2201242 -3.1776793 0.84489322
-7.6239872 -2.9472287 0.85223407
-7.1014781 -2.7452407 0.85784858
-6.640964 -2.5672183 0.86220199
-6.2477341 -2.4152062 0.86769342
-5.8974543 -2.2797976 0.87253582
-5.5977006 -2.1639209 0.87907439
-5.3344612 -2.0621593 0.88634735
-5.1136961 -1.9768176 0.89638728
-4.8975906 -1.893277 0.9033742
-4.7105966 -1.8209902 0.91216153
-4.5383663 -1.7544106 0.92063266
-4.3967447 -1.6996634 0.9325484
-4.2406745 -1.639331 0.93877679
-4.0942283 -1.5827187 0.94446045
-3.975594 -1.536858 0.95422542
-3.8525476 -1.4892915 0.96080828
-3.7457774 -1.448017 0.96943188
-3.6351252 -1.4052418 0.97514224
-3.5696404 -1.3799272 0.99144518
-3.4640186 -1.3390965 0.9951188
-1.963374 -0.78687066 -0.56676096
-2.0400975 -0.81761938 -0.56937361
-2.1021695 -0.84249634 -0.56665468
-2.1738489 -0.87122363 -0.56533629
-2.2745218 -0.91157085 -0.57000804
-2.3634255 -0.94720113 -0.57002383
-2.4547439 -0.98379922 -0.5690102
-2.5603111 -1.0261079 -0.5695374
-2.670866 -1.0704155 -0.56923866
-2.7970655 -1.1209931 -0.5701533
-2.9185476 -1.16968 -0.5678907
-3.0919249 -1.2391652 -0.57308137
-3.231137 -1.294958 -0.56913894
-3.4304481 -1.3748368 -0.57275176
-3.6180539 -1.4500245 -0.57094353
-3.8396339 -1.5388281 -0.57083511
-4.0857253 -1.6374553 -0.57018411
-4.3932524 -1.7607045 -0.5731473
-4.7502365 -1.9037746 -0.57660621
-5.1170416 -2.0507808 -0.57477498
-5.581552 -2.2369447 -0.57647514
-6.1229224 -2.4539125 -0.57710522
-6.800817 -2.7255955 -0.57968354
-7.6158619 -3.0522447 -0.58058232
-8.6698284 -3.4746478 -0.58295798
-10.050167 -4.0278525 -0.5854798
-11.980315 -4.8014073 -0.59038603
-14.814262 -5.9371815 -0.59716952
-19.375559 -7.7652335 -0.60736161
-27.994312 -11.219412 -0.62672186
-50.361801 -20.183737 -0.6764217
-15.568448 -6.23944 0.62757105
-12.703791 -5.0913582 0.62603873
-11.139194 -4.4643068 0.64892185
-10.468891 -4.1956668 0.70392674
-9.9865437 -4.0023541 0.76130724
-9.6041584 -3.8491039 0.81863296
-9.1298599 -3.6590168 0.86051875
-8.399025 -3.3661168 0.86747009
-7.7899656 -3.1220212 0.87501287
-7.2647505 -2.9115281 0.8818298
-6.7866201 -2.7199056 0.88538796
-6.3895087 -2.5607533 0.891689
-6.022501 -2.413666 0.89536005
-5.6903534 -2.2805498 0.89796078
-5.4195518 -2.1720192 0.90485495
-5.1666951 -2.0706809 0.91007203
-4.9723101 -1.9927762 0.9216066
-4.7646937 -1.9095687 0.92711365
-4.6080594 -1.8467937 0.93930596
-4.4377875 -1.778553 0.94582069
-4.2705903 -1.7115445 0.94998658
-4.1469197 -1.6619804 0.96125698
-4.0198178 -1.6110412 0.96952158
-3.88887 -1.5585606 0.97457284
-3.7764783 -1.513517 0.98211992
-3.6750836 -1.4728806 0.99064487
-3.5875273 -1.4377902 1.001248
-3.5009806 -1.4031044 1.0106169
-1.9524965 -0.81051433 -0.56645513
-2.019156 -0.83818579 -0.56636274
-2.0965967 -0.87033278 -0.56799436
-2.1766541 -0.90356594 -0.56891227
-2.2557793 -0.93641216 -0.56815374
-2.3542438 -0.97728634 -0.57066458
-2.4475639 -1.0160252 -0.57019877
-2.5485573 -1.0579492 -0.56977361
-2.6566617 -1.1028252 -0.56905848
-2.7766132 -1.1526191 -0.56883037
-2.9216411 -1.2128227 -0.57135135
-3.0451188 -1.2640804 -0.56724411
-3.2157202 -1.3348999 -0.56927162
-3.4089053 -1.4150941 -0.57201689
-3.5982428 -1.4936914 -0.57067251
-3.8342862 -1.5916771 -0.57290649
-4.075623 -1.6918601 -0.57163435
-4.3746533 -1.8159927 -0.5735907
-4.6952481 -1.949077 -0.57279736
-5.0968876 -2.1158042 -0.57539004
-5.5405164 -2.299962 -0.57511437
-6.0999889 -2.5322087 -0.57783473
-6.7548885 -2.8040686 -0.578664
-7.5793238 -3.1463053 -0.58070236
-8.6280613 -3.5816541 -0.58306682
-10.007447 -4.1542606 -0.58592272
-11.918812 -4.9477 -0.59030867
-14.72774 -6.1137342 -0.59666711
-19.274118 -8.0010128 -0.60721993
-27.827774 -11.55178 -0.62612617
-50.080502 -20.789263 -0.67602587
-15.501897 -6.4350996 0.6280306
-12.629828 -5.2428555 0.62552357
-11.07573 -4.597723 0.64846927
-10.402267 -4.3181572 0.70296413
-9.9170523 -4.1167364 0.75981128
-9.5606489 -3.9687872 0.81902218
-9.2376661 -3.8347116 0.87505811
-8.6637268 -3.5964596 0.89930862
-8.0052462 -3.323113 0.90371597
-7.4400401 -3.0884864 0.90764856
-6.9482064 -2.8843181 0.91102684
-6.5434475 -2.7162957 0.91776383
-6.1344881 -2.5465298 0.9165951
-5.8224072 -2.4169798 0.92341959
-5.5232043 -2.2927756 0.92679793
-5.278017 -2.190994 0.93435538
-5.0459285 -2.0946503 0.93995452
-4.8481946 -2.0125675 0.94810498
-4.6687942 -1.9380955 0.95647162
-4.493279 -1.865236 0.96246296
-4.3353357 -1.7996711 0.96923846
-4.1998935 -1.7434468 0.9784317
-4.0602822 -1.6854918 0.98420531
-3.9339464 -1.6330477 0.99082667
-3.8030818 -1.5787235 0.99401182
-3.7333639 -1.5497824 1.0114151
-3.6076312 -1.4975888 1.0119218
-3.5281589 -1.4645984 1.0235838
-1.9466401 -0.83628887 -0.56769657
-2.0169961 -0.86651421 -0.56870258
-2.085814 -0.89607882 -0.56801534
-2.1657755 -0.93043077 -0.56901622
-2.2494886 -0.96639448 -0.56951928
-2.3352716 -1.0032474 -0.56901306
-2.4183815 -1.0389519 -0.56633371
-2.5176435 -1.0815954 -0.56579292
-2.645803 -1.1366537 -0.56968331
-2.7606225 -1.1859808 -0.56849903
-2.8863249 -1.2399834 -0.56738383
-3.0552711 -1.3125638 -0.57209855
-3.2069981 -1.3777466 -0.57068354
-3.3992035 -1.4603193 -0.57335877
-3.5903013 -1.542416 -0.57237774
-3.8164775 -1.6395829 -0.57321465
-4.0568419 -1.7428448 -0.57196277
-4.3364 -1.8629447 -0.57153541
-4.6790323 -2.0101418 -0.57379115
-5.0578008 -2.172863 -0.57395035
-5.51896 -2.37098 -0.57585961
-6.0655732 -2.6058085 -0.57756627
-6.7227941 -2.8881545 -0.57891315
-7.5302844 -3.2350576 -0.57994908
-8.5897436 -3.690208 -0.58349979
