# .PCD v0.7 - Point Cloud Data file format
VERSION 0.7
FIELDS x y z
SIZE 4 4 4
TYPE F F F
COUNT 1 1 1
WIDTH 1462
HEIGHT 1
VIEWPOINT 0 0 0 1 0 0 0
POINTS 1462
DATA ascii
2.2095597 -3.1090124 -0.55869699
2.3520935 -3.3095679 -0.56030941
2.4964228 -3.5126498 -0.55823439
2.6748321 -3.7636847 -0.55915099
2.8699753 -4.0382652 -0.55820626
3.1000111 -4.3619428 -0.55794913
3.3624663 -4.7312365 -0.55646271
3.6826637 -5.1817775 -0.5561741
4.0693955 -5.7259378 -0.55579203
4.5380774 -6.385407 -0.55433095
5.1395097 -7.2316666 -0.55373365
5.908133 -8.3131762 -0.55149478
6.9575839 -9.7898302 -0.54938751
8.4650927 -11.911006 -0.5467664
10.781687 -15.170622 -0.54154211
14.868861 -20.921576 -0.53337812
23.929819 -33.671005 -0.51500112
1.2368758 -1.6958244 -0.56241691
1.2809063 -1.7561927 -0.56311774
1.3079667 -1.793294 -0.55537051
1.3600249 -1.8646686 -0.55713415
1.4263673 -1.9556277 -0.56306386
1.4740459 -2.0209975 -0.56001228
1.5428952 -2.1153939 -0.56335962
1.6078013 -2.2043836 -0.5633747
1.6626406 -2.2795713 -0.5581823
1.74563 -2.3933544 -0.56050128
1.8234985 -2.5001163 -0.55890602
1.9201318 -2.6326058 -0.56060094
2.013375 -2.7604475 -0.55862838
2.1220069 -2.9093874 -0.55808169
2.252491 -3.0882885 -0.55990791
2.3850029 -3.2699695 -0.55852824
2.5393882 -3.4816401 -0.55822647
2.7203188 -3.7297058 -0.55903018
2.9186406 -4.001616 -0.55805898
3.1453631 -4.3124647 -0.55652553
3.4191382 -4.6878257 -0.55625981
3.7491407 -5.1402769 -0.55662584
4.1399469 -5.6760936 -0.55585313
4.6170855 -6.330277 -0.55443174
5.2249618 -7.1637087 -0.55340779
6.0065951 -8.2353706 -0.55119139
7.0799322 -9.706974 -0.54958177
8.6041622 -11.796778 -0.54633826
10.960246 -15.027097 -0.54118878
15.111891 -20.719229 -0.53291655
24.302128 -33.319546 -0.51415724
1.2543861 -1.676149 -0.5609647
1.2922221 -1.7267067 -0.55871594
1.3490648 -1.8026617 -0.56336647
1.3942931 -1.8630971 -0.56174475
1.448649 -1.9357291 -0.56242096
1.5022901 -2.007406 -0.56132239
1.573784 -2.1029382 -0.56515354
1.6361971 -2.1863365 -0.56386167
1.6942557 -2.2639163 -0.55940801
1.7713568 -2.366941 -0.55937427
1.8573328 -2.4818249 -0.55988026
1.9576473 -2.6158681 -0.56212026
2.0450737 -2.7326899 -0.55805796
2.1614003 -2.888129 -0.55905974
2.2895672 -3.0593896 -0.55973047
2.4272711 -3.2433939 -0.55904478
2.589685 -3.4604163 -0.55988693
2.759568 -3.6874192 -0.55773592
2.9741235 -3.9741147 -0.55928159
3.1990199 -4.2746282 -0.55667698
3.4894159 -4.6626639 -0.55832332
3.8103223 -5.0914688 -0.55637211
4.2071071 -5.621665 -0.55554712
4.6924314 -6.2701702 -0.55417907
5.3088336 -7.0938258 -0.5530104
6.1095963 -8.1638288 -0.55138963
7.197041 -9.6169062 -0.54945135
8.7319784 -11.667936 -0.54530269
11.140462 -14.886226 -0.54100806
15.350195 -20.511398 -0.53238565
24.677227 -32.974464 -0.51347589
1.2796996 -1.66685 -0.56307638
1.3219404 -1.7218702 -0.56236815
1.3677332 -1.7815167 -0.56197178
1.4138005 -1.8415208 -0.56043857
1.4715128 -1.9166929 -0.56210482
1.5179306 -1.9771537 -0.55804014
1.5883442 -2.0688696 -0.5612042
1.6584796 -2.1602232 -0.56234401
1.7232887 -2.2446392 -0.55983847
1.799722 -2.3441961 -0.5591867
1.886972 -2.4578419 -0.55966204
1.9837992 -2.5839627 -0.56046367
2.0758808 -2.7039018 -0.55734962
2.202291 -2.8685553 -0.5604704
2.317987 -3.0192528 -0.55755985
2.4621646 -3.2070491 -0.55795652
2.6193278 -3.4117589 -0.55718338
2.8043721 -3.6527851 -0.55767101
3.0116663 -3.9227927 -0.55722851
3.2586961 -4.2445569 -0.55793697
3.5397551 -4.6106453 -0.55726433
3.8750098 -5.0473256 -0.5567131
4.2721238 -5.564579 -0.55505508
4.7675619 -6.2099032 -0.55399197
5.390357 -7.0211139 -0.55246747
6.2050152 -8.0822325 -0.55099022
7.3139176 -9.5266142 -0.54938942
8.8733025 -11.557762 -0.54521179
11.31846 -14.74266 -0.5408076
15.587554 -20.303293 -0.53191888
25.038448 -32.613388 -0.51260883
1.290782 -1.6391594 -0.55904174
1.3388265 -1.700171 -0.5606156
1.3864529 -1.7606516 -0.56072551
1.4365602 -1.8242826 -0.56052601
1.4956001 -1.8992573 -0.56234241
1.5458546 -1.9630753 -0.55938935
1.6094062 -2.0437794 -0.55972409
1.6795648 -2.1328735 -0.56055826
1.7537354 -2.2270625 -0.56079072
1.833359 -2.328176 -0.56070054
1.9161983 -2.4333732 -0.55941343
2.0057886 -2.5471437 -0.55778515
2.1144955 -2.6851904 -0.55881
2.2228847 -2.8228333 -0.55683553
2.3574188 -2.9936779 -0.55814797
2.5018978 -3.1771512 -0.55806506
2.6664419 -3.3861051 -0.55830628
2.859411 -3.6311557 -0.55969459
3.0708849 -3.8997059 -0.55927068
3.3026929 -4.194078 -0.55659789
3.5972576 -4.5681448 -0.55743164
3.9291761 -4.9896469 -0.55563825
4.3319683 -5.5011511 -0.55399978
4.8465099 -6.1545658 -0.55432987
5.4724855 -6.9494901 -0.55208486
6.2932816 -7.9918156 -0.55006021
7.4223289 -9.4255896 -0.54878533
9.0184536 -11.452502 -0.54543638
11.492655 -14.594482 -0.54051518
15.82944 -20.101749 -0.53169799
25.414364 -32.273613 -0.51214153
1.319513 -1.6339056 -0.56274104
1.3579286 -1.6814743 -0.55991411
1.416397 -1.7538737 -0.56407106
1.4548105 -1.8014396 -0.55896163
1.5172563 -1.878764 -0.56175619
1.5753497 -1.9506991 -0.56134021
1.6325427 -2.0215192 -0.55908328
1.7097108 -2.1170738 -0.56188869
1.7813708 -2.2058077 -0.56091195
1.8591166 -2.3020775 -0.55987835
1.9406869 -2.4030831 -0.55789381
2.0468249 -2.5345101 -0.56048781
2.14329 -2.6539595 -0.55775303
2.2650385 -2.8047159 -0.55871356
2.4046173 -2.9775517 -0.56061172
2.5400398 -3.1452403 -0.55790395
2.700048 -3.3433726 -0.5566926
2.8904769 -3.5791743 -0.55711859
3.1027851 -3.8420677 -0.55643421
3.3547966 -4.1541247 -0.55672812
3.6417668 -4.5094695 -0.5556941
3.9890847 -4.9395404 -0.55547887
4.3917031 -5.4380889 -0.55304563
4.9155521 -6.0867524 -0.55362427
5.5543098 -6.8777027 -0.55176598
6.3926902 -7.9158397 -0.55019975
7.5327621 -9.3275499 -0.54842871
9.148551 -11.328323 -0.54483873
11.65705 -14.434508 -0.53985834
16.068314 -19.896818 -0.53146344
25.766926 -31.906261 -0.51130134
1.3321379 -1.6086642 -0.55964696
1.3755791 -1.6611229 -0.5587275
1.4306339 -1.7276059 -0.56123829
1.4852124 -1.7935139 -0.56212658
1.5317278 -1.8496851 -0.55865091
1.590003 -1.9200569 -0.55810654
1.6646501 -2.0101993 -0.56157124
1.7334732 -2.0933087 -0.56119621
1.8073643 -2.1825385 -0.5606038
1.8839506 -2.2750225 -0.55889028
1.9730805 -2.382654 -0.55874139
2.075896 -2.5068121 -0.55996513
2.1816192 -2.6344814 -0.55925506
2.3036306 -2.7818201 -0.55975306
2.4417496 -2.9486098 -0.56077325
2.5830865 -3.1192853 -0.55889189
2.7529035 -3.3243532 -0.55911994
2.9319768 -3.5405986 -0.5566839
3.152426 -3.8068087 -0.55689973
3.4017279 -4.1078615 -0.55609185
3.6912906 -4.4575315 -0.55484527
4.0470104 -4.8870916 -0.55513495
4.4677329 -5.3951483 -0.55422378
4.9848886 -6.0196557 -0.55305493
5.64258 -6.8138709 -0.55216962
6.4925642 -7.8402958 -0.55045646
7.6333508 -9.2178879 -0.54745841
9.291604 -11.220362 -0.54510015
11.831118 -14.287029 -0.53974283
16.288549 -19.669739 -0.53070784
26.112206 -31.532597 -0.5104202
1.3562527 -1.5973879 -0.56148338
1.4003669 -1.6493455 -0.56051564
1.4518447 -1.7099757 -0.56126809
1.5042623 -1.7717129 -0.56104869
1.5649602 -1.8432027 -0.56246257
1.6169851 -1.9044772 -0.55931515
1.6905986 -1.991179 -0.56202269
1.7553737 -2.0674708 -0.56001365
1.8291744 -2.154393 -0.55910945
1.9142315 -2.2545726 -0.55960673
2.0046093 -2.3610194 -0.5594061
2.0971558 -2.4700201 -0.5574649
2.2193475 -2.6139369 -0.56064463
2.3362358 -2.7516074 -0.55941194
2.4767063 -2.9170527 -0.56052125
2.6246319 -3.091279 -0.55961418
2.7922294 -3.2886746 -0.5588516
2.9869204 -3.5179806 -0.55886018
3.207741 -3.7780621 -0.55842239
3.4557173 -4.0701275 -0.55669403
3.7516215 -4.418642 -0.55570471
4.096633 -4.8249946 -0.55376148
4.5428395 -5.3505349 -0.55533719
5.0662236 -5.9669743 -0.55389643
5.7219644 -6.7393022 -0.5517869
6.5848951 -7.7556581 -0.55015743
7.7572069 -9.1364012 -0.54824245
9.4119568 -11.085357 -0.54412282
12.000553 -14.134194 -0.53950292
16.508125 -19.443192 -0.53003222
26.465136 -31.170511 -0.50978827
1.3683532 -1.5720465 -0.55844796
1.4179465 -1.6290221 -0.55949199
1.4661946 -1.6844525 -0.55876607
1.5216178 -1.748126 -0.55946219
1.5909731 -1.8278056 -0.56369132
1.6436585 -1.8883338 -0.56046742
1.7125558 -1.9674871 -0.56123692
1.7771077 -2.0416481 -0.55889589
1.8595446 -2.1363568 -0.56032056
1.9423442 -2.2314818 -0.55976123
2.026509 -2.3281753 -0.55748624
2.1287582 -2.4456453 -0.55782932
2.2429104 -2.5767903 -0.55855054
2.3758688 -2.7295411 -0.56082278
2.5146224 -2.8889494 -0.56102026
2.6485803 -3.0428483 -0.55670053
2.8224509 -3.2426014 -0.55687791
3.0320575 -3.4834099 -0.55924892
3.2597096 -3.7449505 -0.55941051
3.5063736 -4.0283327 -0.55683267
3.808279 -4.3751798 -0.55608606
4.1613321 -4.7807884 -0.55451876
4.5968413 -5.2811275 -0.55395824
5.1310244 -5.8948293 -0.55301446
5.7999783 -6.6633639 -0.55136698
6.6798725 -7.6742392 -0.5501669
7.8603344 -9.0304251 -0.54764169
9.5591364 -10.982111 -0.54478341
12.151152 -13.959973 -0.53851545
16.73597 -19.227287 -0.52971655
26.809172 -30.799988 -0.50908148
1.3960068 -1.5645484 -0.56183988
1.4433675 -1.6176269 -0.56163156
1.4952189 -1.6757385 -0.56193191
1.5461955 -1.7328695 -0.56062192
1.6135026 -1.8083028 -0.56375277
1.6621978 -1.862877 -0.55893588
1.735297 -1.9448013 -0.56081009
1.7980307 -2.0151091 -0.55764115
1.8845861 -2.1121144 -0.55999792
1.9672872 -2.2048001 -0.55909413
2.0659142 -2.3153343 -0.56045198
2.1640513 -2.4253197 -0.55922049
2.2788994 -2.5540338 -0.55964965
2.4099364 -2.7008908 -0.56098253
2.5321128 -2.8378177 -0.55709505
2.7019308 -3.0281379 -0.56004536
2.8700221 -3.2165232 -0.55841786
3.0647876 -3.4348032 -0.55745345
3.3015478 -3.7001474 -0.55874002
3.5509362 -3.979645 -0.5560962
3.862643 -4.3289843 -0.55620939
4.2242861 -4.7342887 -0.55510825
4.6632433 -5.2262421 -0.55417395
5.2045875 -5.8329434 -0.55317074
5.8793969 -6.5892234 -0.55117273
6.7671957 -7.5842071 -0.54963642
7.9637527 -8.9252262 -0.54715925
9.672452 -10.840218 -0.5436036
12.319506 -13.806854 -0.53841174
16.95624 -19.003386 -0.52925223
27.144247 -30.421404 -0.50830245
1.408973 -1.5405245 -0.55939209
1.460081 -1.5964043 -0.56045425
1.5154181 -1.656908 -0.56182367
1.5641185 -1.7101555 -0.55945349
1.6187001 -1.7698333 -0.55792278
1.6885452 -1.8461996 -0.56011945
1.7597121 -1.924011 -0.56101221
1.8266832 -1.9972351 -0.55886847
1.9027824 -2.0804396 -0.55776113
2.0044408 -2.1915894 -0.56195176
2.0955708 -2.2912278 -0.56081176
2.189389 -2.3938057 -0.55811942
2.3124225 -2.5283265 -0.56020492
2.4316397 -2.6586745 -0.55838227
2.5753069 -2.8157554 -0.55893832
2.7263269 -2.9808757 -0.55746239
2.9115155 -3.1833549 -0.55883276
3.1029623 -3.3926764 -0.55676687
3.3480394 -3.6606357 -0.55894804
3.598757 -3.934762 -0.55596602
3.9178469 -4.2836447 -0.55653173
4.2764535 -4.6757331 -0.55436623
4.7328925 -5.1747885 -0.55484718
5.2661796 -5.7578669 -0.55215019
5.9608765 -6.5174255 -0.55125648
6.866982 -7.508131 -0.550201
8.0839415 -8.8387136 -0.54790819
9.799859 -10.714842 -0.54331821
12.491608 -13.657911 -0.5385527
17.181633 -18.78583 -0.52903724
27.476858 -30.04229 -0.50757492
1.4286495 -1.5239817 -0.55972183
1.4833316 -1.5823125 -0.56186801
1.5309954 -1.6331568 -0.56011122
1.5822198 -1.6877995 -0.55846244
1.6484087 -1.758405 -0.56066751
1.7074503 -1.8213863 -0.55891895
1.7797314 -1.8984907 -0.5599097
1.8509344 -1.9744451 -0.5588178
1.9243385 -2.0527472 -0.55663872
2.020396 -2.1552145 -0.55895281
2.1225085 -2.2641411 -0.56052774
2.2201445 -2.3682921 -0.55849367
2.3370211 -2.4929678 -0.55869555
2.4675486 -2.6322052 -0.55915338
2.6108134 -2.7850299 -0.55916965
2.7585728 -2.9426489 -0.55661505
2.9469805 -3.1436291 -0.55817819
3.1436276 -3.3533981 -0.55662256
3.3873167 -3.6133482 -0.55804539
3.6416628 -3.8846664 -0.55517292
3.965275 -4.2298732 -0.55583847
4.3389912 -4.6285267 -0.55505323
4.7877069 -5.1071844 -0.55386901
5.3405023 -5.6968675 -0.55255628
6.0332136 -6.4358025 -0.55058593
6.9428754 -7.4061651 -0.54894352
8.1791258 -8.7249098 -0.54704672
9.9304667 -10.593115 -0.54329652
12.651534 -13.495756 -0.53825235
17.389231 -18.549593 -0.52836627
27.804476 -29.659834 -0.50685138
1.4472784 -1.506299 -0.55972129
1.4916263 -1.5524554 -0.55773681
1.5466902 -1.6097648 -0.55856919
1.6092957 -1.6749234 -0.56070733
1.6616149 -1.7293762 -0.55788428
1.7479714 -1.8192544 -0.56481773
1.7974744 -1.8707762 -0.5582124
1.8827852 -1.959566 -0.5611167
1.9692428 -2.0495493 -0.56229526
2.0440722 -2.1274302 -0.55822349
2.1478848 -2.2354765 -0.55992758
2.2551546 -2.3471208 -0.55999815
2.3628302 -2.4591873 -0.5575943
2.4966774 -2.5984929 -0.55847132
2.6444304 -2.7522714 -0.55907893
2.7940443 -2.9079866 -0.55651516
2.9776788 -3.0991096 -0.55673259
3.1808808 -3.3105984 -0.5559687
3.4223509 -3.5619159 -0.55655938
3.6985347 -3.8493626 -0.55658501
4.0243382 -4.1884527 -0.5568561
4.3829875 -4.5617275 -0.55346394
4.8544583 -5.0524249 -0.55436212
5.4092779 -5.6298704 -0.55246776
6.1215925 -6.3712335 -0.55146009
7.033318 -7.3201394 -0.54893607
8.2852125 -8.6230869 -0.54700893
10.067912 -10.478486 -0.54372573
12.806789 -13.329056 -0.53784388
17.595692 -18.313251 -0.52775729
28.143362 -29.291059 -0.50642502
1.4588904 -1.4814855 -0.55712473
1.5095159 -1.532895 -0.55733591
1.5758419 -1.6002482 -0.56194824
1.6392908 -1.6646799 -0.5639835
1.69227 -1.7184796 -0.56103951
1.7525377 -1.7796807 -0.55917972
1.8257678 -1.8540449 -0.55987662
1.8963979 -1.9257691 -0.55807418
1.986809 -2.0175803 -0.56018478
2.0809748 -2.1132047 -0.56116265
2.1790524 -2.212801 -0.56091696
2.2712941 -2.3064713 -0.55692106
2.4021239 -2.4393277 -0.55974633
2.52493 -2.5640357 -0.5576964
2.6688604 -2.7101953 -0.55715615
2.8407588 -2.8847558 -0.55871212
3.0231717 -3.069994 -0.55813807
3.2361817 -3.286303 -0.5585292
3.4630408 -3.5166757 -0.55610216
3.7411156 -3.7990572 -0.55592078
4.0698867 -4.1329203 -0.55608457
4.4453254 -4.5141735 -0.55428439
4.9002123 -4.9761057 -0.55255777
5.4836125 -5.5685415 -0.55302453
6.1968904 -6.2928667 -0.55123079
7.1384783 -7.2490377 -0.55014503
8.3797207 -8.5095043 -0.54629886
10.188524 -10.346322 -0.54332763
12.964746 -13.165541 -0.53763801
17.818274 -18.094238 -0.52771997
28.46047 -28.90126 -0.50569803
1.483996 -1.4703715 -0.55976522
1.5422604 -1.528101 -0.56244552
1.5953194 -1.5806729 -0.56192029
1.6521596 -1.6369913 -0.56144321
1.7126064 -1.6968831 -0.56082165
1.7819541 -1.7655941 -0.56159592
1.8543687 -1.8373438 -0.56167656
1.9282588 -1.9105556 -0.5604943
2.0118551 -1.9933842 -0.56029314
2.1156485 -2.096225 -0.56351936
2.2007897 -2.1805844 -0.55956799
2.3005857 -2.2794642 -0.55718845
2.424804 -2.4025419 -0.55810493
2.555439 -2.5319777 -0.5575161
2.7090409 -2.6841693 -0.55861169
2.8689477 -2.8426082 -0.55733949
3.0544384 -3.0263956 -0.55699795
3.2611187 -3.2311783 -0.55593365
3.5039573 -3.4717877 -0.55577523
3.7884622 -3.7536805 -0.55605555
4.1214924 -4.083653 -0.55623257
4.4933591 -4.452106 -0.55340576
4.9689155 -4.923296 -0.55343652
5.5501924 -5.4992361 -0.55287772
6.2668366 -6.2093015 -0.55061936
7.2098303 -7.1436372 -0.54883271
8.4876022 -8.4096775 -0.54654908
10.303464 -10.208868 -0.54272169
13.109291 -12.988935 -0.53696823
18.002171 -17.836893 -0.52663076
28.783104 -28.518847 -0.50516146
1.5033334 -1.4533389 -0.56027603
1.5523289 -1.500705 -0.55934536
1.6075246 -1.5540651 -0.5594461
1.6668973 -1.6114633 -0.5596754
1.7304835 -1.6729349 -0.55989707
1.8017023 -1.7417852 -0.56102729
1.8687929 -1.8066447 -0.55927438
1.9489579 -1.8841438 -0.55973428
2.0295699 -1.9620748 -0.55846524
2.1252756 -2.0545979 -0.55931199
2.2276874 -2.1536038 -0.55963147
2.339365 -2.2615676 -0.55980301
2.4536057 -2.372009 -0.55797863
2.5931323 -2.5068955 -0.55897206
2.7400043 -2.6488831 -0.55823779
2.911936 -2.8150973 -0.55892372
3.0967052 -2.9937217 -0.5579505
3.311744 -3.2016091 -0.55781049
3.5529938 -3.4348361 -0.55681175
3.8259406 -3.6987057 -0.55483902
4.1700158 -4.0313382 -0.55604911
4.5514126 -4.4000516 -0.55385017
5.0250769 -4.8579636 -0.55299658
5.6163788 -5.4296017 -0.5527783
6.3426318 -6.1317024 -0.55061257
7.2912459 -7.0487695 -0.54839092
8.5873489 -8.3017702 -0.54635739
10.42216 -10.075562 -0.54240686
13.266472 -12.825284 -0.53690612
18.224752 -17.618673 -0.52676457
29.092566 -28.125069 -0.50448489
1.5127618 -1.4268899 -0.55720866
1.5680985 -1.4790854 -0.55843192
1.6358989 -1.5430371 -0.56267506
1.6906854 -1.5947136 -0.56103605
1.7532196 -1.6536981 -0.56063169
1.8202 -1.7168763 -0.56017107
1.8879702 -1.7807995 -0.5584181
1.9677677 -1.8560673 -0.55853945
2.0524726 -1.935964 -0.55817467
2.1529357 -2.0307243 -0.55997741
2.2503202 -2.1225808 -0.55871814
2.3579478 -2.2240989 -0.5576632
2.4883549 -2.3471034 -0.55927539
2.6165209 -2.467994 -0.55742985
2.7786186 -2.6208901 -0.55949664
2.9434934 -2.7764058 -0.55838579
3.133707 -2.955822 -0.55802643
3.3482656 -3.1582012 -0.55737877
3.5923975 -3.3884749 -0.55641508
3.8775222 -3.6574144 -0.55575532
4.2172203 -3.9778297 -0.55577928
4.6111202 -4.34937 -0.55456585
5.0804496 -4.792058 -0.55256391
5.6819944 -5.3594556 -0.55270833
6.4168653 -6.0526118 -0.55055428
7.3847027 -6.9655099 -0.54893649
8.6800919 -8.1873655 -0.54581136
10.5474 -9.9486771 -0.54251719
13.402928 -12.642111 -0.53609681
18.422472 -17.376719 -0.52626365
29.4018 -27.732805 -0.5038957
1.5320413 -1.4098837 -0.55788213
1.6039371 -1.4760469 -0.56468838
1.651926 -1.5202094 -0.5617156
1.705202 -1.5692375 -0.55940771
1.7743932 -1.6329117 -0.56093931
1.8346138 -1.6883307 -0.55817568
1.9305481 -1.7766155 -0.56450737
1.9925913 -1.8337116 -0.55914301
2.08148 -1.9155129 -0.55961537
2.1733723 -2.0000782 -0.55885386
2.2723365 -2.0911515 -0.55775797
2.3914139 -2.2007341 -0.55913574
2.5164835 -2.3158314 -0.55915487
2.6447344 -2.433856 -0.55702251
2.7995844 -2.5763593 -0.55729711
2.9746425 -2.7374589 -0.55786705
3.1669433 -2.9144266 -0.55752116
3.3803861 -3.1108506 -0.5563159
3.6351357 -3.3452876 -0.55662131
3.9141257 -3.6020322 -0.55461138
4.2613416 -3.9215629 -0.555197
4.6757112 -4.3028927 -0.55592859
5.1497111 -4.7390981 -0.55371702
5.7367945 -5.2793703 -0.55168241
6.4861326 -5.9689598 -0.55015832
7.457871 -6.8632164 -0.54806066
8.7811909 -8.0810213 -0.54587901
10.655684 -9.8060522 -0.54184377
13.564034 -12.482505 -0.53636086
18.62228 -17.13743 -0.52591193
29.71092 -27.341915 -0.50339335
1.5623693 -1.4027089 -0.56260246
1.6063648 -1.4422084 -0.55925733
1.6622609 -1.4923924 -0.5589475
1.732794 -1.5557177 -0.56214136
1.7812219 -1.5991967 -0.55683941
1.8613615 -1.6711466 -0.5600192
1.9290134 -1.7318851 -0.55778933
2.0268941 -1.8197633 -0.56244713
2.1147852 -1.8986727 -0.5622502
2.1932871 -1.9691525 -0.5577063
2.2945936 -2.060106 -0.55696106
2.4140232 -2.1673312 -0.55814862
2.5521011 -2.2912989 -0.56076628
2.6763554 -2.4028552 -0.55741727
2.8341067 -2.5444858 -0.5578987
2.9980013 -2.6916318 -0.55599862
3.2047188 -2.8772244 -0.55790073
3.417731 -3.0684688 -0.55621028
3.671083 -3.2959306 -0.5558778
3.9653888 -3.5601609 -0.55563009
4.3105888 -3.8700845 -0.55537111
4.7132473 -4.231595 -0.55416304
5.2038727 -4.6720824 -0.5533216
5.8094516 -5.2157764 -0.55246013
6.5637755 -5.8930149 -0.55055606
7.5367336 -6.7665458 -0.54770017
8.8854771 -7.9774594 -0.54622257
10.763757 -9.6637955 -0.54125577
13.695731 -12.296147 -0.53554916
18.817112 -16.894167 -0.52550769
30.007864 -26.941324 -0.50277358
1.5763736 -1.3806559 -0.56148946
1.6414483 -1.4376512 -0.5652743
1.6796081 -1.4710732 -0.5586558
1.7535075 -1.5357974 -0.56269199
1.813386 -1.5882416 -0.56074673
1.8779913 -1.6448257 -0.55889511
1.9583285 -1.7151885 -0.56012511
2.037946 -1.7849208 -0.55938113
2.1244652 -1.8606982 -0.55869853
2.2289968 -1.9522514 -0.56063998
2.3310215 -2.0416093 -0.55966729
2.4417076 -2.1385527 -0.55842727
2.5755179 -2.2557497 -0.55977452
2.7269399 -2.3883715 -0.56179357
2.8611012 -2.5058756 -0.55710483
3.0513632 -2.6725154 -0.55975807
3.2391214 -2.8369622 -0.55777466
3.4575562 -3.0282767 -0.55658937
3.7086151 -3.2481649 -0.55547106
4.0183988 -3.5194869 -0.5569517
4.3508611 -3.8106716 -0.55448073
4.7671881 -4.1753087 -0.55442667
5.2634392 -4.6099467 -0.55358601
5.8665719 -5.1381965 -0.55184197
6.6255741 -5.8029633 -0.54971284
7.6238222 -6.6772718 -0.54802072
8.9604168 -7.847919 -0.54485589
10.887301 -9.5355682 -0.54153115
13.854726 -12.134566 -0.53589123
19.012741 -16.652178 -0.52521288
30.289747 -26.529066 -0.50199282
1.6034917 -1.3699359 -0.5651058
1.6461706 -1.4063984 -0.5609026
1.6934227 -1.446768 -0.55729133
1.7595818 -1.5032908 -0.55866718
1.8244611 -1.5587201 -0.55820233
1.903255 -1.6260374 -0.56042087
1.9831535 -1.6942981 -0.56122422
2.0557084 -1.7562853 -0.55828667
2.1512029 -1.8378705 -0.55974454
2.2461953 -1.919027 -0.55898827
2.3538315 -2.0109854 -0.55916446
2.477901 -2.1169834 -0.56070894
2.5933604 -2.2156258 -0.55768883
2.739162 -2.3401906 -0.55834097
2.8966832 -2.4747682 -0.55806565
3.0687091 -2.6217377 -0.55698401
3.2672682 -2.7913759 -0.55666882
3.4900639 -2.9817204 -0.55587816
3.7436752 -3.1983922 -0.55478978
4.0550237 -3.464391 -0.55608153
4.4031978 -3.7618523 -0.55521345
4.8087211 -4.1083088 -0.5533399
5.3033361 -4.5308814 -0.55188072
5.9385443 -5.0735688 -0.55270189
6.7075095 -5.7305307 -0.55062288
7.6989603 -6.5775719 -0.54756653
9.0556135 -7.7366228 -0.54481858
11.009768 -9.406146 -0.54182863
13.990776 -11.952957 -0.53542805
19.198343 -16.402018 -0.52472889
30.590851 -26.135155 -0.50161904
1.6025805 -1.3354223 -0.55895537
1.6575255 -1.3812076 -0.55894232
1.7334429 -1.4444691 -0.56457371
1.784113 -1.4866923 -0.56060922
1.8492013 -1.54093 -0.55993223
1.9098405 -1.5914603 -0.55655563
2.0003836 -1.6669096 -0.56025738
2.0806937 -1.7338315 -0.55923986
2.1612239 -1.8009369 -0.55654776
2.2614892 -1.8844875 -0.5569855
2.3744104 -1.9785842 -0.55823129
2.4974174 -2.0810852 -0.55929238
2.6203275 -2.1835055 -0.55767202
2.7637968 -2.3030579 -0.55754775
2.9228697 -2.4356124 -0.5572986
3.0999868 -2.5832031 -0.55685359
3.3017151 -2.7513022 -0.55673164
3.5442553 -2.9534099 -0.55868298
3.7979231 -3.1647899 -0.55701977
4.0878062 -3.4063482 -0.55479121
4.4414678 -3.7010524 -0.5542587
4.8671951 -4.055809 -0.55428785
5.3640513 -4.4698367 -0.55243754
5.9845119 -4.9868636 -0.55123127
6.7568097 -5.630415 -0.54894495
7.7921157 -6.4931302 -0.54847193
9.1649542 -7.6371093 -0.54570574
11.110272 -9.2581339 -0.54113132
14.129681 -11.774191 -0.53516263
19.376259 -16.146139 -0.52412558
30.8664 -25.720814 -0.50091338
1.614077 -1.3117141 -0.55729729
1.6769563 -1.3628143 -0.5598014
1.7369095 -1.4115366 -0.56000739
1.7961609 -1.4596884 -0.55871272
1.8741004 -1.5230277 -0.5617584
1.9294307 -1.567993 -0.55660373
2.0166357 -1.638862 -0.55912274
2.1140995 -1.7180681 -0.56249779
2.2017238 -1.7892778 -0.56126887
2.2881017 -1.8594745 -0.55786628
2.4027073 -1.9526113 -0.55919683
2.5248713 -2.0518904 -0.55974782
2.6477647 -2.1517625 -0.55783802
2.7959383 -2.2721786 -0.55835313
2.952966 -2.3997908 -0.55736846
3.1389959 -2.550972 -0.55818403
3.3397758 -2.7141399 -0.55747968
3.5633194 -2.8958075 -0.55603307
3.8283694 -3.1112061 -0.55583221
4.1342597 -3.3597944 -0.5554468
4.4947343 -3.6527414 -0.55525875
4.9037509 -3.9851375 -0.55282849
5.4182687 -4.4032717 -0.55240327
6.0528903 -4.9190102 -0.55191648
6.8297257 -5.5503225 -0.54928261
7.8553967 -6.3838558 -0.54735941
9.2523336 -7.5191059 -0.54536206
11.228305 -9.1249218 -0.54137427
14.26158 -11.589976 -0.53472012
19.556234 -15.892792 -0.52366805
31.13876 -25.305576 -0.50024575
1.6324648 -1.2936562 -0.55811149
1.7021556 -1.3488832 -0.56263399
1.7570179 -1.3923591 -0.56092811
1.8204263 -1.4426075 -0.56070048
1.8827192 -1.4919719 -0.5588004
1.9622874 -1.5550262 -0.56052375
2.0198598 -1.6006497 -0.55451763
2.1216738 -1.6813329 -0.55896997
2.220681 -1.7597915 -0.5605427
2.327296 -1.8442794 -0.56185067
2.4155924 -1.9142503 -0.55667526
2.5341368 -2.0081913 -0.55628544
2.6696696 -2.1155953 -0.55693012
2.8180676 -2.2331941 -0.55724639
2.982264 -2.3633125 -0.55737114
3.1630168 -2.506551 -0.55693257
3.3505359 -2.6551518 -0.55378413
3.6050541 -2.8568463 -0.55702174
3.8672266 -3.0646062 -0.55596054
4.1784692 -3.3112524 -0.55587399
4.5278082 -3.588088 -0.55385226
4.9549966 -3.9266162 -0.55312067
5.4658937 -4.3314795 -0.55178684
6.099339 -4.833457 -0.55069077
6.8958716 -5.464674 -0.54915661
7.9393034 -6.2915473 -0.5477739
9.3343487 -7.397059 -0.54479378
11.318846 -8.9696856 -0.54038095
14.397157 -11.409111 -0.53450292
19.743336 -15.645722 -0.52348691
31.42046 -24.899328 -0.49981478
1.6542875 -1.2781531 -0.5601567
1.7042563 -1.3167604 -0.55793417
1.7662121 -1.3646294 -0.55846411
1.8372132 -1.419487 -0.56045234
1.9031386 -1.4704231 -0.55945218
1.9825463 -1.5317758 -0.56088793
2.0583248 -1.5903245 -0.55966663
2.139437 -1.6529944 -0.55825251
2.2434244 -1.7333384 -0.56086123
2.3408425 -1.8086064 -0.55970973
2.4495478 -1.8925955 -0.55909497
2.5673552 -1.9836171 -0.55818087
2.6992826 -2.0855484 -0.55771577
2.853152 -2.2044322 -0.55878162
3.0123012 -2.3273959 -0.55759406
3.1945319 -2.4681928 -0.55709559
3.4012506 -2.6279101 -0.55678332
3.6334379 -2.8073051 -0.55603158
3.900744 -3.013834 -0.55540931
4.2093606 -3.2522805 -0.55462146
4.5731254 -3.5333364 -0.55403906
5.0108609 -3.8715444 -0.55400062
5.5356021 -4.2769752 -0.553473
6.1570082 -4.7570925 -0.55057454
6.9778676 -5.391314 -0.55036545
8.0156126 -6.1931071 -0.5477432
9.4187202 -7.2771912 -0.54445428
11.433661 -8.8339958 -0.54063547
14.53105 -11.227133 -0.53430808
19.913307 -15.38563 -0.52293783
31.682173 -24.478615 -0.49915209
1.6742407 -1.2610019 -0.56162012
1.7336397 -1.30574 -0.56225479
1.7832186 -1.3430817 -0.55857724
1.8468301 -1.3909925 -0.55812609
1.9086881 -1.4375826 -0.55584502
1.9947212 -1.502381 -0.55906361
2.081394 -1.5676609 -0.56065547
2.1578345 -1.6252344 -0.55779624
2.2589178 -1.7013682 -0.55946201
2.3532398 -1.7724094 -0.55742067
2.4682326 -1.8590195 -0.55809993
2.5850587 -1.9470105 -0.55678266
2.7313867 -2.0572214 -0.55908006
2.8847194 -2.1727083 -0.55968934
3.032825 -2.2842584 -0.55615181
3.2161548 -2.4223385 -0.55562997
3.4377053 -2.5892053 -0.55749691
3.6621726 -2.7582693 -0.55519652
3.9459362 -2.9719939 -0.55659848
4.2507062 -3.2015402 -0.55484015
4.6236625 -3.4824426 -0.55493182
5.0625534 -3.8130059 -0.55449003
5.573102 -4.1975398 -0.55201995
6.2274222 -4.6903601 -0.55167204
7.0387921 -5.3014665 -0.54998749
8.0770311 -6.0834455 -0.54678714
9.4992113 -7.1546011 -0.54398042
11.535529 -8.6883116 -0.54035974
14.665402 -11.045665 -0.53421366
20.098143 -15.137487 -0.52286416
31.945564 -24.060709 -0.49860284
1.6777229 -1.2315884 -0.55766594
1.745111 -1.2810568 -0.56082392
1.8074955 -1.3268522 -0.5610286
1.8713688 -1.3737406 -0.56039459
1.9326814 -1.4187491 -0.55770969
2.0107617 -1.4760666 -0.55843002
2.0974393 -1.5396951 -0.55983537
2.1806543 -1.6007819 -0.5585646
2.2802057 -1.6738609 -0.55959439
2.3869753 -1.7522386 -0.5602656
2.5015035 -1.8363119 -0.56047487
2.6240866 -1.926298 -0.56004453
2.7563689 -2.0234044 -0.55905855
2.8858051 -2.1184213 -0.55480409
3.0650222 -2.2499816 -0.5569405
3.2631691 -2.395438 -0.55862123
3.4571762 -2.5378554 -0.55555177
3.7082322 -2.7221513 -0.55706263
3.9702103 -2.914465 -0.55492544
4.2934012 -3.1517141 -0.55531245
4.6447921 -3.4096644 -0.55239403
5.0950484 -3.74019 -0.55297005
5.6369967 -4.1380253 -0.55326694
6.2895584 -4.6170597 -0.55210531
7.0944982 -5.2079525 -0.54929477
8.1581621 -5.9887705 -0.54725283
9.587533 -7.0380478 -0.54404116
11.643341 -8.5471821 -0.54044592
14.794013 -10.860037 -0.53399366
20.271448 -14.880931 -0.52257282
32.212593 -23.646727 -0.49819461
1.7023257 -1.2177243 -0.56082422
1.7529593 -1.2539439 -0.55834866
1.8230358 -1.3040718 -0.5608325
1.8848279 -1.3482735 -0.55941802
1.9667096 -1.4068459 -0.56249458
2.0464926 -1.463917 -0.56331134
2.109875 -1.5092565 -0.55815887
2.1897743 -1.5664108 -0.55592489
2.308419 -1.6512808 -0.56149274
2.4025853 -1.7186408 -0.55892694
2.5301907 -1.8099208 -0.56187344
2.644943 -1.8920065 -0.55948818
2.7865059 -1.9932706 -0.56015748
2.9404078 -2.1033614 -0.56028682
3.0977542 -2.2159159 -0.55789483
3.2792647 -2.3457556 -0.55639666
3.4931037 -2.4987211 -0.55634564
3.7335601 -2.6707268 -0.55589205
4.0173936 -2.8737612 -0.55653912
4.3293471 -3.096911 -0.55499434
4.7041812 -3.365041 -0.55449408
5.1420965 -3.6782949 -0.5531255
5.6854687 -4.0669851 -0.55307418
6.3292074 -4.5274706 -0.55065721
7.1588717 -5.120954 -0.54936194
8.2303543 -5.8874173 -0.54719788
9.6627216 -6.9120326 -0.54344368
11.719604 -8.3833818 -0.53916013
14.91447 -10.668764 -0.533566
20.429117 -14.613556 -0.52196556
32.465195 -23.22332 -0.49764714
1.7140968 -1.1945598 -0.55982065
1.7800055 -1.2404917 -0.56206232
1.8501178 -1.2893533 -0.56424385
1.9070545 -1.3290327 -0.561122
1.9732435 -1.37516 -0.55948478
2.0366623 -1.4193568 -0.55575943
2.1186571 -1.4764992 -0.55563718
2.2261615 -1.5514194 -0.56027716
2.3038888 -1.6055877 -0.55554658
2.4262023 -1.6908284 -0.55954206
2.5455105 -1.7739748 -0.56038898
2.6559057 -1.8509095 -0.55695069
2.8063879 -1.9557811 -0.55927747
2.9540665 -2.0586987 -0.55802357
3.1152852 -2.1710525 -0.55620211
3.3096533 -2.3065083 -0.55669844
3.5150402 -2.4496431 -0.55499995
3.7658834 -2.6244566 -0.55585772
4.0510273 -2.8231745 -0.55634725
4.3753185 -3.0491738 -0.55603904
4.739819 -3.3031957 -0.55386525
5.1926379 -3.6187665 -0.55373371
5.7266612 -3.9909294 -0.55226576
6.3884406 -4.4521255 -0.55100602
7.2137127 -5.0272608 -0.54878515
8.2999964 -5.7842951 -0.54705787
9.7503481 -6.7950501 -0.54363161
11.83881 -8.2505064 -0.53993607
15.036375 -10.4789 -0.53327709
20.604345 -14.359238 -0.52189195
32.716454 -22.800205 -0.49716344
1.7375797 -1.1794517 -0.56271094
1.7928387 -1.216961 -0.56134695
1.8428037 -1.2508768 -0.55728012
1.9168862 -1.3011632 -0.5592649
1.9929879 -1.3528203 -0.56032407
2.0668173 -1.4029349 -0.55923831
2.1481223 -1.4581239 -0.55862015
2.2332876 -1.5159333 -0.55733705
2.3412929 -1.5892462 -0.55981141
2.4366879 -1.6539994 -0.55722761
2.5600829 -1.7377588 -0.55885065
2.6885879 -1.8249866 -0.55905604
2.8238745 -1.9168178 -0.55802292
2.9741383 -2.0188153 -0.55708373
3.1505728 -2.1385775 -0.55776513
3.3390472 -2.2665119 -0.55691272
3.5555182 -2.4134502 -0.55666327
3.8061485 -2.5835755 -0.55706966
4.0696621 -2.7624459 -0.55419952
4.4098639 -2.9933717 -0.55570948
4.7729783 -3.23985 -0.55304289
5.2402668 -3.5570405 -0.55410659
5.7815194 -3.9244375 -0.55286056
6.4315062 -4.3656421 -0.55004871
7.2627544 -4.9298849 -0.54786283
8.3641157 -5.6774778 -0.54664123
9.8288164 -6.6717024 -0.54339141
11.930706 -8.098444 -0.53954476
15.153586 -10.286103 -0.53290802
20.763983 -14.094384 -0.52150613
32.941158 -22.36013 -0.49636242
1.7445854 -1.1531299 -0.56034535
1.7935292 -1.1854807 -0.55695683
1.8638012 -1.2319288 -0.55900669
1.9342282 -1.2784795 -0.5596956
2.0065761 -1.3262998 -0.55951691
2.0904527 -1.3817401 -0.56099385
2.1694405 -1.4339492 -0.55953634
2.2599387 -1.4937665 -0.55936193
2.3647845 -1.5630671 -0.56079036
2.4640729 -1.6286944 -0.55886799
2.5807903 -1.7058419 -0.55874979
2.7039931 -1.787276 -0.55764735
2.8469672 -1.8817786 -0.55797154
3.007406 -1.9878248 -0.55869436
3.172704 -2.0970829 -0.55707586
3.369772 -2.2273402 -0.55742705
3.5800643 -2.3663385 -0.55590868
3.832777 -2.5333757 -0.55636561
4.1145205 -2.7196014 -0.55571222
4.4463096 -2.9389062 -0.5557062
4.8233547 -3.1881244 -0.55429566
5.2758713 -3.487227 -0.55329543
5.8208933 -3.8474739 -0.55205989
6.4889879 -4.2890687 -0.5504126
7.3401251 -4.8516507 -0.5491575
8.4400406 -5.5786686 -0.54707873
9.908987 -6.5496082 -0.54333013
12.020999 -7.9455981 -0.53916889
15.283593 -10.102097 -0.53307122
20.927176 -13.832372 -0.52129352
33.203831 -21.946953 -0.49621642
1.7593632 -1.1320628 -0.56057835
1.8213443 -1.1719445 -0.56107694
1.8901875 -1.2162417 -0.56239259
1.9575385 -1.2595787 -0.56191647
2.0305455 -1.306555 -0.56167817
2.1154118 -1.3611623 -0.56315762
2.1926012 -1.4108299 -0.56099308
2.2784963 -1.4660991 -0.55945075
2.3738484 -1.5274534 -0.55844349
2.4907215 -1.6026555 -0.56040001
2.6025176 -1.6745908 -0.55895346
2.7364259 -1.760754 -0.55982852
2.8636353 -1.8426071 -0.5567556
3.0315208 -1.950633 -0.55867612
3.2066793 -2.0633388 -0.55854428
3.3873162 -2.1795697 -0.55585378
3.6257677 -2.3330014 -0.55850863
3.8523088 -2.4787693 -0.55473441
4.152379 -2.6718497 -0.55634606
4.4813995 -2.8835578 -0.55561829
4.852212 -3.1221573 -0.55315822
5.3154721 -3.4202423 -0.55299604
5.8719611 -3.7783151 -0.55245513
6.5461645 -4.2121315 -0.5508275
7.388587 -4.7541885 -0.54836804
8.4923315 -5.4643936 -0.54607153
9.9990406 -6.4338856 -0.54388881
12.119537 -7.7983203 -0.5392468
15.392428 -9.9042635 -0.53257918
21.079969 -13.563912 -0.52090549
33.434147 -21.513212 -0.49566752
1.7811601 -1.1153611 -0.56311089
1.8226088 -1.1413163 -0.55710107
1.8958597 -1.187186 -0.55969453
1.9677622 -1.2322112 -0.56045949
2.0478983 -1.2823924 -0.56207383
2.1075146 -1.3197241 -0.55669308
2.2064028 -1.3816477 -0.56013507
2.2926819 -1.4356757 -0.55855697
2.3904586 -1.4969033 -0.55797869
2.4979424 -1.5642097 -0.55765492
2.6168706 -1.6386825 -0.55766624
2.7381349 -1.714618 -0.55582273
2.8826127 -1.80509 -0.55608773
3.0417397 -1.9047352 -0.55620098
3.2332323 -2.0246475 -0.55879062
3.4139571 -2.1378174 -0.5558697
3.6414857 -2.2802956 -0.5565685
3.8805919 -2.4300237 -0.55446249
4.1644044 -2.6077468 -0.55361909
4.4946918 -2.8145726 -0.55293351
4.888999 -3.0614874 -0.55301851
5.3562651 -3.3540893 -0.55290741
5.8982701 -3.6934924 -0.55061579
6.5963717 -4.1306429 -0.55073667
7.4481106 -4.664001 -0.54848778
8.5609694 -5.3608723 -0.54620498
10.05665 -6.2974668 -0.54276931
12.196257 -7.6372867 -0.53844118
15.499141 -9.7055502 -0.53210187
21.229847 -13.294115 -0.52053028
33.658581 -21.076977 -0.4951151
1.7796237 -1.0841678 -0.55836827
1.8418118 -1.1220535 -0.55871111
1.9079797 -1.1623638 -0.55901074
1.9947067 -1.215199 -0.56383526
2.0379903 -1.2415679 -0.55512232
2.1425326 -1.3052561 -0.56166089
2.2134635 -1.3484682 -0.55767596
2.3167896 -1.4114156 -0.56015962
2.4082067 -1.467108 -0.55786836
2.5169361 -1.5333471 -0.55764371
2.6393986 -1.6079528 -0.55821133
2.7659879 -1.6850725 -0.55722851
2.9236088 -1.7810971 -0.55972904
3.071588 -1.8712478 -0.55740929
3.2364578 -1.9716884 -0.555116
3.4475801 -2.1003065 -0.55709702
3.661824 -2.2308264 -0.55544245
3.9261742 -2.3918717 -0.55673087
4.2050929 -2.5617924 -0.55479854
4.543808 -2.7681415 -0.55474645
4.9246774 -3.0001719 -0.55283952
5.3920326 -3.2848899 -0.55238819
5.9538717 -3.6271689 -0.55160093
6.6312118 -4.0398126 -0.54945648
7.5099635 -4.5751586 -0.54885834
8.6245575 -5.2541823 -0.54609865
10.142836 -6.1791353 -0.54327893
12.313931 -7.5017924 -0.53952301
15.622219 -9.5172405 -0.53226936
21.37397 -13.021276 -0.52009887
33.898026 -20.651077 -0.49486452
1.7915359 -1.0614438 -0.55796838
1.8559591 -1.0996131 -0.55885875
1.9247419 -1.1403654 -0.55977112
1.9989125 -1.1843097 -0.56086522
2.0564892 -1.2184227 -0.55603814
2.1570947 -1.278029 -0.56131619
2.2352984 -1.3243629 -0.55903196
2.3221238 -1.375805 -0.55731684
2.4496348 -1.4513524 -0.56328851
2.546474 -1.5087273 -0.56003541
2.6646941 -1.5787699 -0.55941302
2.7901354 -1.6530911 -0.55795592
2.932215 -1.7372699 -0.55724472
3.0988812 -1.8360158 -0.55822301
3.2765443 -1.9412771 -0.55785513
3.4811215 -2.0624845 -0.55837667
3.6868963 -2.1844013 -0.55512923
3.9414442 -2.3352151 -0.55478245
4.2415152 -2.5130002 -0.55548501
4.5806518 -2.7139308 -0.5551284
4.9685225 -2.9437356 -0.55365616
5.4225259 -3.2127221 -0.55142331
5.9951186 -3.55197 -0.5513342
6.6903167 -3.9638588 -0.5502736
7.5693097 -4.484642 -0.54912382
8.6903362 -5.1488242 -0.54621351
10.212045 -6.0504017 -0.54295999
12.385661 -7.3382196 -0.53867155
15.718333 -9.3127508 -0.53160226
21.52454 -12.752795 -0.51990759
34.110901 -20.209925 -0.49430695
1.8028188 -1.0383953 -0.55746353
1.8765239 -1.0808482 -0.56100672
1.9395272 -1.1171372 -0.56003374
2.0097916 -1.1576083 -0.55988145
2.0836592 -1.2001549 -0.55935186
2.1699433 -1.2498531 -0.56061798
2.2548618 -1.2987649 -0.55988824
2.3373406 -1.3462715 -0.55695373
2.4413366 -1.4061714 -0.55736214
2.5491555 -1.4682734 -0.55661237
2.6752956 -1.5409282 -0.55761868
2.8108025 -1.618978 -0.55806559
2.9430983 -1.6951784 -0.55530965
3.120255 -1.7972177 -0.5580501
3.2967155 -1.8988563 -0.5572719
3.4890022 -2.0096104 -0.55563504
3.719692 -2.1424842 -0.55605847
3.9673593 -2.2851365 -0.55443311
4.2648101 -2.4564636 -0.55453801
4.6109214 -2.6558182 -0.55479705
4.9976439 -2.8785646 -0.55291516
5.4762616 -3.1542406 -0.55290174
6.038187 -3.4779007 -0.55132031
6.7397957 -3.8820164 -0.5503754
7.6227298 -4.3905725 -0.54904109
8.7428942 -5.0357699 -0.54558372
10.285242 -5.9241381 -0.54293758
12.465416 -7.179884 -0.53825974
15.823922 -9.1143303 -0.53134274
21.666506 -12.479567 -0.5195908
34.333881 -19.775776 -0.49397698
1.8364919 -1.0279278 -0.56392479
1.8745189 -1.0492123 -0.55650818
1.9529859 -1.0931321 -0.55999631
2.0255377 -1.1337411 -0.56034195
2.093626 -1.1718518 -0.55811703
2.172955 -1.2162541 -0.55749011
2.2598925 -1.264915 -0.55723315
2.3716514 -1.3274691 -0.56119746
2.4541068 -1.3736213 -0.55637944
2.5747356 -1.4411401 -0.55828625
2.7045918 -1.5138236 -0.55980271
2.832871 -1.5856246 -0.55853379
2.9716399 -1.6632968 -0.55679381
3.1444085 -1.7599994 -0.55845714
3.3281345 -1.8628352 -0.55866861
3.5027196 -1.9605546 -0.55393845
3.7463906 -2.0969429 -0.556153
4.00105 -2.2394817 -0.555251
4.2928696 -2.4028201 -0.55430275
4.6273079 -2.590013 -0.55289489
5.0356021 -2.8185451 -0.55323845
5.4995646 -3.0782359 -0.55139124
6.0779867 -3.4019923 -0.5510931
6.7856407 -3.7980828 -0.55026376
7.6534619 -4.2838225 -0.54741913
8.8073626 -4.929688 -0.54578274
10.353282 -5.7949753 -0.5427267
12.560832 -7.0305934 -0.53860617
15.942618 -8.9234591 -0.53160375
21.809347 -12.207204 -0.51937729
34.53688 -19.331104 -0.49344039
1.845019 -1.0031093 -0.56271309
1.9062506 -1.0364 -0.56210274
1.9739487 -1.0732064 -0.56218064
2.0312915 -1.1043829 -0.55813473
2.1085072 -1.1463639 -0.5582841
2.1928964 -1.192245 -0.55880272
2.2915721 -1.2458936 -0.56122464
2.3641911 -1.2853754 -0.55565012
2.4856832 -1.3514289 -0.55972838
2.5956736 -1.411229 -0.55902129
2.7083919 -1.4725122 -0.55679947
2.8528533 -1.5510538 -0.55867094
3.0044034 -1.6334493 -0.55912697
3.1556015 -1.7156534 -0.55665612
3.3404987 -1.8161793 -0.55695319
3.5480847 -1.9290407 -0.55731934
3.7741024 -2.0519233 -0.55647916
4.042047 -2.1976006 -0.55714816
4.3371449 -2.3580408 -0.55623364
4.6608009 -2.534008 -0.55313194
5.0670156 -2.7548609 -0.55292618
5.535563 -3.0096028 -0.55124831
6.126255 -3.3307533 -0.5517143
6.8292975 -3.7129869 -0.55005997
7.7237182 -4.1992702 -0.54870945
8.8774939 -4.826561 -0.54640955
10.421094 -5.6657929 -0.54258829
12.637491 -6.8708158 -0.53822982
16.031847 -8.7162762 -0.53096509
21.940516 -11.928731 -0.51896864
34.739277 -18.887226 -0.49297664
1.8530896 -0.97817123 -0.56146365
1.9147563 -1.0107225 -0.56090367
1.9739898 -1.0419896 -0.55850106
2.051708 -1.0830139 -0.56004304
2.1319828 -1.1253877 -0.5607934
2.2153451 -1.1693913 -0.56081659
2.2979739 -1.2130077 -0.55909723
2.4042881 -1.2691267 -0.56136382
2.4968038 -1.3179621 -0.558541
2.6107726 -1.3781215 -0.55858129
2.7263894 -1.4391509 -0.5568192
2.8662324 -1.5129684 -0.55760556
3.0118511 -1.5898346 -0.55683267
3.1825573 -1.6799436 -0.55772507
3.3697052 -1.7787315 -0.55813384
3.5798976 -1.8896836 -0.55862427
3.7809801 -1.9958268 -0.55383283
4.0586929 -2.1424203 -0.55576938
4.3417344 -2.2918265 -0.55316627
4.7087965 -2.4855838 -0.55515873
5.0999932 -2.6920807 -0.55287069
5.5729795 -2.941751 -0.55133051
6.1515875 -3.2471747 -0.55035818
6.8673563 -3.6250005 -0.54949367
7.7522311 -4.0920901 -0.54711902
8.9271832 -4.7122998 -0.54586017
10.486425 -5.5353608 -0.54240495
12.708738 -6.7084303 -0.53771031
16.138481 -8.5188532 -0.5309872
22.076017 -11.653039 -0.51874524
34.938675 -18.442717 -0.49255085
1.866812 -0.95625263 -0.56201613
1.9250678 -0.98609352 -0.56032991
1.9925823 -1.0206771 -0.56016815
2.0689631 -1.0598022 -0.56115341
2.129189 -1.0906523 -0.55648887
2.2163324 -1.1352905 -0.55749041
2.3136115 -1.1851206 -0.55931401
2.3912668 -1.2248986 -0.55476487
2.5106254 -1.2860385 -0.55805314
2.6168656 -1.3404589 -0.55631626
2.7645922 -1.4161301 -0.5610227
2.8859324 -1.4782852 -0.55785954
3.0425682 -1.5585201 -0.5589264
3.1905584 -1.6343263 -0.55556339
3.3748 -1.7287018 -0.55541486
3.5831404 -1.8354219 -0.55556649
3.8127439 -1.9530336 -0.5549258
4.0755267 -2.087641 -0.55451739
4.38024 -2.2437267 -0.554515
4.7343407 -2.4251108 -0.5546127
5.1415043 -2.6336756 -0.55381817
5.617382 -2.8774385 -0.55218112
6.1885548 -3.1700151 -0.55013657
6.9100218 -3.5395782 -0.5493834
7.8128071 -4.0020194 -0.5478797
8.9782104 -4.5989838 -0.5454812
10.561389 -5.4099483 -0.54280049
12.77016 -6.5413651 -0.53686523
16.233015 -8.3151722 -0.53069329
22.211639 -11.377653 -0.51860535
35.131184 -17.995541 -0.49210802
1.8792816 -0.93365079 -0.56227142
1.9486374 -0.96810758 -0.56368273
2.0031157 -0.9951731 -0.55964684
2.0865707 -1.0366346 -0.56242925
2.1608829 -1.0735539 -0.56127977
2.2476289 -1.1166502 -0.56186628
2.3295798 -1.1573645 -0.55969155
2.435267 -1.2098713 -0.56147885
2.5351176 -1.2594783 -0.56001246
2.6312308 -1.3072286 -0.55591094
2.7619662 -1.3721795 -0.55702364
2.8975379 -1.4395334 -0.55663919
3.0572503 -1.5188804 -0.55815029
3.2190881 -1.5992835 -0.55706483
3.4031572 -1.6907313 -0.55661815
3.6059144 -1.7914636 -0.55563998
3.8384182 -1.9069746 -0.55520773
4.1099572 -2.0418782 -0.55574375
4.3954849 -2.1837323 -0.55300385
4.7560596 -2.3628702 -0.55371135
5.161377 -2.5642369 -0.55252057
5.6525421 -2.808254 -0.55220115
6.2413468 -3.1007798 -0.5513984
6.9677281 -3.4616549 -0.55054545
7.8544493 -3.9021893 -0.54739368
9.0271301 -4.4847918 -0.54506165
10.616114 -5.2742186 -0.54223889
12.865992 -6.3919864 -0.53754908
16.330902 -8.1133976 -0.53059179
22.343346 -11.100455 -0.51845431
35.322788 -17.548807 -0.49173209
1.8941883 -0.91219211 -0.56333286
1.928093 -0.92851973 -0.55439514
2.0215378 -0.97352034 -0.56140679
2.0679803 -0.99588585 -0.55407548
2.1627603 -1.0415294 -0.5583986
2.2482061 -1.082678 -0.55864036
2.336097 -1.1250039 -0.55789155
2.4491999 -1.1794714 -0.56130487
2.5514593 -1.2287169 -0.56024241
2.6673398 -1.2845218 -0.56016034
2.7824018 -1.3399328 -0.55777991
2.918819 -1.4056277 -0.55736482
3.0724299 -1.4796028 -0.55755782
3.2327294 -1.5567989 -0.55607069
3.4219165 -1.6479065 -0.55633008
3.6333454 -1.7497252 -0.55650944
3.8719051 -1.8646095 -0.5566929
4.1420431 -1.9947009 -0.55672371
4.4264965 -2.1316862 -0.55356574
4.7950773 -2.3091855 -0.55490619
5.1955771 -2.5020556 -0.55284637
5.6844788 -2.737498 -0.55199093
6.2775478 -3.0231049 -0.55127078
6.9918756 -3.3671067 -0.54914051
7.9076595 -3.8081245 -0.54779714
9.0892754 -4.3771601 -0.54552287
10.666927 -5.1369166 -0.54156703
12.9329 -6.2281504 -0.53710425
16.42098 -7.9079199 -0.53031904
22.464296 -10.818224 -0.51813495
35.513863 -17.102558 -0.49142724
1.8960754 -0.88454789 -0.56061691
1.9609836 -0.91482854 -0.56057549
2.0381832 -0.95084327 -0.56273985
2.099015 -0.9792223 -0.55912226
2.1766677 -1.0154485 -0.55872321
2.2525694 -1.0508578 -0.55647159
2.3544469 -1.0983851 -0.55900604
2.4624317 -1.1487616 -0.56105763
2.5628569 -1.1956115 -0.55947459
2.6584496 -1.2402071 -0.55504882
2.7860515 -1.2997352 -0.55526572
2.9366157 -1.3699757 -0.5575043
3.090225 -1.4416368 -0.55752808
3.2555232 -1.5187509 -0.55673701
3.4484596 -1.6087586 -0.55738717
3.6620646 -1.7084085 -0.55764848
3.8892367 -1.8143878 -0.55593503
4.1657414 -1.9433813 -0.55665493
4.4525428 -2.0771785 -0.55358696
4.8187194 -2.2480054 -0.55440128
5.2424016 -2.4456596 -0.55458689
5.7189512 -2.6679773 -0.55211091
6.3052144 -2.9414778 -0.55048239
7.044003 -3.286134 -0.55001938
7.9515586 -3.7095225 -0.54763699
9.1377468 -4.262897 -0.54524475
10.73149 -5.006403 -0.54167849
13.010988 -6.0698228 -0.53720689
16.511944 -7.7030716 -0.53015763
22.589174 -10.538192 -0.51798731
35.701447 -16.655266 -0.4911519
1.9016289 -0.85882866 -0.55909419
1.9838696 -0.89597088 -0.56392568
2.0400565 -0.92134637 -0.56008667
2.1061752 -0.95120746 -0.5578717
2.1942899 -0.99100262 -0.56007636
2.275373 -1.0276219 -0.55894107
2.3826699 -1.0760802 -0.56252277
2.4697468 -1.1154065 -0.55955696
2.5879235 -1.1687785 -0.5617668
2.6863246 -1.2132192 -0.55771178
2.8173707 -1.2724031 -0.55834717
2.9541898 -1.3341945 -0.55768389
3.1095133 -1.404343 -0.5578503
3.2641842 -1.4741967 -0.55507618
3.4504886 -1.558337 -0.55457598
3.6857743 -1.6645986 -0.55809987
3.9020863 -1.7622911 -0.55463231
4.181848 -1.8886392 -0.55566192
4.4865074 -2.026232 -0.55467016
4.8457708 -2.1884854 -0.55437559
5.2631602 -2.3769901 -0.55364901
5.7439723 -2.5941381 -0.55140525
6.3498387 -2.8677645 -0.55125803
7.0785465 -3.1968691 -0.54960567
8.001195 -3.6135631 -0.54795384
9.1916132 -4.1511889 -0.54537183
10.800585 -4.8778453 -0.54209757
13.078432 -5.9065847 -0.5369522
16.600204 -7.4971151 -0.52999145
22.703758 -10.253651 -0.51768446
35.875759 -16.202494 -0.49077195
1.9256091 -0.84130847 -0.56306046
1.9881458 -0.86863106 -0.56206256
2.0511169 -0.8961435 -0.56005567
2.1268673 -0.92923915 -0.5602836
2.1965363 -0.95967793 -0.55759555
2.2914066 -1.0011272 -0.55981344
2.3644729 -1.0330503 -0.55518568
2.4850156 -1.085716 -0.55994928
2.5938442 -1.1332638 -0.55998474
2.7282324 -1.1919786 -0.56332672
2.8299775 -1.2364317 -0.5577904
2.9734883 -1.2991322 -0.55826914
3.1276214 -1.3664738 -0.55804229
3.2881761 -1.436621 -0.55610996
3.4857898 -1.5229594 -0.55719775
3.7059617 -1.6191536 -0.55809969
3.9276347 -1.7160037 -0.55522251
4.1857715 -1.8287849 -0.55315346
4.5222921 -1.9758124 -0.55604851
4.8734775 -2.1292472 -0.55450809
5.2853642 -2.3092027 -0.55295599
5.7814856 -2.5259604 -0.551983
6.382432 -2.788517 -0.55106914
7.1087904 -3.1058669 -0.5489471
8.0361557 -3.5110376 -0.54734999
9.2392302 -4.0366669 -0.54521078
10.85328 -4.7418537 -0.54177493
13.145837 -5.7434831 -0.5367794
16.667089 -7.2819362 -0.52922803
22.817926 -9.9692688 -0.51745337
36.047844 -15.749487 -0.49043965
1.9221823 -0.81181383 -0.55909723
2.0007308 -0.84498793 -0.56264043
2.0579515 -0.86915457 -0.55896133
2.1179271 -0.89448464 -0.55498904
2.2066691 -0.93196392 -0.55721653
2.2939348 -0.96881974 -0.55747849
2.3891408 -1.009029 -0.55802232
2.4979632 -1.054989 -0.5599013
2.6005876 -1.0983313 -0.55848265
2.7251687 -1.1509469 -0.55972964
2.8484144 -1.2029984 -0.55846643
2.9875255 -1.2617506 -0.55794948
3.1336515 -1.3234653 -0.55617249
3.3161826 -1.4005555 -0.55789173
3.4955907 -1.4763266 -0.55582052
3.7135551 -1.5683815 -0.55629683
3.9532499 -1.6696143 -0.55589926
4.2174416 -1.7811928 -0.55440229
4.5339584 -1.9148705 -0.55454588
4.8914409 -2.0658495 -0.5536198
5.310596 -2.2428753 -0.55266857
5.8058119 -2.4520247 -0.55138516
6.4106164 -2.7074575 -0.55058652
7.1561151 -3.0223112 -0.54969019
8.0972471 -3.4197886 -0.54860532
9.297946 -3.9268913 -0.54578495
10.893311 -4.6006775 -0.54090828
13.204332 -5.5767131 -0.5363273
16.77293 -7.0838737 -0.52978283
22.930826 -9.684597 -0.51727396
36.20319 -15.290044 -0.4899582
1.9455656 -0.79364431 -0.56301749
1.992551 -0.81281084 -0.55748737
2.0673149 -0.84330887 -0.55864578
2.1457219 -0.87529302 -0.5594098
2.2191148 -0.90523183 -0.55750632
2.3079436 -0.94146723 -0.55802733
2.4045527 -0.98087656 -0.55876261
2.5017569 -1.0205284 -0.55789673
2.6077728 -1.0637751 -0.55717444
2.7285016 -1.1130233 -0.55756092
2.8642375 -1.1683934 -0.55870962
3.0013907 -1.2243415 -0.55768514
3.1612425 -1.289549 -0.55821288
3.3269844 -1.3571591 -0.55685931
3.5219572 -1.4366934 -0.55716181
3.73929 -1.5253489 -0.55730009
3.9551528 -1.6134045 -0.55333525
4.2438765 -1.7311822 -0.55503702
4.5537829 -1.8576006 -0.55413491
4.9089561 -2.0024846 -0.55277348
5.3421483 -2.1791945 -0.55312169
5.844409 -2.384079 -0.55222487
6.4361053 -2.6254466 -0.54996139
7.1913147 -2.9335151 -0.54958159
8.1078758 -3.3074028 -0.5465287
9.3242216 -3.8035808 -0.54454076
10.965333 -4.4730306 -0.54171246
13.271389 -5.4137278 -0.53630656
16.854151 -6.8752251 -0.52963799
23.01672 -9.3890896 -0.51656812
36.369286 -14.83593 -0.48970008
1.9482908 -0.76695186 -0.56103462
2.0064447 -0.78984433 -0.55861503
2.0810363 -0.81920761 -0.55958933
2.1544292 -0.84809899 -0.55891877
2.2435799 -0.88319343 -0.56088185
2.3303435 -0.91734827 -0.56067353
2.4180954 -0.95189208 -0.55914736
2.5114822 -0.98865426 -0.55731237
2.6246812 -1.0332154 -0.55803037
2.7417629 -1.0793051 -0.55751669
2.8849587 -1.1356746 -0.55998522
3.0113499 -1.185429 -0.55678505
3.1795797 -1.2516532 -0.55869091
3.3396728 -1.3146745 -0.55623519
3.5397968 -1.3934541 -0.55723125
3.7478323 -1.4753479 -0.55582738
3.9905841 -1.5709082 -0.55554777
4.2679744 -1.6801039 -0.55544478
4.5736175 -1.8004214 -0.55381268
