# .PCD v0.7 - Point Cloud Data file format
VERSION 0.7
FIELDS x y z
SIZE 4 4 4
TYPE F F F
COUNT 1 1 1
WIDTH 1419
HEIGHT 1
VIEWPOINT 0 0 0 1 0 0 0
POINTS 1419
DATA ascii
-12.833184 -0.79000431 0.58813703
-12.830411 -0.78983361 0.69511306
-12.832716 -0.78997546 0.80245668
-12.834013 -0.79005533 0.90987861
-12.887483 -0.79334688 1.0215844
-12.960834 -0.79786235 1.1360708
-13.100472 -0.80645847 1.2583134
-13.351105 -0.82188725 1.3946729
-14.780484 -0.90987915 1.6685107
-14.784877 -0.91014957 1.7938001
-14.768081 -0.90911555 1.9166651
-14.620309 -0.90001881 2.0214064
-14.325064 -0.88184369 2.1022818
-14.118657 -0.86913741 2.1922255
-14.229039 -0.87593246 2.330852
-2.1217558 -0.15682304 -0.57007265
-2.197437 -0.16241677 -0.57082212
-2.2694747 -0.16774122 -0.56939554
-2.3324699 -0.17239733 -0.56458783
-2.4401786 -0.18035828 -0.56918108
-2.5284996 -0.18688625 -0.56761253
-2.6292381 -0.19433203 -0.56725949
-2.7535739 -0.20352192 -0.57011735
-2.8685849 -0.2120226 -0.56904674
-2.999572 -0.22170411 -0.56909692
-3.1594112 -0.23351814 -0.57219243
-3.3025272 -0.2440961 -0.56973344
-3.4875855 -0.25777411 -0.57177573
-3.6931124 -0.27296501 -0.57391298
-3.9124794 -0.28917885 -0.57465625
-4.1350455 -0.30562913 -0.57218844
-4.4115648 -0.32606721 -0.57302892
-4.7197332 -0.34884453 -0.57310671
-5.0752392 -0.37512064 -0.57340109
-5.5063791 -0.40698701 -0.5756824
-5.9976158 -0.44329527 -0.57655698
-6.5912919 -0.48717502 -0.57823551
-7.3085952 -0.54019225 -0.57983142
-8.2159824 -0.60725904 -0.58296466
-9.3314276 -0.6897037 -0.58399993
-10.842115 -0.8013615 -0.58788264
-12.905408 -0.95386344 -0.59193981
-15.949942 -1.1788907 -0.59843177
-20.885611 -1.5436954 -0.60936594
-30.232582 -2.2345481 -0.62996763
-13.518709 -0.99919367 -0.16900107
-13.10035 -0.96827203 -0.054587837
-12.879494 -0.95194805 0.053667553
-12.742905 -0.94185251 0.15930253
-12.629238 -0.93345118 0.26316014
-12.560133 -0.92834347 0.36645889
-12.519533 -0.92534262 0.46972498
-12.496758 -0.92365932 0.57319599
-12.471067 -0.9217605 0.6762079
-12.462942 -0.92115986 0.77998328
-12.466594 -0.92142981 0.88456655
-12.510457 -0.92467183 0.99252397
-12.578903 -0.92973083 1.1035117
-12.671113 -0.93654627 1.2180871
-12.817372 -0.94735652 1.340034
-13.091723 -0.96763438 1.4791045
-14.373926 -1.0624044 1.7453938
-14.366897 -1.0618849 1.8661513
-14.257283 -1.0537831 1.9728568
-14.117009 -1.0434152 2.0734749
-14.107914 -1.042743 2.1923826
-2.1138928 -0.18240108 -0.56851971
-2.185461 -0.18857644 -0.56827056
-2.2628057 -0.19525027 -0.56828171
-2.3421509 -0.20209673 -0.5674898
-2.437696 -0.21034101 -0.56916225
-2.5277593 -0.21811228 -0.56800544
-2.6384356 -0.22766219 -0.56980473
-2.7429678 -0.23668195 -0.56848103
-2.8657763 -0.24727869 -0.56904978
-2.9778821 -0.25695196 -0.56553853
-3.1519144 -0.27196863 -0.57139713
-3.3038671 -0.28508013 -0.57052618
-3.4833295 -0.30056539 -0.57164073
-3.66204 -0.31598574 -0.56964505
-3.8828328 -0.33503723 -0.57086372
-4.1286659 -0.35624942 -0.5718686
-4.4039145 -0.37999973 -0.57259887
-4.737133 -0.40875211 -0.57578629
-5.0791864 -0.43826678 -0.57441252
-5.5061936 -0.47511184 -0.57623023
-6.004518 -0.51811069 -0.57778925
-6.5858846 -0.56827492 -0.5783304
-7.3040695 -0.63024485 -0.58004338
-8.185668 -0.70631522 -0.58138597
-9.328845 -0.80495626 -0.58441359
-10.819078 -0.9335438 -0.58721155
-12.89492 -1.1126616 -0.59204155
-15.931912 -1.3747139 -0.59834433
-20.868105 -1.8006423 -0.60945517
-30.215925 -2.6072359 -0.63024092
-13.045078 -1.1256181 -0.16324078
-12.745354 -1.0997559 -0.053160932
-12.544598 -1.0824333 0.052323576
-12.413467 -1.0711185 0.15533705
-12.305343 -1.0617887 0.25666368
-12.241149 -1.0562496 0.35750401
-12.195882 -1.0523437 0.45803267
-12.160883 -1.0493238 0.55833983
-12.140326 -1.0475501 0.65892303
-12.136722 -1.0472389 0.76031548
-12.145368 -1.047985 0.8626231
-12.155443 -1.0488544 0.96530896
-12.196861 -1.0524282 1.0710506
-12.273922 -1.0590775 1.1810672
-12.408759 -1.0707122 1.2985927
-12.589713 -1.0863261 1.4237888
-12.948387 -1.117275 1.5738431
-13.99078 -1.2072197 1.8190873
-13.963842 -1.2048954 1.9341557
-13.946814 -1.203426 2.0504954
-13.986452 -1.2068464 2.1756489
-2.1042342 -0.20766264 -0.56656599
-2.1819971 -0.21533689 -0.5680154
-2.2624722 -0.22327882 -0.56884444
-2.3498471 -0.23190169 -0.57000238
-2.4341564 -0.24022201 -0.56898254
-2.5339234 -0.2500678 -0.57003844
-2.6351991 -0.26006249 -0.56975329
-2.7508335 -0.27147421 -0.57075983
-2.8776505 -0.28398952 -0.57205772
-2.9978888 -0.29585561 -0.56998581
-3.1456821 -0.31044105 -0.57091618
-3.3075714 -0.32641757 -0.57181579
-3.4562113 -0.34108654 -0.56783575
-3.675631 -0.36274064 -0.57240975
-3.8847969 -0.3833828 -0.57180238
-4.1379366 -0.40836465 -0.57380486
-4.3903251 -0.43327236 -0.57148153
-4.7254872 -0.46634883 -0.57502431
-5.0811572 -0.50144917 -0.57528919
-5.4937863 -0.54217076 -0.57558602
-5.9847636 -0.59062427 -0.57654363
-6.5693483 -0.64831573 -0.57753468
-7.3005137 -0.72047299 -0.58042061
-8.1744156 -0.80671662 -0.58124739
-9.3155098 -0.91932893 -0.58424222
-10.799085 -1.06574 -0.5867933
-12.888623 -1.2719524 -0.59242576
-15.916224 -1.5707401 -0.59843528
-20.83489 -2.0561533 -0.60917747
-30.166952 -2.9771159 -0.62993538
-12.715612 -1.2548783 -0.15929902
-12.439631 -1.2276422 -0.0519448
-12.235078 -1.2074553 0.051090639
-12.122247 -1.1963202 0.15186544
-12.019173 -1.1861479 0.25098002
-11.943707 -1.1787004 0.34921411
-11.884324 -1.1728401 0.44683957
-11.858921 -1.1703331 0.54509544
-11.842257 -1.1686885 0.64347643
-11.818278 -1.1663221 0.74120873
-11.8309 -1.1675677 0.84124422
-11.825339 -1.1670189 0.94016272
-11.847486 -1.1692046 1.0415545
-11.921282 -1.1764873 1.1484395
-12.026204 -1.186842 1.2599897
-12.173711 -1.2013991 1.378309
-12.405958 -1.2243191 1.5096279
-12.983776 -1.2813427 1.6900769
-13.626734 -1.3447949 1.8896098
-13.624439 -1.3445685 2.0053782
-13.73505 -1.3554845 2.1389735
-2.1118612 -0.23466855 -0.56935346
-2.1656942 -0.24065045 -0.56449914
-2.2575426 -0.25085658 -0.56833768
-2.3417988 -0.26021904 -0.56878322
-2.4300129 -0.27002135 -0.5687471
-2.5275412 -0.28085861 -0.56933653
-2.6445756 -0.29386339 -0.57251859
-2.7557228 -0.30621397 -0.57251227
-2.8696094 -0.31886899 -0.57119548
-2.9949646 -0.33279839 -0.5701648
-3.139503 -0.3488594 -0.57053018
-3.3008685 -0.36679021 -0.57139349
-3.4753485 -0.38617828 -0.57171685
-3.6723397 -0.40806785 -0.57263535
-3.8810678 -0.43126157 -0.57199085
-4.1247797 -0.45834264 -0.57271862
-4.3960738 -0.48848864 -0.57296836
-4.7145557 -0.52387816 -0.57443452
-5.0680819 -0.56316173 -0.57454944
-5.4902864 -0.61007684 -0.57596171
-5.9849615 -0.66504478 -0.57730681
-6.5639558 -0.72938216 -0.5778054
-7.2852292 -0.8095296 -0.57995301
-8.1628876 -0.90705436 -0.58117682
-9.2863245 -1.0318899 -0.5831635
-10.798103 -1.1998777 -0.58749723
-12.871002 -1.4302168 -0.59237939
-15.899529 -1.7667445 -0.59857911
-20.821623 -2.3136842 -0.60957533
-13.025209 -1.4473522 -0.27233875
-12.414533 -1.3794942 -0.15572788
-12.138288 -1.3487982 -0.050751887
-11.968737 -1.3299577 0.050042968
-11.822744 -1.3137351 0.14830449
-11.735133 -1.3039999 0.2453651
-11.665928 -1.2963098 0.34153256
-11.604155 -1.2894455 0.43686858
-11.564772 -1.2850693 0.53226095
-11.551104 -1.2835506 0.62846607
-11.523604 -1.2804949 0.72366041
-11.532448 -1.2814776 0.82108092
-11.54194 -1.2825323 0.91881567
-11.543936 -1.2827542 1.0161781
-11.605629 -1.2896094 1.1194741
-11.681209 -1.2980078 1.2254241
-11.794854 -1.3106359 1.3371384
-11.987157 -1.3320045 1.4605485
-12.284184 -1.36501 1.6010761
-13.280128 -1.4756786 1.8439231
-13.27208 -1.4747843 1.956036
-13.34484 -1.4828694 2.0808878
-2.0992455 -0.25943449 -0.56676948
-2.1724927 -0.26848671 -0.56708884
-2.264967 -0.27991512 -0.57103008
-2.3320892 -0.28821039 -0.5672428
-2.4257977 -0.29979134 -0.56858033
-2.5307841 -0.31276605 -0.57089019
-2.6199362 -0.32378387 -0.56800348
-2.7380204 -0.33837727 -0.5696559
-2.8551309 -0.35285032 -0.56913418
-3.0096955 -0.37195212 -0.57379651
-3.1355076 -0.38750058 -0.57062685
-3.2833984 -0.4057776 -0.56919008
-3.4761331 -0.42959666 -0.57267165
-3.663553 -0.45275888 -0.57209009
-3.8693218 -0.47818875 -0.57108313
-4.119226 -0.50907302 -0.57277334
-4.3920841 -0.54279417 -0.57327497
-4.707768 -0.58180785 -0.57443577
-5.0682945 -0.62636334 -0.57540321
-5.4881878 -0.67825568 -0.5765729
-5.9768534 -0.73864728 -0.57735723
-6.5535884 -0.80992281 -0.57772577
-7.2737818 -0.89892769 -0.57987785
-8.155962 -1.0079516 -0.58152223
-9.2997351 -1.1493044 -0.58484894
-10.786323 -1.3330238 -0.5877037
-12.836514 -1.586396 -0.59164512
-15.877103 -1.962166 -0.59859794
-20.776463 -2.5676515 -0.60913146
-12.753009 -1.576076 -0.26703244
-12.140994 -1.5004404 -0.15251651
-11.873058 -1.4673276 -0.049714603
-11.724401 -1.4489558 0.049092147
-11.587174 -1.4319967 0.14555937
-11.482065 -1.4190069 0.24042045
-11.42015 -1.4113551 0.33481988
-11.378092 -1.4061574 0.42897639
-11.324972 -1.3995925 0.52197695
-11.312017 -1.3979917 0.61634672
-11.314124 -1.398252 0.7115314
-11.29557 -1.395959 0.80537713
-11.271926 -1.393037 0.89861649
-11.306792 -1.3973459 0.99674028
-11.353508 -1.4031192 1.0967358
-11.401 -1.4089884 1.1977556
-11.487069 -1.4196253 1.3041264
-11.624879 -1.4366565 1.4184527
-11.842778 -1.4635854 1.5457736
-12.308594 -1.5211531 1.7114949
-12.953909 -1.6009041 1.9119006
-12.981935 -1.6043677 2.0272222
-2.0952818 -0.28514254 -0.56660318
-2.1862838 -0.29752681 -0.57160056
-2.2547841 -0.30684885 -0.56937104
-2.3460348 -0.31926697 -0.57154655
-2.4108982 -0.32809409 -0.56599087
-2.5231714 -0.34337315 -0.57008231
-2.6120293 -0.35546562 -0.56719398
-2.7304997 -0.37158802 -0.56899881
-2.8514695 -0.38805056 -0.56931251
-3.0000582 -0.40827167 -0.572873
-3.1416719 -0.42754358 -0.57266217
-3.2870653 -0.44732988 -0.57073611
-3.4595058 -0.47079691 -0.57084292
-3.6334999 -0.49447542 -0.56830359
-3.8736014 -0.52715033 -0.5726282
-4.1118855 -0.55957794 -0.57266617
-4.3834424 -0.59653354 -0.57306111
-4.7004924 -0.63968021 -0.57446438
-5.046371 -0.68675011 -0.57382953
-5.4618587 -0.74329293 -0.5747236
-5.9694529 -0.81237042 -0.57756358
-6.5377603 -0.88971013 -0.57725126
-7.2620015 -0.98827064 -0.57986367
-8.1576538 -1.1101582 -0.58257216
-9.2726192 -1.2618914 -0.58407533
-10.767005 -1.4652593 -0.58758843
-12.81685 -1.7442183 -0.59168261
-15.848876 -2.1568406 -0.59848839
-20.752541 -2.8241701 -0.60940224
-12.514812 -1.7031146 -0.26246357
-11.897641 -1.6191252 -0.14969829
-11.678879 -1.5893543 -0.04897967
-11.506572 -1.5659053 0.048257038
-11.398593 -1.5512108 0.14341916
-11.293324 -1.5368849 0.23684624
-11.230865 -1.5283849 0.32979643
-11.19142 -1.523017 0.42261261
-11.14741 -1.5170277 0.51461387
-11.132815 -1.5150416 0.60755181
-11.112981 -1.5123425 0.69999832
-11.092329 -1.509532 0.79214954
-11.086493 -1.5087378 0.88524562
-11.106316 -1.5114354 0.98063165
-11.136673 -1.5155666 1.0775086
-11.199848 -1.5241641 1.178503
-11.273039 -1.5341244 1.2818723
-11.358633 -1.5457727 1.38818
-11.514051 -1.5669233 1.5052677
-11.785065 -1.6038049 1.6413171
-12.631159 -1.718948 1.8672435
-12.647195 -1.7211305 1.9781057
-2.0950606 -0.31139538 -0.56753588
-2.1630909 -0.32150692 -0.56652755
-2.2477567 -0.33409107 -0.56859088
-2.3332856 -0.34680349 -0.56943643
-2.4204562 -0.35975993 -0.56923026
-2.5176659 -0.37420851 -0.56983495
-2.6302063 -0.39093575 -0.57214165
-2.7235501 -0.40480971 -0.56854492
-2.8487315 -0.42341584 -0.56976223
-2.9789903 -0.44277659 -0.56984657
-3.1184244 -0.46350113 -0.56942046
-3.2773035 -0.4871158 -0.57003808
-3.4510098 -0.51293433 -0.57043868
-3.6526129 -0.54289919 -0.57229388
-3.8571286 -0.57329702 -0.57119197
-4.101737 -0.60965395 -0.57225358
-4.3799748 -0.65100926 -0.5736109
-4.685369 -0.696401 -0.57361925
-5.0382581 -0.74885195 -0.57391071
-5.4483232 -0.80980122 -0.57430375
-5.9462876 -0.88381523 -0.57633018
-6.5297298 -0.97053409 -0.57755226
-7.2488775 -1.0774232 -0.57982975
-8.1370049 -1.2094283 -0.58211553
-9.2561169 -1.3757654 -0.58405727
-10.735921 -1.5957134 -0.58691853
-12.792203 -1.9013449 -0.59157944
-15.807221 -2.3494766 -0.59796119
-20.705894 -3.0775814 -0.60909766
-12.290669 -1.8268003 -0.25821438
-11.719828 -1.7419544 -0.14771934
-11.502605 -1.709668 -0.048324917
-11.355786 -1.6878459 0.047708098
-11.255836 -1.6729901 0.14187109
-11.154678 -1.6579546 0.23434837
-11.094358 -1.6489891 0.32635868
-11.050565 -1.6424798 0.41802466
-11.022848 -1.6383601 0.50975502
-11.008545 -1.6362343 0.6018225
-10.982281 -1.6323305 0.69297755
-10.971409 -1.6307147 0.78488678
-10.982741 -1.632399 0.87849748
-10.958518 -1.6287986 0.96927702
-10.996146 -1.6343914 1.0657761
-11.026853 -1.6389554 1.1623323
-11.073803 -1.6459337 1.2614229
-11.158676 -1.6585488 1.3661319
-11.299706 -1.6795106 1.479834
-11.473252 -1.7053052 1.60069
-11.936109 -1.774101 1.7675868
-12.355202 -1.836392 1.9358214
-12.508206 -1.8591337 2.0675585
-2.1022141 -0.33892787 -0.5705595
-2.1629474 -0.34871957 -0.56757015
-2.233516 -0.36009693 -0.56606591
-2.3403435 -0.37732011 -0.57224798
-2.4146318 -0.38929722 -0.56894326
-2.5258732 -0.40723202 -0.57278264
-2.6066389 -0.42025337 -0.56809622
-2.7102418 -0.43695667 -0.56684554
-2.8445561 -0.45861143 -0.57001197
-2.9790277 -0.48029149 -0.57094032
-3.1296504 -0.50457549 -0.57255995
-3.2772813 -0.52837718 -0.57112116
-3.4553328 -0.55708343 -0.57224226
-3.6507905 -0.58859593 -0.57309902
-3.8558648 -0.62165886 -0.57209361
-4.1023784 -0.66140282 -0.57343435
-4.3721938 -0.70490366 -0.57368368
-4.6837764 -0.75513828 -0.57451767
-5.0492196 -0.81405658 -0.57625604
-5.4523401 -0.87904942 -0.57582301
-5.9518094 -0.95957601 -0.57796538
-6.5257268 -1.0521053 -0.57829875
-7.2400241 -1.1672674 -0.58022583
-8.1224155 -1.3095304 -0.58217978
-9.2402325 -1.4897496 -0.58416677
-10.72522 -1.7291654 -0.58745152
-12.76754 -2.0584371 -0.59156471
-15.780911 -2.5442655 -0.59810418
-20.655457 -3.3301604 -0.60877252
-12.146917 -1.9583776 -0.25568089
-11.600986 -1.8703601 -0.14650024
-11.394385 -1.8370512 -0.047961537
-11.244366 -1.8128643 0.04733007
-11.158532 -1.7990259 0.14091282
-11.08793 -1.7876431 0.23339023
-11.068287 -1.7844762 0.32621256
-14.361827 -2.3154745 0.54432017
-14.363499 -2.3157442 0.66551101
-14.347573 -2.3131766 0.78585833
-14.342773 -2.312403 0.90674895
-14.292896 -2.3043613 1.0244533
-14.233842 -2.2948403 1.1407204
-14.132242 -2.27846 1.2523752
-14.03324 -2.2624986 1.3627329
-13.895325 -2.2402632 1.4674886
-10.993288 -1.7723845 1.2546391
-11.030464 -1.7783782 1.3530101
-11.115271 -1.7920511 1.4584553
-11.266765 -1.8164756 1.5748791
-11.563784 -1.8643624 1.7157154
-12.125675 -1.9549528 1.9034816
-12.324319 -1.986979 2.0410471
-2.0879407 -0.36302066 -0.56785423
-2.1729617 -0.37780285 -0.57137382
-2.2436993 -0.39010167 -0.56981939
-2.3155806 -0.40259933 -0.5673607
-2.3978708 -0.41690677 -0.56615913
-2.4982986 -0.43436772 -0.56769794
-2.6073132 -0.45332155 -0.56941503
-2.7140427 -0.47187811 -0.56881106
-2.839648 -0.49371654 -0.57020187
-2.9615636 -0.51491344 -0.56876373
-3.12536 -0.54339194 -0.57295418
-3.2805932 -0.57038164 -0.57287723
-3.4522543 -0.60022759 -0.5729115
-3.6373947 -0.63241708 -0.5721736
-3.8697402 -0.67281395 -0.57533628
-4.0960746 -0.71216571 -0.57373393
-4.3731327 -0.76033646 -0.57499015
-4.6868505 -0.81488115 -0.57608026
-5.0267644 -0.8739804 -0.57487631
-5.4432397 -0.94639105 -0.57604736
-5.9377189 -1.0323639 -0.57778609
-6.5001602 -1.1301529 -0.57722098
-7.2214999 -1.255569 -0.57993472
-8.0930843 -1.4071072 -0.58127362
-9.2024355 -1.5999852 -0.582977
-10.696243 -1.8597066 -0.58707249
-12.750362 -2.2168469 -0.59198701
-15.749207 -2.7382421 -0.5981335
-20.607792 -3.5829821 -0.60862023
-12.117882 -2.1068804 -0.25559571
-11.486816 -1.9971598 -0.14535761
-11.281482 -1.9614594 -0.047584224
-11.172229 -1.9424641 0.047123406
-11.137253 -1.9363829 0.14093412
-13.965218 -2.4280682 0.29456055
-14.003628 -2.4347463 0.41357613
-14.068353 -2.4459999 0.53429693
-14.077373 -2.4475679 0.65359885
-14.082576 -2.4484727 0.77293426
-14.077925 -2.447664 0.89184064
-14.039281 -2.4409454 1.0083504
-13.950783 -2.4255586 1.1203412
-13.867525 -2.4110827 1.2314507
-13.773726 -2.3947742 1.3402903
-13.649044 -2.3730965 1.4444516
-13.488337 -2.345155 1.5425678
-13.284433 -2.3097034 1.6328449
-11.032063 -1.9180942 1.4505227
-11.126042 -1.9344338 1.558416
-11.353572 -1.9739933 1.6880001
-11.939397 -2.0758481 1.8781047
-2.0777686 -0.38763002 -0.56634122
-2.1391847 -0.39908785 -0.56374002
-2.2398212 -0.41786268 -0.57009637
-2.3060198 -0.43021274 -0.56627148
-2.3985062 -0.44746703 -0.56756532
-2.5077417 -0.46784613 -0.5711078
-2.5830119 -0.48188856 -0.56535918
-2.7075851 -0.50512904 -0.56871647
-2.8303318 -0.52802873 -0.56959188
-2.9602513 -0.55226666 -0.56977284
-3.0969694 -0.57777286 -0.56900889
-3.2748208 -0.61095297 -0.57313782
-3.4476111 -0.64318883 -0.57341009
-3.6351271 -0.67817193 -0.57308537
-3.849689 -0.71820074 -0.57362479
-4.092278 -0.76345831 -0.57447362
-4.3585491 -0.81313407 -0.57434392
-4.6594806 -0.86927611 -0.57398659
-5.0142035 -0.93545341 -0.57471186
-5.4190912 -1.0109897 -0.57476395
-5.9027338 -1.1012183 -0.57565594
-6.4912705 -1.2110162 -0.57771027
-7.2166185 -1.3463376 -0.58082831
-8.0831938 -1.5080065 -0.58185112
-9.206706 -1.7176098 -0.58454132
-10.673973 -1.9913442 -0.5871498
-12.714405 -2.3720086 -0.59162706
-15.711014 -2.9310582 -0.59800655
-20.555567 -3.8348615 -0.60842448
-29.731232 -5.5466805 -0.6284954
-11.43717 -2.1337268 -0.14505044
-11.251018 -2.0989981 -0.047561001
-11.203282 -2.0900924 0.04735921
-13.57618 -2.5327818 0.17217813
-13.655265 -2.5475361 0.28866181
-13.723379 -2.5602436 0.40619847
-13.76556 -2.5681129 0.52395695
-13.768316 -2.5686271 0.64066768
-13.78129 -2.5710475 0.75807583
-13.778514 -2.5705295 0.87480909
-13.738586 -2.5630808 0.98894233
-13.692022 -2.5543938 1.1020001
-13.623258 -2.5415649 1.2124431
-13.521879 -2.5226517 1.3187025
-13.382825 -2.4967096 1.4194198
-13.23577 -2.469275 1.5170414
-13.080886 -2.4403796 1.6113926
-12.86841 -2.4007399 1.6957233
-11.080163 -2.0671232 1.5554323
-11.222699 -2.093715 1.6722438
-11.84525 -2.2098584 1.8674284
-2.0686648 -0.41231474 -0.56519902
-2.1496637 -0.42845899 -0.56784701
-2.2264545 -0.44376451 -0.56804007
-2.326148 -0.46363488 -0.57257086
-2.4003906 -0.47843251 -0.56936032
-2.5007772 -0.49844098 -0.57087433
-2.614574 -0.52112234 -0.57362652
-2.7111626 -0.5403738 -0.57082045
-2.829335 -0.56392729 -0.57074362
-2.9497933 -0.5879364 -0.56910843
-3.0887139 -0.61562526 -0.56883997
-3.2436833 -0.64651287 -0.5690366
-3.4365773 -0.68495947 -0.57293248
-3.6321366 -0.72393721 -0.57397389
-3.8232043 -0.76201981 -0.57103145
-4.0662866 -0.81046957 -0.57218069
-4.3381472 -0.86465532 -0.57301319
-4.6435056 -0.92551768 -0.57337725
-5.0125399 -0.9990716 -0.57588577
-5.4124999 -1.0787894 -0.57542831
-5.9000821 -1.1759715 -0.57676393
-6.4835691 -1.2922689 -0.57839537
-7.1869903 -1.4324709 -0.57981759
-8.0528851 -1.6050562 -0.58104616
-9.175518 -1.8288131 -0.58394474
-10.645335 -2.121769 -0.58696526
-12.681756 -2.527657 -0.5915094
-15.675099 -3.1242735 -0.59805661
-20.521685 -4.0902677 -0.60886425
-29.644741 -5.9086251 -0.62815541
-11.457278 -2.2836008 -0.14565055
-11.278062 -2.2478805 -0.047788553
-11.335534 -2.2593355 0.048032083
-13.279613 -2.6468186 0.16881697
-13.362435 -2.6633263 0.28314251
-13.409131 -2.6726334 0.39783973
-13.447611 -2.6803031 0.51307064
-13.464042 -2.6835778 0.62799716
-13.480186 -2.6867957 0.74327403
-13.472357 -2.6852353 0.85740256
-13.454607 -2.6816974 0.97080094
-13.418356 -2.6744721 1.0825392
-13.334935 -2.657845 1.1896017
-13.250144 -2.640945 1.2952709
-13.141347 -2.6192601 1.3971183
-13.023468 -2.5957651 1.4962533
-12.846552 -2.5605032 1.5862844
-12.167716 -2.4252014 1.6071981
-11.187904 -2.2299109 1.5742873
-11.194981 -2.2313211 1.6720754
-2.064538 -0.4379521 -0.56550008
-2.1522863 -0.45656621 -0.56997973
-2.2273901 -0.47249803 -0.569718
-2.2996345 -0.48782331 -0.5674783
-2.4023983 -0.50962269 -0.57127976
-2.4867804 -0.52752274 -0.56911689
-2.574728 -0.54617918 -0.56631517
-2.6955082 -0.57180035 -0.56896192
-2.8458791 -0.60369867 -0.57553494
-2.9383717 -0.62331915 -0.5683406
-3.0788686 -0.6531229 -0.56846285
-3.2428801 -0.68791479 -0.57033658
-3.4208429 -0.72566617 -0.57175374
-3.6125767 -0.76633883 -0.57232881
-3.8253548 -0.81147557 -0.57279968
-4.0710511 -0.86359543 -0.57430202
-4.3352451 -0.91963899 -0.57408017
-4.6384692 -0.98396218 -0.57420594
-4.9755292 -1.055463 -0.57308137
-5.3912106 -1.1436418 -0.57461655
-5.8768029 -1.2466509 -0.57594323
-6.4557467 -1.3694627 -0.5773719
-7.1675239 -1.5204526 -0.57971156
-8.0448513 -1.7065607 -0.58193666
-9.1359138 -1.9380088 -0.58289683
-10.612792 -2.2513001 -0.58665293
-12.658075 -2.6851678 -0.59190017
-15.65081 -3.320019 -0.59864223
-20.454187 -4.338963 -0.60839868
-29.58082 -6.2750034 -0.62838846
-11.50457 -2.4404738 -0.14662217
-11.317699 -2.4008327 -0.048077971
-11.417375 -2.4219768 0.048501395
-12.010364 -2.5477681 0.15306835
-13.072154 -2.7730064 0.27769312
-13.108474 -2.7807112 0.38990444
-13.149922 -2.7895036 0.50298345
-13.177441 -2.795341 0.61618602
-13.177643 -2.7953839 0.72843254
-13.169923 -2.7937465 0.84027791
-13.158147 -2.7912483 0.95181471
-13.127567 -2.7847614 1.0617619
-13.075863 -2.7737932 1.1694442
-12.993035 -2.7562232 1.2733541
-12.897537 -2.735965 1.3746705
-12.768589 -2.708611 1.4706858
-12.216292 -2.5914519 1.5122807
-11.870737 -2.5181489 1.5719422
-11.270366 -2.3907917 1.5899072
-11.215639 -2.3791826 1.6794037
-2.0759182 -0.46711108 -0.57014745
-2.1395347 -0.48142573 -0.56812757
-2.2309935 -0.50200528 -0.57217538
-2.2956381 -0.5165512 -0.56801659
-2.3923707 -0.53831744 -0.57042617
-2.4837153 -0.55887121 -0.5699451
-2.5762615 -0.57969552 -0.5681774
-2.6947455 -0.60635602 -0.57033157
-2.818146 -0.63412291 -0.57146001
-2.94488 -0.66263992 -0.5711323
-3.0814157 -0.6933623 -0.57046413
-3.2451644 -0.7302081 -0.57227421
-3.3988354 -0.7647863 -0.56960416
-3.6007175 -0.81021261 -0.57198513
-3.812593 -0.85788769 -0.57242513
-4.0422893 -0.90957254 -0.57177913
-4.3176923 -0.97154218 -0.57329446
-4.6344647 -1.0428205 -0.57525414
-4.9781995 -1.1201657 -0.57493198
-5.3820944 -1.2110478 -0.57518864
-5.865293 -1.3197743 -0.57636213
-6.4373546 -1.4484963 -0.57727635
-7.1414719 -1.6069328 -0.5791589
-8.0083237 -1.8019867 -0.58085328
-9.1130562 -2.0505672 -0.5830031
-10.589104 -2.382699 -0.58691871
-12.616809 -2.8389614 -0.59155816
-15.593216 -3.5086951 -0.59804434
-20.385487 -4.5870247 -0.60798699
-29.478432 -6.6330662 -0.62789857
-53.184521 -11.967274 -0.67964423
-11.37876 -2.5603828 -0.048467439
-11.440055 -2.5741751 0.048728522
-11.678385 -2.6278026 0.1492379
-12.020402 -2.7047613 0.2560378
-12.233504 -2.7527125 0.36485815
-12.868115 -2.895509 0.49352896
-12.898866 -2.9024282 0.60478282
-12.904735 -2.903749 0.71526641
-12.895876 -2.9017556 0.82500714
-12.889624 -2.9003487 0.93489981
-12.869802 -2.8958883 1.0437148
-12.825011 -2.8858099 1.1500959
-12.746696 -2.8681879 1.2525738
-12.285582 -2.7644308 1.3129698
-12.159356 -2.736028 1.4042833
-11.930827 -2.6846058 1.480917
-11.591071 -2.608156 1.539039
-11.307486 -2.5443449 1.5994364
-11.308561 -2.5445871 1.6978744
-2.059391 -0.49007148 -0.56722051
-2.1325018 -0.50746959 -0.56787413
-2.2249393 -0.52946687 -0.57224911
-2.2901607 -0.5449875 -0.56827646
-2.380502 -0.566486 -0.56921411
-2.4763098 -0.58928525 -0.56986541
-2.5665188 -0.61075222 -0.56764209
-2.6890216 -0.63990408 -0.57074231
-2.7939222 -0.66486716 -0.5681628
-2.9325669 -0.69786036 -0.57036537
-3.065753 -0.72955453 -0.56918234
-3.2260952 -0.76771104 -0.57053304
-3.4076061 -0.81090504 -0.57270181
-3.6075237 -0.85847926 -0.57469976
-3.8033876 -0.90508884 -0.5726707
-4.0247564 -0.95776778 -0.57092184
-4.3067722 -1.0248787 -0.57347447
-4.6082439 -1.0966197 -0.57362986
-4.954845 -1.1791002 -0.57386583
-5.371201 -1.27818 -0.57566065
-5.8523602 -1.392681 -0.57673049
-6.4373012 -1.5318789 -0.57891703
-7.1131172 -1.6927023 -0.57850367
-7.9921927 -1.901895 -0.5813356
-9.092701 -2.1637821 -0.583359
-10.563492 -2.5137849 -0.58716804
-12.577674 -2.993098 -0.5914042
-15.529122 -3.6954517 -0.59728384
-20.33386 -4.8388309 -0.60817587
-29.390829 -6.9941096 -0.62781703
-53.016506 -12.616292 -0.67942828
-11.526262 -2.7428944 -0.049235657
-11.4371 -2.7216766 0.048854794
-11.533603 -2.7446413 0.14780785
-11.71784 -2.7884841 0.25030458
-11.907448 -2.8336051 0.35614595
-12.067854 -2.8717766 0.46415591
-12.173479 -2.8969121 0.5723989
-12.227481 -2.9097629 0.67966026
-12.281855 -2.9227021 0.78796506
-12.278599 -2.9219275 0.89311999
-12.255011 -2.9163141 0.99668938
-12.209396 -2.9054594 1.0980109
-12.113636 -2.8826714 1.1937582
-12.002098 -2.8561287 1.2863297
-11.846836 -2.8191812 1.3720903
-11.631128 -2.7678494 1.4478319
-11.422213 -2.7181339 1.5209413
-11.306283 -2.6905463 1.6038249
-2.058073 -0.51657647 -0.56856406
-2.1071463 -0.52889383 -0.56281132
-2.1978698 -0.55166543 -0.56698877
-2.2889888 -0.57453632 -0.56969565
-2.3596318 -0.59226775 -0.56592238
-2.46715 -0.61925483 -0.56946683
-2.5577054 -0.64198422 -0.56739587
-2.6735239 -0.67105466 -0.56916136
-2.7891181 -0.70006877 -0.56889343
-2.9305902 -0.73557836 -0.57169694
-3.0664239 -0.76967257 -0.57102078
-3.218899 -0.80794388 -0.57097417
-3.3836524 -0.84929699 -0.57038802
-3.5666909 -0.89523965 -0.56990546
-3.7754381 -0.94763517 -0.57017374
-4.027812 -1.0109811 -0.57307541
-4.2955627 -1.0781865 -0.57370383
-4.5882525 -1.1516516 -0.57286084
-4.9505429 -1.2425866 -0.57509375
-5.3458772 -1.3418155 -0.57467145
-5.8322315 -1.4638906 -0.57647717
-6.4035058 -1.6072804 -0.57761145
-7.1014223 -1.7824575 -0.57929128
-7.9744735 -2.0015934 -0.58179301
-9.0675116 -2.2759459 -0.58349431
-10.509438 -2.6378696 -0.58592206
-12.526481 -3.1441476 -0.59077036
-15.479251 -3.885293 -0.59715807
-20.253592 -5.083653 -0.60759878
-29.293135 -7.3525786 -0.62761402
-52.81073 -13.255496 -0.67882872
-11.569482 -2.9039407 0.049569059
-11.506203 -2.8880577 0.14790064
-11.5768 -2.9057777 0.24803635
-11.667968 -2.9286606 0.35003385
-11.778724 -2.9564605 0.45439923
-11.860002 -2.9768612 0.55933803
-11.930884 -2.9946527 0.66517061
-11.960681 -3.0021317 0.76966977
-11.953083 -3.0002246 0.87206012
-11.938987 -2.9966865 0.97391063
-11.901543 -2.987288 1.0735474
-11.82128 -2.9671419 1.1684546
-11.725439 -2.9430861 1.260462
-11.587923 -2.9085693 1.3461437
-11.474747 -2.8801622 1.4326659
-11.375782 -2.8553221 1.5193189
-18.555376 -4.6574006 2.6400514
-2.0428529 -0.53954136 -0.56614941
-2.125912 -0.5614782 -0.5696246
-2.1982102 -0.58057302 -0.56887525
-2.2978117 -0.60687894 -0.57370549
-2.3639069 -0.62433541 -0.56874591
-2.473388 -0.65325069 -0.57271749
-2.5561867 -0.6751188 -0.56885755
-2.6751244 -0.70653164 -0.57130837
-2.7784131 -0.73381138 -0.56850749
-2.9022729 -0.76652426 -0.56796861
-3.0577362 -0.80758387 -0.57120901
-3.2070935 -0.84703088 -0.57068449
-3.3793814 -0.89253414 -0.57147491
-3.5628285 -0.94098467 -0.57109398
-3.7865365 -1.0000685 -0.57366365
-4.0095472 -1.0589683 -0.57228613
-4.2794352 -1.1302488 -0.57336271
-4.5776501 -1.209011 -0.57334989
-4.9353871 -1.3034934 -0.57515162
-5.328095 -1.4072123 -0.57457662
-5.8048797 -1.5331366 -0.57559353
-6.395309 -1.6890758 -0.57870179
-7.0803218 -1.8699958 -0.57940197
-7.9242144 -2.0928776 -0.57995999
-9.0288811 -2.3846331 -0.58285129
-10.498482 -2.7727718 -0.5871678
-12.481366 -3.2964747 -0.59050971
-15.436689 -4.0770102 -0.59740496
-20.19961 -5.3349528 -0.60790133
-29.182808 -7.707521 -0.62723345
-52.609165 -13.894695 -0.67838269
-11.538343 -3.0474114 0.24799651
-11.561724 -3.0535865 0.34794673
-11.598454 -3.0632873 0.44886398
-11.635542 -3.0730827 0.55049264
-11.675723 -3.0836949 0.65300947
-11.700111 -3.0901363 0.75529015
-11.695852 -3.0890114 0.85599989
-11.684767 -3.0860834 0.95619619
-11.645782 -3.0757871 1.053809
-11.610779 -3.0665424 1.1512882
-11.527096 -3.044441 1.2430708
-11.47339 -3.0302563 1.3370661
-11.487054 -3.0338652 1.4387516
-19.969435 -5.2741613 2.6755235
-18.866104 -4.9827585 2.6927752
-2.0545671 -0.56974947 -0.57129425
-2.1122942 -0.58575767 -0.56786287
-2.1770732 -0.60372144 -0.5652836
-2.2695241 -0.62935895 -0.56853205
-2.352385 -0.65233701 -0.56786084
-2.4470949 -0.67860085 -0.5685184
-2.5426414 -0.70509678 -0.56772977
-2.6458387 -0.73371422 -0.56693798
-2.7705786 -0.76830578 -0.56879455
-2.9014902 -0.80460864 -0.56970853
-3.0402441 -0.84308636 -0.56983495
-3.2017436 -0.8878715 -0.57163197
-3.3725584 -0.93524003 -0.57222265
-3.5717182 -0.9904688 -0.57442772
-3.7586746 -1.0423135 -0.5713411
-3.9991362 -1.1089956 -0.5727033
-4.2575216 -1.1806481 -0.57232863
-4.5783129 -1.2696064 -0.5753448
-4.924706 -1.3656641 -0.57582033
-5.3309445 -1.4783176 -0.57680058
-5.8045354 -1.6096485 -0.57747835
-6.3698115 -1.7664045 -0.57831633
-7.0595145 -1.9576653 -0.57962537
-7.9071531 -2.1927228 -0.58064079
-9.0020409 -2.4963448 -0.58305615
-10.45103 -2.8981621 -0.58646268
-12.449704 -3.4524121 -0.59097552
-15.380075 -4.2650299 -0.59719849
-20.118172 -5.5789452 -0.60746914
-29.070301 -8.0614491 -0.62689841
-52.402515 -14.531677 -0.67797089
-11.603418 -3.2177298 0.55080318
-11.574989 -3.209846 0.64953399
-11.584991 -3.2126195 0.75035208
-11.586662 -3.213083 0.85083574
-11.563528 -3.2066679 0.94942987
-11.535356 -3.1988552 1.047297
-11.537421 -3.1994281 1.1478286
-20.183989 -5.5971971 2.7132859
-19.219547 -5.3297491 2.7523687
-2.0384927 -0.59237814 -0.56880701
-2.1080525 -0.61259192 -0.56870461
-2.1815455 -0.63394868 -0.56842595
-2.2659266 -0.65846956 -0.56961608
-2.3336906 -0.6781615 -0.56531835
-2.4308972 -0.70640939 -0.56673056
-2.5348494 -0.73661751 -0.56796944
-2.6383321 -0.76668912 -0.5673067
-2.767251 -0.80415249 -0.57009834
-2.8970985 -0.84188569 -0.57083577
-3.0420141 -0.88399762 -0.57216084
-3.1829126 -0.92494214 -0.57025748
-3.3456819 -0.97224224 -0.56964785
-3.5420356 -1.0293019 -0.57164627
-3.7524261 -1.0904405 -0.57238621
-3.9959309 -1.1612022 -0.57424563
-4.2488837 -1.2347093 -0.57316506
-4.5346785 -1.31776 -0.57185435
-4.8918142 -1.4215424 -0.57397497
-5.3110766 -1.5433784 -0.57666069
-5.7707434 -1.6769558 -0.57612443
-6.3302302 -1.8395406 -0.57673281
-7.0251303 -2.0414758 -0.57881951
-7.8777466 -2.2892427 -0.5805046
-8.9723949 -2.6073432 -0.58316845
-10.417807 -3.0273745 -0.58664292
-12.403676 -3.6044605 -0.59084988
-15.335246 -4.4563632 -0.59754032
-20.036917 -5.8226504 -0.60713166
-28.97044 -8.4186983 -0.62692994
-52.181545 -15.163756 -0.67747319
-20.591276 -5.9837456 2.7777176
-19.68046 -5.7190657 2.8282316
-2.0381019 -0.6195398 -0.57078052
-2.0903754 -0.63542986 -0.56600082
-2.1738243 -0.66079652 -0.5684883
-2.2534173 -0.68499112 -0.56854588
-2.3408034 -0.71155465 -0.56911784
-2.4345303 -0.74004561 -0.56965595
-2.5316088 -0.76955551 -0.56932056
-2.6295631 -0.79933149 -0.56749171
-2.7544172 -0.83728451 -0.56953233
-2.8805394 -0.87562299 -0.56965142
-3.0155926 -0.91667628 -0.56926835
-3.1670039 -0.96270216 -0.56948507
-3.3419018 -1.0158674 -0.57108796
-3.5295963 -1.0729226 -0.57172477
-3.7398195 -1.1368259 -0.57255226
-3.9590287 -1.2034609 -0.57102597
-4.2285991 -1.2854047 -0.57251763
-4.5414042 -1.3804908 -0.57479978
-4.8792181 -1.483179 -0.57459348
-5.2783446 -1.6045049 -0.57520545
-5.7526288 -1.7486774 -0.57641912
-6.3091583 -1.9178505 -0.57691795
-7.0058279 -2.1296232 -0.57934296
-7.8527064 -2.3870564 -0.58077842
-8.948184 -2.7200584 -0.58372468
-10.374141 -3.1535189 -0.58632326
-12.348289 -3.7536185 -0.59036559
-15.266278 -4.6406255 -0.59703135
-19.965744 -6.0691638 -0.60719049
-28.849611 -8.7696705 -0.6266014
-51.949646 -15.791593 -0.67693233
-20.910213 -6.3562622 2.8310711
-20.213484 -6.1444712 2.9154687
-2.01791 -0.64060956 -0.56728882
-2.1051638 -0.66830939 -0.57218695
-2.1732225 -0.68991536 -0.57050639
-2.2598228 -0.71740776 -0.57234448
-2.3383074 -0.74232352 -0.57068706
-2.4199879 -0.76825404 -0.56842071
-2.5158892 -0.79869902 -0.56795114
-2.6239779 -0.83301312 -0.56845403
-2.7485013 -0.87254453 -0.57048446
-2.8665843 -0.91003138 -0.56906164
-3.013051 -0.95652896 -0.57096577
-3.1500223 -1.0000122 -0.56859964
-3.3370907 -1.0593992 -0.57244861
-3.5187044 -1.1170547 -0.57214218
-3.7085495 -1.1773232 -0.56993824
-3.9555454 -1.2557352 -0.57270741
-4.2267466 -1.3418311 -0.57445729
-4.49546 -1.4271375 -0.57116264
-4.8644357 -1.5442731 -0.57504541
-5.2623873 -1.6706076 -0.5756616
-5.7152267 -1.8143668 -0.57486337
-6.2999134 -1.9999826 -0.57827759
-6.9784055 -2.215378 -0.57928419
-7.8308821 -2.486007 -0.58138126
-8.9083681 -2.8280675 -0.58335173
-10.32725 -3.2785089 -0.58590734
-12.304593 -3.90624 -0.59052825
-15.202774 -4.8263021 -0.59682363
-19.890503 -6.3144774 -0.60721773
-28.733765 -9.1218758 -0.62647414
-51.703369 -16.413851 -0.67630208
-24.469736 -7.7682095 3.1089585
-21.237635 -6.7421408 2.8864076
-2.0019224 -0.66273779 -0.56504256
-2.0893381 -0.69167686 -0.57015407
-2.156605 -0.71394563 -0.56840569
-2.2315247 -0.73874784 -0.5674352
-2.3134515 -0.7658698 -0.56687641
-2.4086297 -0.79737854 -0.56801289
-2.5165181 -0.83309507 -0.57036257
-2.6244359 -0.86882138 -0.5708245
-2.7264588 -0.90259612 -0.56817001
-2.856353 -0.94559771 -0.56929576
-2.9983675 -0.99261171 -0.57045311
-3.1560233 -1.0448037 -0.5719586
-3.3251235 -1.1007845 -0.57267439
-3.5122383 -1.1627289 -0.57337219
-3.7029185 -1.2258538 -0.57134622
-3.940141 -1.3043864 -0.57275599
-4.2117453 -1.3943012 -0.57470518
-4.4942355 -1.4878198 -0.57328814
-4.8389874 -1.6019502 -0.57432222
-5.2320828 -1.7320848 -0.574633
-5.7027597 -1.8879026 -0.57590091
-6.2664094 -2.0744991 -0.5775001
-6.9421339 -2.2981982 -0.57857537
-7.7853112 -2.577333 -0.58030701
-8.869278 -2.9361806 -0.58311218
-10.287691 -3.4057477 -0.58599466
-12.255319 -4.0571318 -0.59051305
-15.134278 -5.0102134 -0.59650815
-19.80271 -6.5557008 -0.60695255
-28.599869 -9.4680061 -0.62604582
-51.448257 -17.031982 -0.67565352
-24.654249 -8.1618071 3.1449151
-21.570927 -7.1410708 2.9434173
-1.9931349 -0.68713439 -0.56490439
-2.0591655 -0.70989847 -0.56425977
-2.1469731 -0.74017018 -0.56822294
-2.22806 -0.768125 -0.56891292
-2.3189626 -0.79946363 -0.57059246
-2.398349 -0.82683223 -0.56794322
-2.5031812 -0.86297315 -0.56970179
-2.6035707 -0.89758253 -0.56864387
-2.7254009 -0.93958354 -0.57031411
-2.8429751 -0.98011726 -0.56898844
-2.9793482 -1.027132 -0.5691945
-3.1423445 -1.083325 -0.5718506
-3.3027134 -1.1386123 -0.57118291
-3.494395 -1.2046947 -0.57283431
-3.6897457 -1.2720419 -0.57168394
-3.9208486 -1.3517148 -0.57232451
-4.193244 -1.4456233 -0.57456279
-4.482368 -1.5452988 -0.57415479
-4.8228307 -1.6626736 -0.57478774
-5.2095346 -1.79599 -0.57453865
-5.6825109 -1.9590489 -0.57624519
-6.2327466 -2.1487432 -0.5767892
-6.9177952 -2.3849137 -0.57894725
-7.770834 -2.6789994 -0.58163935
-8.8221083 -3.0414269 -0.58242577
-10.245417 -3.5321133 -0.5860163
-12.183722 -4.200345 -0.58950734
-15.076433 -5.1976089 -0.59670216
-19.71616 -6.7971573 -0.60681576
-28.454033 -9.8095446 -0.62544668
-51.196434 -17.65 -0.67514557
-24.733147 -8.5267668 3.1681144
-21.893887 -7.5479302 2.9999239
-1.9987047 -0.71666974 -0.56893772
-2.0564132 -0.73736209 -0.56594735
-2.1303551 -0.76387519 -0.56626791
-2.2174509 -0.79510486 -0.5686574
-2.2812526 -0.81798208 -0.56374598
-2.3950636 -0.85879099 -0.56962281
-2.4875383 -0.89194936 -0.56859481
-2.5938227 -0.93005943 -0.56896961
-2.7161133 -0.97390884 -0.57083344
-2.83898 -1.0179648 -0.57065099
-2.9638171 -1.0627273 -0.56868088
-3.1218059 -1.1193768 -0.57057464
-3.2903485 -1.1798106 -0.57151026
-3.4677856 -1.2434338 -0.57093549
-3.6783209 -1.3189248 -0.57238328
-3.9103751 -1.4021319 -0.57326907
-4.1634388 -1.492872 -0.57295078
-4.4477506 -1.5948169 -0.57218927
-4.8004651 -1.7212888 -0.57460129
-5.1901846 -1.8610294 -0.57488495
-5.6613207 -2.0299633 -0.57658398
-6.2200594 -2.2303085 -0.57810932
-6.8837223 -2.4682763 -0.57859206
-7.7212353 -2.7685809 -0.58043122
-8.8051882 -3.1572509 -0.58382767
-10.204257 -3.6589108 -0.58619112
-12.143244 -4.3541675 -0.5900948
-15.008097 -5.3814096 -0.59657139
-19.623077 -7.03619 -0.60656792
-28.329397 -10.15799 -0.62540537
-50.931454 -18.262344 -0.67456156
-25.19591 -9.0344238 3.0158751
-24.49708 -8.7838469 3.1514733
-22.317408 -8.0022879 3.0712059
-1.9860789 -0.73982626 -0.56789035
-2.0599926 -0.76735955 -0.56948626
-2.1320546 -0.7942031 -0.56927252
-2.2088771 -0.82281995 -0.56901044
-2.282104 -0.85009736 -0.56649679
-2.3646147 -0.88083315 -0.56491441
-2.4694111 -0.91987044 -0.56699395
-2.5835066 -0.96237159 -0.56925946
-2.7040946 -1.0072914 -0.57086754
-2.8257184 -1.0525969 -0.57054383
-2.9647892 -1.1044017 -0.57142991
-3.107739 -1.1576514 -0.5705623
-3.2709148 -1.2184353 -0.57069397
-3.4647706 -1.2906477 -0.57300866
-3.6514225 -1.3601767 -0.57075715
-3.8845639 -1.4470233 -0.57205033
-4.142312 -1.5430361 -0.57261133
-4.4472642 -1.6566324 -0.57470387
-4.7703276 -1.7769756 -0.57356602
-5.1713881 -1.926373 -0.57538319
-5.6311812 -2.0976486 -0.57609791
-6.1777453 -2.3012471 -0.57676297
-6.842937 -2.5490351 -0.57775486
-7.6726022 -2.8580902 -0.57937342
-8.7573118 -3.2621512 -0.58326882
-10.150388 -3.78108 -0.58572316
-12.087037 -4.5024939 -0.59000927
-14.938289 -5.5646019 -0.59647131
-19.525658 -7.2734241 -0.60627532
-28.187603 -10.500051 -0.62507814
-50.666954 -18.873743 -0.67408121
-22.933462 -8.5428514 3.1702003
-1.982275 -0.7662943 -0.56945395
-2.0340393 -0.78630495 -0.56494164
-2.1278446 -0.82256764 -0.57080597
-2.1908336 -0.84691751 -0.56700218
-2.2777162 -0.88050389 -0.56805229
-2.3734083 -0.91749597 -0.56966746
-2.4718475 -0.95554996 -0.57020813
-2.5654645 -0.99173969 -0.56792814
-2.7012084 -1.0442146 -0.57292557
-2.8193998 -1.0899043 -0.57193083
-2.9369855 -1.1353598 -0.56871885
-3.0955927 -1.196673 -0.57099068
-3.2467883 -1.2551211 -0.56913424
-3.4290574 -1.3255816 -0.56975502
-3.6467285 -1.4097273 -0.57268971
-3.8681231 -1.4953125 -0.5722937
-4.1283875 -1.5959237 -0.57335579
-4.4169798 -1.7074858 -0.57346022
-4.7416244 -1.8329847 -0.57278162
-5.1501226 -1.9908992 -0.57569748
-5.5979705 -2.1640251 -0.57537907
-6.1376748 -2.3726604 -0.57570225
-6.8192081 -2.6361227 -0.57844448
-7.6497164 -2.957175 -0.58034724
-8.7111692 -3.3675041 -0.58290941
-10.102663 -3.9054184 -0.58569616
-12.034679 -4.6522837 -0.59020132
-14.865142 -5.7464647 -0.59632701
-19.430069 -7.5111432 -0.60612929
-28.045847 -10.841771 -0.62484372
-50.362789 -19.468903 -0.67316866
-1.956758 -0.78421915 -0.56485111
-2.0426178 -0.8186295 -0.570077
-2.1088188 -0.8451612 -0.56844705
-2.1783586 -0.87303102 -0.56650907
-2.2729478 -0.91093993 -0.56961358
-2.3599114 -0.94579279 -0.56917632
-2.4517879 -0.98261458 -0.56832504
-2.556293 -1.0244976 -0.56864363
-2.6696608 -1.0699325 -0.56898177
-2.7983956 -1.1215261 -0.57042444
-2.9236233 -1.1717142 -0.56887835
-3.0900424 -1.2384108 -0.57273245
-3.2417016 -1.299192 -0.5709998
-3.4183054 -1.3699703 -0.57072443
-3.6194501 -1.4505841 -0.57116383
-3.8496368 -1.542837 -0.57232219
-4.091855 -1.6399119 -0.5710395
-4.4028378 -1.764546 -0.5743978
-4.7203398 -1.8917928 -0.57297719
-5.1291089 -2.0556171 -0.57613045
-5.5797572 -2.2362254 -0.57628977
-6.1194539 -2.4525223 -0.57677829
-6.7803845 -2.7174067 -0.57794195
-7.6084237 -3.0492637 -0.5800153
-8.6700144 -3.4747224 -0.5829705
-10.046453 -4.0263643 -0.58526349
-11.963064 -4.7944932 -0.58953589
-14.785165 -5.9255199 -0.59599656
-19.320383 -7.7431207 -0.60563201
-27.888817 -11.177133 -0.62436008
-50.073807 -20.068314 -0.6725536
-1.9668874 -0.81648821 -0.57063019
-2.0152328 -0.83655721 -0.56526226
-2.0950339 -0.86968404 -0.56757098
-2.182785 -0.90611094 -0.57051468
-2.2635076 -0.93962026 -0.57010019
-2.3359427 -0.96968937 -0.56622845
-2.4447162 -1.014843 -0.56953537
-2.5439379 -1.0560317 -0.5687409
-2.6522636 -1.1009995 -0.56811643
-2.7717481 -1.1505996 -0.56783366
-2.9304216 -1.2164675 -0.57306838
-3.0484831 -1.2654769 -0.5678708
-3.2112756 -1.3330548 -0.56848478
-3.404439 -1.4132402 -0.57126749
-3.603904 -1.4960414 -0.57157034
-3.8281331 -1.5891228 -0.57198709
-4.0786371 -1.6931113 -0.57205713
-4.3709359 -1.8144495 -0.57310331
-4.718823 -1.9588631 -0.57567334
-5.0940471 -2.1146252 -0.57506937
-5.5490837 -2.3035185 -0.57600367
-6.0888295 -2.5275762 -0.57677764
-6.7516875 -2.8027396 -0.57838976
-7.5789676 -3.1461575 -0.58067507
-8.6207781 -3.5786307 -0.58257467
-10.008976 -4.1548953 -0.58601224
-11.896513 -4.9384441 -0.58920431
-14.707982 -6.1055322 -0.59586662
-19.21641 -7.9770565 -0.60540175
-27.736263 -11.513792 -0.62406719
-49.766029 -20.65872 -0.67178088
-1.9527377 -0.83890843 -0.56947482
-2.0158968 -0.86604202 -0.56839269
-2.0941205 -0.89964736 -0.57027739
-2.1556263 -0.92607069 -0.56634974
-2.2472918 -0.9654507 -0.56896305
-2.3341033 -1.0027455 -0.56872845
-2.4223568 -1.0406598 -0.56726468
-2.5340965 -1.0886638 -0.56949043
-2.6357231 -1.1323233 -0.56751299
-2.7755966 -1.1924138 -0.57158273
-2.8927436 -1.2427409 -0.5686456
-3.0531952 -1.3116719 -0.57170981
-3.2103519 -1.3791873 -0.57128036
-3.377466 -1.4509807 -0.56969219
-3.5825877 -1.5391022 -0.57114804
-3.808712 -1.6362467 -0.57204831
-4.0674696 -1.7474105 -0.57346112
-4.35008 -1.8688219 -0.57333845
-4.6795354 -2.0103579 -0.57385284
-5.0703859 -2.1782699 -0.57537854
-5.5159712 -2.3696959 -0.5755477
-6.0466738 -2.5976892 -0.57576662
-6.7041311 -2.880137 -0.57730603
-7.525795 -3.2331288 -0.57960331
-8.5878496 -3.6893945 -0.58337116
-9.944416 -4.2721834 -0.58526379
-11.850184 -5.0909138 -0.58996558
-14.628663 -6.2845659 -0.59573889
-19.116264 -8.2124672 -0.60538244
-27.572495 -11.845317 -0.62361252
-49.458477 -21.247673 -0.67110544
-1.9378457 -0.86088717 -0.56817609
-1.9961331 -0.88678128 -0.56585193
-2.0720847 -0.92052269 -0.56731606
-2.1468353 -0.95373064 -0.56707835
-2.2481191 -0.99872595 -0.57223845
-2.3252404 -1.0329871 -0.56962079
-2.4094262 -1.0703865 -0.56727594
-2.5239518 -1.1212646 -0.57026601
-2.6346035 -1.1704216 -0.57032764
-2.7510571 -1.222156 -0.56958097
-2.8784742 -1.2787609 -0.56888855
-3.0174904 -1.3405188 -0.56806773
-3.198071 -1.4207417 -0.57216048
-3.3697941 -1.4970297 -0.57145995
-3.5684156 -1.5852672 -0.57195312
-3.785655 -1.6817757 -0.57164806
-4.0397592 -1.7946613 -0.5726223
-4.309833 -1.9146416 -0.57109374
-4.6570277 -2.0688827 -0.57416904
-5.0316653 -2.2353153 -0.57406032
-5.4761777 -2.4327898 -0.57447356
-6.0232644 -2.6758327 -0.57662708
-6.6788483 -2.9670753 -0.57822692
-7.4939756 -3.3291955 -0.58026171
-8.5224752 -3.7861061 -0.58204877
-9.8799 -4.3891416 -0.58459902
-11.770167 -5.2288918 -0.58913845
-14.538354 -6.4586577 -0.59525037
-18.992184 -8.4372692 -0.60469288
-27.414757 -12.178994 -0.62338495
-49.142773 -21.831656 -0.67041355
-1.9218181 -0.88221776 -0.56661463
-1.9937453 -0.91523618 -0.5683223
-2.0539591 -0.94287759 -0.56548506
-2.1391997 -0.98200762 -0.56820816
-2.225421 -1.0215877 -0.5696153
-2.3114958 -1.0611007 -0.56940705
-2.4062986 -1.1046203 -0.56969452
-2.498476 -1.1469347 -0.56765354
-2.6143668 -1.2001348 -0.56909847
-2.7368774 -1.2563738 -0.56980067
-2.8683171 -1.3167117 -0.57003796
-2.9951463 -1.374933 -0.56700122
-3.1698363 -1.4551251 -0.57026714
-3.3484888 -1.5371362 -0.5710091
-3.5376182 -1.6239568 -0.5701744
-3.7757459 -1.7332702 -0.57332677
-4.0205746 -1.8456597 -0.57307661
-4.2988853 -1.9734193 -0.57281524
-4.6329293 -2.1267633 -0.57437873
-5.0051947 -2.2976532 -0.57422024
-5.4469247 -2.5004311 -0.57458675
-5.9981284 -2.7534633 -0.57741839
-6.6452298 -3.0505176 -0.57852018
-7.451108 -3.4204588 -0.58015525
-8.4686184 -3.8875506 -0.58159131
-9.8355255 -4.5150347 -0.58521414
-11.711343 -5.3761353 -0.58945835
-14.452356 -6.634408 -0.59502453
-18.881109 -8.6674433 -0.60450405
-27.242867 -12.505939 -0.622926
-48.821503 -22.411694 -0.66973972
-1.9121621 -0.90641445 -0.56701094
-1.9809495 -0.93902147 -0.56792331
-2.0468702 -0.97026962 -0.56677532
-2.120235 -1.0050464 -0.5664106
-2.1987514 -1.0422653 -0.56602669
-2.2929623 -1.0869236 -0.56809098
-2.3845897 -1.1303574 -0.56780267
-2.4937148 -1.1820855 -0.56983119
-2.5982037 -1.2316159 -0.56883371
-2.724566 -1.291515 -0.57050073
-2.8530827 -1.3524352 -0.57027227
-2.9981108 -1.4211824 -0.57082754
-3.1546593 -1.4953904 -0.57080173
-3.3284113 -1.5777533 -0.57085055
-3.5266705 -1.6717334 -0.57167983
-3.753089 -1.7790616 -0.57316488
-4.0041928 -1.8980912 -0.57402498
-4.2839212 -2.03069 -0.57410514
-4.6088357 -2.1847076 -0.57467878
-4.9757442 -2.3586321 -0.57412553
-5.4211512 -2.5697663 -0.57515782
-5.9581146 -2.824301 -0.57686603
-6.6002107 -3.1286712 -0.57790649
-7.4138031 -3.5143349 -0.58057141
-8.4214087 -3.9919662 -0.5816763
-9.7768106 -4.6344624 -0.58506721
-11.637442 -5.516449 -0.58910841
-14.364244 -6.8090248 -0.59479904
-18.798227 -8.9108477 -0.60531282
-27.071014 -12.832363 -0.62255746
-48.49028 -22.985651 -0.66902268
-1.9041344 -0.93145257 -0.56798393
-1.9689453 -0.96315628 -0.56783426
-2.0291762 -0.99261969 -0.56521291
-2.1185839 -1.0363556 -0.56933081
-2.2061028 -1.0791676 -0.57129204
-2.2732995 -1.1120384 -0.56656444
-2.3745151 -1.1615505 -0.56876177
-2.4715497 -1.2090172 -0.56812048
-2.581948 -1.2630212 -0.56863207
-2.7136996 -1.3274705 -0.57160014
-2.838932 -1.388731 -0.57081389
-2.9833884 -1.4593953 -0.57139802
-3.1298869 -1.5310584 -0.56968278
-3.3071787 -1.6177851 -0.57057774
-3.5094137 -1.7167131 -0.57226115
-3.7156074 -1.8175776 -0.57081079
-3.9550517 -1.9347074 -0.57034761
-4.2455578 -2.0768154 -0.57234299
-4.5754805 -2.2382047 -0.57390803
-4.9603267 -2.4264615 -0.57574576
-5.3875504 -2.6354482 -0.57498765
-5.9145341 -2.8932347 -0.57604754
-6.5544209 -3.2062507 -0.57730561
-7.3541555 -3.5974598 -0.57932079
-8.3783302 -4.0984592 -0.58213776
-9.701725 -4.7458291 -0.58402193
-11.564512 -5.6570554 -0.58889341
-14.269633 -6.98033 -0.59439063
-18.647152 -9.1216974 -0.60401422
-26.909616 -13.163478 -0.6225211
-48.13483 -23.546295 -0.66806281
-1.8850535 -0.95101869 -0.56573778
-1.9667287 -0.99222422 -0.5706706
-2.0317137 -1.0250094 -0.56938744
-2.112114 -1.0655718 -0.57107013
-2.1665845 -1.0930525 -0.56449634
-2.265475 -1.1429431 -0.56807411
-2.3678119 -1.1945726 -0.57063138
-2.4649906 -1.2435998 -0.57008475
-2.5780919 -1.3006599 -0.57126194
-2.6798542 -1.3519994 -0.56792992
-2.8142769 -1.4198164 -0.5693239
-2.9677193 -1.4972289 -0.57187986
-3.1172574 -1.5726715 -0.57086074
-3.296706 -1.6632042 -0.57225609
-3.4790184 -1.7551817 -0.57078093
-3.6972635 -1.8652874 -0.57147318
-3.9437137 -1.9896228 -0.57219744
-4.2274365 -2.1327624 -0.57339215
-4.5463805 -2.2936711 -0.57375228
-4.9152994 -2.4797924 -0.57401532
-5.3501167 -2.6991599 -0.57449132
-5.8705273 -2.9617095 -0.57526493
-6.5214162 -3.2900863 -0.57791823
-7.314311 -3.6901054 -0.57971263
-8.3351355 -4.2051163 -0.58268523
-9.6537447 -4.8703609 -0.58469456
-11.491209 -5.7973709 -0.58874625
-14.191183 -7.1595206 -0.59474498
-18.549118 -9.35812 -0.60452038
-26.728577 -13.484697 -0.62212187
-47.789078 -24.109823 -0.6673283
-1.8684118 -0.97162527 -0.56428629
-1.9433345 -1.0105872 -0.56744528
-2.0103171 -1.0454201 -0.5669508
-2.0903625 -1.0870458 -0.5687601
-2.1677477 -1.1272882 -0.56836802
-2.2578924 -1.174166 -0.56975007
-2.3351004 -1.2143162 -0.56630379
-2.4530218 -1.2756385 -0.57090122
-2.548945 -1.3255212 -0.56837213
-2.6688683 -1.3878847 -0.56917548
-2.8061504 -1.4592751 -0.57126677
-2.9421539 -1.5300006 -0.57053566
-3.1064861 -1.6154578 -0.57248265
-3.2667997 -1.6988252 -0.57064772
-3.4574089 -1.7979473 -0.57081962
-3.6810002 -1.9142209 -0.57255435
-3.9179103 -2.0374207 -0.57204533
-4.1955118 -2.1817811 -0.57265759
-4.5181012 -2.3495364 -0.57378614
-4.8882899 -2.5420446 -0.57446802
-5.3222017 -2.7676907 -0.57510477
-5.851027 -3.0426943 -0.57697684
-6.4822173 -3.3709307 -0.5780741
-7.2664604 -3.7787585 -0.57955903
-8.2706718 -4.3009758 -0.58183199
-9.5853558 -4.9846473 -0.58422065
-11.413813 -5.9354954 -0.58847576
-14.093918 -7.3292236 -0.59440076
-18.402212 -9.5696545 -0.60352206
-26.529133 -13.795877 -0.62138122
-47.438286 -24.669209 -0.66661537
-1.8614389 -0.99726534 -0.56584114
-1.9355775 -1.036985 -0.56886059
-2.0026085 -1.072897 -0.5684545
-2.0593772 -1.1033108 -0.56397814
-2.160248 -1.1573522 -0.57008988
-2.2364819 -1.1981945 -0.56802225
-2.3303931 -1.2485074 -0.56884235
-2.4379978 -1.3061566 -0.57109946
-2.5368381 -1.3591102 -0.56935602
-2.6587696 -1.424435 -0.57071406
-2.7740874 -1.4862165 -0.56841695
-2.9297462 -1.5696107 -0.57182908
-3.071739 -1.6456832 -0.56976539
-3.2380879 -1.7348046 -0.56931555
-3.4426966 -1.8444237 -0.57209182
-3.6580601 -1.9598047 -0.57269126
-3.8867631 -2.0823321 -0.57119298
-4.1663179 -2.2321036 -0.57237589
