# .PCD v0.7 - Point Cloud Data file format
VERSION 0.7
FIELDS x y z
SIZE 4 4 4
TYPE F F F
COUNT 1 1 1
WIDTH 1485
HEIGHT 1
VIEWPOINT 0 0 0 1 0 0 0
POINTS 1485
DATA ascii
2.819494 -0.017334258 -0.55779749
2.9485056 -0.018127421 -0.55789709
3.076293 -0.018913059 -0.55563396
3.2374074 -0.019903591 -0.55699056
3.3982956 -0.020892732 -0.55563194
3.5789626 -0.022003474 -0.55467153
3.7786765 -0.023231314 -0.55350423
4.0204024 -0.024717446 -0.55482173
4.287581 -0.026360061 -0.5554198
4.5757785 -0.0281319 -0.55412555
4.89994 -0.030124847 -0.55210024
5.2883043 -0.032512512 -0.55138946
5.7422633 -0.035303455 -0.55051839
6.2912016 -0.038678326 -0.55041844
6.9292593 -0.042601105 -0.54825151
7.7228298 -0.04747998 -0.54649264
8.7328749 -0.053689744 -0.54506356
10.019563 -0.061600305 -0.54181439
11.764212 -0.072326414 -0.53813815
14.240753 -0.087552197 -0.5328607
18.022423 -0.11080191 -0.5244081
24.539135 -0.15086667 -0.50994974
38.44915 -0.23638548 -0.47936478
2.0936289 0.012871637 -0.56099594
2.1571906 0.013262413 -0.55885357
2.2242427 0.013674651 -0.5565396
2.3115091 0.014211166 -0.55800259
2.4047897 0.014784655 -0.55941111
2.4846497 0.015275634 -0.55626202
2.5906377 0.01592725 -0.55742145
2.7052999 0.016632192 -0.55860919
2.8051167 0.017245866 -0.55495316
2.9500842 0.018137127 -0.55819577
3.0991237 0.019053422 -0.55975759
3.2353981 0.019891236 -0.55664486
3.4181554 0.02101483 -0.55887908
3.5844171 0.022037007 -0.55551684
3.7768877 0.023220317 -0.55324221
4.0142221 0.02467945 -0.55396885
4.2892513 0.02637033 -0.55563623
4.5699763 0.028096229 -0.55342293
4.9020386 0.030137748 -0.55233669
5.3109407 0.032651681 -0.55374968
5.7403975 0.035291981 -0.55033952
6.2810397 0.038615853 -0.54952937
6.9288383 0.042598519 -0.54821819
7.7381902 0.047574416 -0.54757959
8.7287359 0.053664297 -0.54480517
10.023879 0.06162684 -0.5420478
11.746921 0.072220102 -0.5373472
14.234726 0.087515138 -0.53263515
18.016644 0.11076637 -0.5242399
24.535507 0.15084438 -0.5098744
38.468449 0.23650414 -0.47960541
2.0809088 0.038384169 -0.55767179
2.15852 0.039815776 -0.55928254
2.2441585 0.041395452 -0.56160766
2.3135686 0.042675782 -0.55858421
2.3871448 0.044032961 -0.55539048
2.4960465 0.046041749 -0.55889803
2.5894032 0.047763791 -0.55724007
2.7093699 0.04997668 -0.55953419
2.817683 0.051974609 -0.55752355
2.936311 0.054162808 -0.55567372
3.0735862 0.056694966 -0.55522901
3.2376521 0.059721306 -0.55711687
3.39592 0.062640697 -0.55532748
3.5834959 0.066100694 -0.55545801
3.7922297 0.069950968 -0.55557352
4.0192113 0.074137844 -0.55474126
4.2826447 0.078997105 -0.55486429
4.5795574 0.084473915 -0.55466706
4.8982506 0.090352491 -0.55199337
5.2807717 0.097408421 -0.55068731
5.7527914 0.10611524 -0.55161113
6.2765245 0.11577595 -0.54921734
6.925807 0.12775253 -0.54806119
7.7323551 0.14263001 -0.54724944
8.7290354 0.16101463 -0.54490626
10.022594 0.18487546 -0.54206026
11.753464 0.21680285 -0.53772783
14.243914 0.26274136 -0.53305954
18.020741 0.33240822 -0.52443838
24.535406 0.45257688 -0.50994939
38.442856 0.70911187 -0.47935879
2.0868282 0.064168535 -0.55942732
2.1515329 0.066158161 -0.55764079
2.2370586 0.068788014 -0.56000024
2.3177273 0.071268529 -0.55975759
2.3954136 0.073657326 -0.5574829
2.493016 0.076658532 -0.55838829
2.5810008 0.079364002 -0.55559987
2.7107451 0.083353549 -0.55998755
2.8164771 0.086604737 -0.55745345
2.9606414 0.091037691 -0.56044745
3.0732691 0.094500922 -0.55533969
3.2315114 0.099366754 -0.5562284
3.4110935 0.10488878 -0.55797744
3.5864005 0.11027935 -0.55607641
3.7970545 0.11675682 -0.55644864
4.0160761 0.12349159 -0.5544762
4.2788334 0.1315712 -0.55453819
4.5727963 0.14061035 -0.5540157
4.9191065 0.15125914 -0.55451131
5.2929235 0.16275376 -0.55212146
5.7444572 0.17663811 -0.5509786
6.292994 0.19350526 -0.55082506
6.9421878 0.21346752 -0.54952365
7.7125683 0.23715618 -0.54601419
8.7354784 0.26860997 -0.5454734
10.008066 0.30774117 -0.54143828
11.759138 0.36158541 -0.53815013
14.239081 0.43784198 -0.53303987
18.014673 0.55393881 -0.52442038
24.525095 0.75412983 -0.50988925
38.452946 1.1824018 -0.47962967
2.0983059 0.090357393 -0.56275958
2.1491666 0.092547551 -0.5572803
2.2276905 0.09592896 -0.5579083
2.3040652 0.09921781 -0.5567106
2.408757 0.10372605 -0.56084269
2.4971437 0.10753217 -0.55956674
2.5747554 0.11087429 -0.55450702
2.7035177 0.11641905 -0.55874795
2.8269863 0.12173587 -0.55978745
2.9356599 0.12641558 -0.55597073
3.0816953 0.13270417 -0.55711502
3.2340162 0.13926342 -0.55691224
3.3995068 0.14638978 -0.55633456
3.5801909 0.15417042 -0.55536556
3.7948687 0.1634149 -0.55638075
4.0243635 0.17329741 -0.55587256
4.2934198 0.18488355 -0.55668116
4.5799308 0.19722129 -0.55513191
4.899034 0.21096252 -0.55249929
5.2983184 0.22815655 -0.55293512
5.7472358 0.24748786 -0.55149531
6.2838922 0.2705974 -0.55027801
6.9158025 0.29780874 -0.54768354
7.7192302 0.33240601 -0.54673386
8.7233458 0.37564531 -0.54496306
10.01251 0.43115938 -0.54192454
11.748495 0.50591445 -0.53790712
14.216901 0.61220914 -0.53245109
17.99828 0.77504307 -0.52418101
24.505816 1.055271 -0.50971967
38.432076 1.6549646 -0.4795869
2.0739861 0.11487366 -0.55657381
2.1526332 0.11922976 -0.55851716
2.2257729 0.12328082 -0.55776554
2.3222435 0.12862411 -0.56144249
2.4088268 0.13341978 -0.56119853
2.4947541 0.13817911 -0.55936968
2.5923653 0.14358558 -0.55863756
2.705385 0.1498455 -0.55947244
2.8111134 0.15570158 -0.55698144
2.9247522 0.16199578 -0.55424035
3.0892119 0.17110486 -0.55881202
3.2476969 0.179883 -0.55960673
3.402348 0.1884488 -0.55713665
3.5862837 0.19863661 -0.55664754
3.7940588 0.21014482 -0.55659878
4.0183468 0.22256766 -0.55537754
4.2671781 0.2363499 -0.5536136
4.5721951 0.25324413 -0.55452979
4.9048104 0.271667 -0.55348563
5.2916875 0.29309529 -0.55257744
5.7392883 0.31788692 -0.5510661
6.2798176 0.34782571 -0.55025417
6.9236927 0.38348857 -0.54864031
7.7145452 0.4272922 -0.54673284
8.7144575 0.48267522 -0.5447374
10.002085 0.55399412 -0.54168802
11.749633 0.65078706 -0.5382849
14.202147 0.78662658 -0.53222054
17.994898 0.99669898 -0.52439976
24.509909 1.3575516 -0.51011348
38.41811 2.127897 -0.47970286
2.099401 0.14219341 -0.56382072
2.1407607 0.14499471 -0.5558573
2.2310064 0.1511071 -0.55950034
2.3121936 0.15660596 -0.55943608
2.3936305 0.16212171 -0.55808043
2.4843183 0.16826403 -0.55745155
2.5877528 0.17526971 -0.55806589
2.6980615 0.18274096 -0.55838037
2.8174233 0.19082539 -0.55865431
2.9327741 0.19863817 -0.55618131
3.0638938 0.20751895 -0.55465186
3.2206097 0.21813339 -0.55535954
3.3949304 0.22994022 -0.5563429
3.5766711 0.24224961 -0.55557585
3.7918882 0.25682637 -0.55670154
3.9983323 0.27080891 -0.55302978
4.2559409 0.28825688 -0.55257386
4.5771427 0.31001201 -0.55555016
4.8866525 0.33097523 -0.55185413
5.2850389 0.35795814 -0.55230105
5.7326927 0.38827795 -0.55084962
6.2761068 0.42508364 -0.55034536
6.9213881 0.46878883 -0.54887301
7.7132692 0.52242333 -0.54705632
8.7002573 0.5892725 -0.54426157
10.004926 0.67763829 -0.54225218
11.766396 0.79694349 -0.53946102
14.212166 0.96259665 -0.53299928
17.993738 1.2187243 -0.52476305
24.491043 1.6587899 -0.5101068
38.368252 2.5986996 -0.47944307
2.0851452 0.16700688 -0.56050134
2.1495202 0.17216289 -0.55863917
2.2245796 0.17817467 -0.5583958
2.3090959 0.1849439 -0.55919451
2.3846028 0.19099152 -0.55648106
2.479919 0.19862574 -0.55697036
2.5898798 0.2074329 -0.55903232
2.6873443 0.21523921 -0.5566681
2.8171902 0.22563902 -0.55911595
2.940732 0.23553394 -0.5581975
3.0770602 0.24645297 -0.55754185
3.2245872 0.25826892 -0.55655098
3.3938773 0.271828 -0.55667597
3.5876801 0.28735039 -0.5577926
3.7796957 0.30272961 -0.55541605
4.0127668 0.32139713 -0.55553091
4.2577629 0.34101975 -0.55331302
4.5592003 0.36516297 -0.55387557
4.8913131 0.39176309 -0.55288273
5.2803826 0.42292508 -0.55231613
5.7267509 0.45867634 -0.55077899
6.2629714 0.50162423 -0.54969287
6.9126062 0.5536558 -0.548675
7.7114282 0.61763638 -0.54742301
8.6921215 0.69618368 -0.54424697
9.9878883 0.79996634 -0.54182094
11.736409 0.94001174 -0.53857541
14.196184 1.1370242 -0.532884
17.982788 1.440307 -0.52492052
24.487312 1.9612781 -0.5104928
38.357021 3.0721538 -0.47973856
2.0742147 0.19182587 -0.558155
2.1448011 0.19835378 -0.5580045
2.2291319 0.20615278 -0.56013244
2.304116 0.21308741 -0.55858088
2.4020557 0.22214499 -0.561149
2.4808681 0.22943366 -0.55777496
2.5719819 0.23785996 -0.55575836
2.694942 0.24923146 -0.55883449
2.8138995 0.26023281 -0.55905575
2.9243324 0.27044576 -0.55567384
3.0623484 0.28320962 -0.5554651
3.2300296 0.29871699 -0.5580821
3.3840988 0.31296548 -0.55566132
3.5894945 0.33196074 -0.55866712
3.775558 0.34916812 -0.55539697
4.0093822 0.37079248 -0.55565155
4.2620258 0.39415723 -0.55445492
4.5459976 0.42041931 -0.55285788
4.880178 0.4513247 -0.55220962
5.2705398 0.4874258 -0.55187178
5.7277379 0.52970803 -0.55145866
6.2472682 0.57775486 -0.54889667
6.8947358 0.63763338 -0.5478375
7.7069478 0.71274775 -0.54768568
8.6864185 0.80333042 -0.54446727
9.9845438 0.92338252 -0.54221445
11.718082 1.0837023 -0.53830528
14.179585 1.311345 -0.53282589
17.953621 1.6603724 -0.52462548
24.446278 2.2608211 -0.51017833
38.313931 3.5433183 -0.47970828
2.0774741 0.21792071 -0.5597108
2.1562643 0.22618558 -0.56166798
2.2263033 0.23353244 -0.56010097
2.2922945 0.2404547 -0.55638975
2.3933315 0.25105318 -0.55978978
2.4748206 0.25960115 -0.55709088
2.5763361 0.27024981 -0.55737519
2.6894238 0.28211239 -0.55836737
2.8025951 0.2939837 -0.55748588
2.9212193 0.306427 -0.55575627
3.0658562 0.32159901 -0.55677664
3.2112589 0.3368513 -0.55551261
3.3781662 0.35435936 -0.55536067
3.5614047 0.37358052 -0.55496824
3.7728837 0.39576402 -0.55567741
3.9974594 0.41932133 -0.55467182
4.2393456 0.44469443 -0.55217397
4.5433993 0.47658876 -0.55321276
4.8733048 0.51119483 -0.55210137
5.2683935 0.55263847 -0.5523169
5.7090378 0.59886068 -0.55032563
6.2605348 0.65671104 -0.55073017
6.8884296 0.72257531 -0.54800099
7.6941724 0.80709529 -0.54744172
8.6899548 0.91154981 -0.54535025
9.9791336 1.0467807 -0.54257864
11.705837 1.2279067 -0.53839564
14.152585 1.4845631 -0.53245705
17.937056 1.8815426 -0.52477783
24.41391 2.5609448 -0.51012146
38.288128 4.0163083 -0.47996727
2.079968 0.24407341 -0.56114888
2.145668 0.25178295 -0.55967194
2.2256744 0.26117128 -0.56070822
2.3050284 0.27048308 -0.56024551
2.3899131 0.28044382 -0.55975443
2.4830227 0.29136977 -0.55970138
2.5712612 0.30172408 -0.55703777
2.6789126 0.31435642 -0.5569455
2.8033354 0.32895678 -0.55839556
2.9312618 0.34396827 -0.55842924
3.055331 0.35852715 -0.55562383
3.2131865 0.3770507 -0.55660599
3.3799036 0.39661404 -0.55640602
3.5678148 0.41866446 -0.55672723
3.7667093 0.4420037 -0.55552649
3.9962656 0.46894094 -0.55526435
4.2577357 0.49962312 -0.55532759
4.5303831 0.53161681 -0.55238205
4.8728905 0.57180828 -0.55280924
5.2540951 0.61654067 -0.55157095
5.7008705 0.66896743 -0.55028969
6.247746 0.73314041 -0.55035657
6.8774762 0.80703598 -0.54787761
7.6713409 0.90019184 -0.54656351
8.6732292 1.0177583 -0.54504478
9.9643097 1.1692598 -0.54251337
11.682044 1.370827 -0.53803593
14.140332 1.6592942 -0.53272343
17.898115 2.1002505 -0.52435446
24.400694 2.8632941 -0.51054233
38.235565 4.4867439 -0.47996366
2.0804198 0.27009797 -0.56212431
2.1332357 0.27695498 -0.55727524
2.2041204 0.28615782 -0.55612266
2.2917559 0.29753542 -0.55786663
2.3809001 0.30910891 -0.55849153
2.4893506 0.32318887 -0.56198108
2.573411 0.33410233 -0.55835134
2.6865518 0.34879121 -0.55938303
2.7911785 0.36237478 -0.5568195
2.9120455 0.37806675 -0.55561209
3.0497274 0.39594179 -0.55544817
3.2117338 0.41697487 -0.55720043
3.3758078 0.43827635 -0.55657685
3.5598731 0.46217328 -0.55633271
3.7721028 0.48972678 -0.55716801
3.9884415 0.51781374 -0.55501992
4.230495 0.54923922 -0.55261368
4.5248222 0.58745128 -0.55254304
4.8719568 0.6325193 -0.55354381
5.2556186 0.68232954 -0.55256999
5.7146354 0.74192303 -0.55245721
6.2306457 0.80891591 -0.54968488
6.879025 0.89309406 -0.54883438
7.6703835 0.99583507 -0.54732633
8.6599178 1.1243049 -0.54503584
9.9389925 1.2903653 -0.54195786
11.676684 1.5159675 -0.53860688
14.123716 1.8336622 -0.53290659
17.875124 2.3207021 -0.52447724
24.357588 3.1623113 -0.51041549
38.199413 4.9593759 -0.48023906
2.064853 0.29393661 -0.55885255
2.130187 0.30323705 -0.55741078
2.195672 0.31255901 -0.55491883
2.2987328 0.32722995 -0.56050211
2.3852689 0.33954856 -0.5604533
2.4582219 0.34993359 -0.55588305
2.5643198 0.36503688 -0.55731058
2.6700451 0.38008711 -0.55687714
2.785852 0.39657247 -0.55668759
2.9319673 0.41737235 -0.56034994
3.0433507 0.43322805 -0.55521506
3.1974015 0.45515749 -0.5556429
3.3628247 0.47870588 -0.55536485
3.5535502 0.5058561 -0.55627465
3.7470109 0.53339571 -0.55438864
3.9707234 0.56524163 -0.55347967
4.2435408 0.60407782 -0.55524611
4.5135083 0.64250839 -0.55208451
4.8656497 0.69263649 -0.55375302
5.2491059 0.74722236 -0.55280948
5.6883817 0.80975431 -0.55084014
6.2177582 0.88511229 -0.54946661
6.8690367 0.97782326 -0.54895526
7.6484599 1.088776 -0.54667592
8.6480818 1.2310745 -0.54520243
9.935154 1.4142922 -0.54265583
11.638988 1.6568369 -0.53776717
14.113661 2.0091124 -0.53341901
17.854267 2.5415962 -0.5247426
24.343668 3.4653773 -0.51097804
38.142517 5.4296756 -0.48032683
2.0606484 0.31923559 -0.55873483
2.1332955 0.33049005 -0.55924535
2.2024279 0.34120002 -0.55764443
2.284893 0.35397556 -0.55814666
2.3666081 0.36663485 -0.55708587
2.4655006 0.38195527 -0.55854887
2.5658886 0.39750737 -0.55867165
2.6634545 0.41262227 -0.55651867
2.7872455 0.43179998 -0.55798489
2.9009435 0.44941404 -0.55543494
3.0396121 0.4708966 -0.55554736
3.1776457 0.49228075 -0.55321985
3.3689895 0.52192372 -0.5574007
3.5426826 0.5488323 -0.55558789
3.7449894 0.58017361 -0.55510306
3.9498401 0.61190909 -0.5515759
4.2325029 0.65569919 -0.55481493
4.5118108 0.69896954 -0.55288637
4.8544869 0.75205696 -0.55349326
5.2372203 0.81134999 -0.55256665
5.6909575 0.88164294 -0.55209762
6.2198009 0.96357131 -0.5506525
6.84936 1.0611026 -0.54838407
7.6471295 1.184693 -0.54758072
8.6255264 1.3362663 -0.54477519
9.9092493 1.5351405 -0.54223096
11.619296 1.8000609 -0.53783935
14.090156 2.1828465 -0.53350478
17.833038 2.7626936 -0.52507746
24.284924 3.7622194 -0.51067746
38.08165 5.8996081 -0.48043758
2.0554967 0.34436882 -0.55844384
2.132988 0.35735139 -0.5602743
2.2017395 0.36886972 -0.55857641
2.2879567 0.38331416 -0.56000406
2.3777473 0.39835727 -0.56081861
2.4651051 0.41299284 -0.55956745
2.5544538 0.42796195 -0.55728561
2.6689162 0.44713846 -0.55876654
2.7923605 0.46781978 -0.56011814
2.9044683 0.48660177 -0.55721331
3.0423083 0.50969493 -0.55714351
3.2060039 0.53711975 -0.55926454
3.3432443 0.56011242 -0.5542388
3.5404818 0.5931567 -0.55634451
3.7355549 0.6258384 -0.55480337
3.9591949 0.66330606 -0.55397934
4.2170496 0.70650589 -0.55388618
4.5106978 0.75570244 -0.55384684
4.8434401 0.81144857 -0.55332953
5.224566 0.87530071 -0.55232537
5.6577673 0.94787735 -0.54996693
6.213263 1.0409427 -0.55116528
6.8418736 1.1462573 -0.5488717
7.6384659 1.2797148 -0.54804569
8.6161985 1.4435198 -0.54526585
9.8851395 1.6561126 -0.54198503
11.620747 1.9468887 -0.53897393
14.043796 2.3528357 -0.53280461
17.785868 2.9797659 -0.52472776
24.244823 4.0618706 -0.5108459
38.040161 6.3730807 -0.48086649
2.0581992 0.37089425 -0.56037474
2.1322651 0.38424119 -0.56128305
2.1974659 0.39599058 -0.55868524
2.2775156 0.4104158 -0.55864143
2.355583 0.42448384 -0.55677998
2.4589665 0.44311386 -0.55936855
2.5422623 0.45812404 -0.55581284
2.65205 0.47790813 -0.5564236
2.7673137 0.49867904 -0.55628198
2.8913157 0.52102464 -0.55587715
3.0356441 0.54703307 -0.55711281
3.1883829 0.57455713 -0.55738097
3.3560314 0.60476792 -0.55754924
3.5247152 0.63516527 -0.55505228
3.7138748 0.66925246 -0.55276394
3.9571006 0.71308255 -0.55487126
4.2238441 0.7611506 -0.55596584
4.5067253 0.8121267 -0.55454326
4.8408546 0.87233794 -0.5542177
5.2185259 0.94039553 -0.55286747
5.6682081 1.0214298 -0.55216098
6.1957579 1.116496 -0.55078864
6.8243394 1.2297684 -0.54863667
7.6192689 1.3730173 -0.54783827
8.5980396 1.549395 -0.54528117
9.8728085 1.7791126 -0.54246742
11.589889 2.088536 -0.53869313
14.027431 2.5277894 -0.53332269
17.761608 3.2007005 -0.52513349
24.194796 4.359982 -0.51088285
37.96051 6.8406086 -0.48088652
2.0588877 0.39721557 -0.56184959
2.1170926 0.40844491 -0.55856901
2.1765792 0.41992146 -0.55464584
2.2717192 0.43827656 -0.5584994
2.370985 0.45742765 -0.5617075
2.4587593 0.47436172 -0.56060594
2.5450945 0.49101815 -0.55770993
2.6522214 0.51168585 -0.55773759
2.7733254 0.53505009 -0.55877072
2.8957891 0.55867666 -0.55801576
3.0300457 0.58457839 -0.55736244
3.1658878 0.61078608 -0.55471951
3.343843 0.64511847 -0.55680013
3.5282662 0.68069875 -0.55688751
3.7315447 0.7199167 -0.55666935
3.9623883 0.7644527 -0.5568887
4.191093 0.80857611 -0.55292189
4.4985185 0.8678869 -0.55480468
4.8184767 0.92961556 -0.55292267
5.2123752 1.0056093 -0.55348402
5.6425915 1.0886098 -0.55092794
6.1719747 1.1907423 -0.54993445
6.8236241 1.3164631 -0.54983902
7.5987334 1.4660028 -0.54761648
8.5763092 1.654604 -0.54515219
9.8423195 1.8988518 -0.54203415
11.556386 2.2295418 -0.53836948
13.984061 2.6979067 -0.53289479
17.702778 3.4153483 -0.5245961
24.140089 4.6572814 -0.51089829
37.882683 7.3086023 -0.48100275
2.0461612 0.42091939 -0.55974674
2.1257784 0.43729758 -0.56223685
2.1907868 0.4506706 -0.55963612
2.261657 0.46524942 -0.55738991
2.3530347 0.48404688 -0.55882275
2.4583788 0.5057174 -0.56189454
2.5392151 0.52234638 -0.55778682
2.644275 0.54395843 -0.55743092
2.7694542 0.5697093 -0.55935997
2.8742509 0.59126717 -0.55522442
3.0295959 0.62322348 -0.55864716
3.1677663 0.65164673 -0.55641061
3.3459792 0.68830729 -0.558523
3.5164418 0.72337341 -0.55638307
3.7195106 0.76514703 -0.55623561
3.9392712 0.81035435 -0.55499822
4.1911879 0.86217654 -0.55429113
4.467598 0.9190374 -0.55234325
4.8088465 0.98923624 -0.55317158
5.1881247 1.0672582 -0.55226076
5.6376395 1.1597286 -0.55179507
6.1525879 1.2656597 -0.5495522
6.7845201 1.3956555 -0.54802948
7.5726314 1.5577792 -0.54707444
8.5542459 1.759709 -0.54508394
9.8332767 2.0228205 -0.54286492
11.546001 2.3751481 -0.53920549
13.950498 2.8697813 -0.53292018
17.677347 3.6364381 -0.52512789
24.08148 4.9538436 -0.51090848
37.807178 7.7773814 -0.48122197
2.0418897 0.44627759 -0.56003708
2.1174824 0.46279922 -0.56150538
2.1858006 0.4777309 -0.55982071
2.2585099 0.49362233 -0.55806804
2.3435254 0.51220345 -0.55801803
2.4341733 0.5320155 -0.55781507
2.5430014 0.55580115 -0.56007755
2.6428795 0.57763058 -0.55859184
2.7645202 0.60421646 -0.55982167
2.8685086 0.62694436 -0.55556238
3.0111599 0.65812236 -0.55669779
3.1564548 0.68987817 -0.55587178
3.3115008 0.72376519 -0.55421138
3.4890335 0.76256692 -0.55348819
3.6847084 0.80533379 -0.55247027
3.939281 0.86097348 -0.55644912
4.1815815 0.91393095 -0.55446506
4.4660912 0.97611368 -0.55359906
4.7950296 1.0480069 -0.5530228
5.1701689 1.1299977 -0.55178678
5.6156378 1.2273599 -0.55107713
6.1141114 1.3363067 -0.54754174
6.7770782 1.4812055 -0.54885811
7.5620809 1.6527765 -0.54773909
8.5371647 1.8658919 -0.5454163
9.7906485 2.1398547 -0.54192322
11.50949 2.5155265 -0.53890425
13.927814 3.0440781 -0.53344327
17.646368 3.8568094 -0.52557671
24.026608 5.2512813 -0.51107562
37.713089 8.2426128 -0.48127803
2.0330458 0.47060874 -0.55915636
2.1100914 0.48844323 -0.56109571
2.1810091 0.50485927 -0.56014115
2.2559597 0.52220881 -0.55898237
2.3435628 0.54248714 -0.55957299
2.4346921 0.56358171 -0.55947983
2.5351474 0.58683503 -0.55989468
2.629266 0.6086216 -0.5572542
2.7464919 0.63575697 -0.55771184
2.8614097 0.66235811 -0.55572289
3.0065205 0.69594836 -0.55738008
3.1570592 0.73079497 -0.5575186
3.3209934 0.76874244 -0.55733997
3.491081 0.80811423 -0.55534744
3.6889553 0.85391814 -0.55463946
3.9182935 0.90700525 -0.55501795
4.1722474 0.96579039 -0.55476016
4.4559903 1.0314711 -0.55387729
4.7751055 1.1053398 -0.55225068
5.1688294 1.1964788 -0.55317223
5.5958548 1.2953265 -0.55065715
6.142642 1.4218967 -0.55162084
6.752183 1.5629929 -0.54835695
7.5258527 1.7420818 -0.54662526
8.513773 1.9707652 -0.54542881
9.772192 2.2620637 -0.54240024
11.465531 2.6540372 -0.5383333
13.88932 3.215095 -0.5334428
17.584631 4.0704842 -0.52518898
23.973034 5.5492697 -0.51134884
37.630493 8.7106943 -0.48155451
2.0280647 0.49580503 -0.55942094
2.0940831 0.51194465 -0.55847067
2.1684792 0.53013247 -0.55855513
2.2446563 0.54875559 -0.55781138
2.3279932 0.56912911 -0.55748421
2.4056265 0.5881083 -0.55442059
2.512218 0.61416698 -0.55645651
2.6412907 0.64572161 -0.56144315
2.755872 0.67373353 -0.56125647
2.8666232 0.70080906 -0.55836684
3.003968 0.73438603 -0.55853873
3.149684 0.77000946 -0.55784601
3.2940688 0.80530757 -0.55444133
3.4940946 0.85420829 -0.5574556
3.6889367 0.90184164 -0.5562619
3.9016707 0.9538492 -0.5542829
4.1488633 1.0142808 -0.55326736
4.4450068 1.0866797 -0.55413109
4.7730951 1.1668881 -0.55363584
5.1460471 1.2580644 -0.55234784
5.574441 1.3627946 -0.55015737
6.1083217 1.4933136 -0.55014622
6.7521181 1.6507037 -0.54995853
7.5185847 1.8380834 -0.54769766
8.481246 2.0734272 -0.54493719
9.7305403 2.3788445 -0.54167098
11.432125 2.7948344 -0.53833777
13.846408 3.3850589 -0.53335297
17.545692 4.2894301 -0.52556157
23.909893 5.8452992 -0.51149648
37.547783 9.1793804 -0.48190406
2.0132208 0.51849025 -0.55704284
2.0899456 0.53825015 -0.55909002
2.1554046 0.55510867 -0.55690342
2.2586961 0.58171064 -0.56303537
2.3257418 0.59897774 -0.55866665
2.4074914 0.62003177 -0.55656546
2.510349 0.64652199 -0.55776125
2.6070879 0.67143637 -0.55588579
2.7321427 0.70364332 -0.55814368
2.8559606 0.73553175 -0.55800951
2.9835157 0.76838261 -0.55645072
3.1328356 0.80683881 -0.55657709
3.296592 0.84901309 -0.55658114
3.4658139 0.89259499 -0.55465275
3.6725483 0.94583786 -0.55550247
3.8984258 1.004011 -0.55553377
4.1370068 1.0654558 -0.55339158
4.434164 1.1419865 -0.55448806
4.7524428 1.2239568 -0.55294424
5.1284518 1.3207952 -0.55216074
5.5699267 1.4344938 -0.55141103
6.0892324 1.5682372 -0.5501222
6.7183814 1.7302699 -0.54890215
7.4892383 1.9287984 -0.54724622
8.4645395 2.17998 -0.54554486
9.7102966 2.5008159 -0.54221499
11.417396 2.9404664 -0.53930598
13.804189 3.5551674 -0.53337032
17.503868 4.5079927 -0.52592939
23.853985 6.1434193 -0.51187783
37.444672 9.6436005 -0.48206615
2.0253601 0.54825765 -0.56222457
2.0920422 0.56630832 -0.56147134
2.1614344 0.58509254 -0.560278
2.226706 0.60276127 -0.55686653
2.3202021 0.62807035 -0.55914885
2.4095891 0.65226704 -0.55886227
2.506691 0.67855221 -0.55876011
2.6166639 0.70832145 -0.55974239
2.7267315 0.73811644 -0.55885017
2.8472147 0.77073079 -0.55811018
2.9783769 0.80623591 -0.55729914
3.1250141 0.84593004 -0.55699342
3.2736986 0.88617837 -0.55451375
3.4605546 0.93675965 -0.5556125
3.6690233 0.99319142 -0.5567745
3.9005287 1.0558591 -0.55764145
4.131412 1.1183584 -0.5544408
4.4196296 1.1963778 -0.55446821
4.7379546 1.2825472 -0.55305165
5.1253266 1.3874075 -0.55361927
5.5471969 1.5016062 -0.55094713
6.0696912 1.6430435 -0.55014038
6.7032437 1.814544 -0.54944676
7.4724565 2.0227671 -0.54779601
8.4373703 2.2839656 -0.54556257
9.7019558 2.6262844 -0.54351139
11.372561 3.0785115 -0.5389356
13.772417 3.7281437 -0.53387362
17.433979 4.7193155 -0.52553344
23.766136 6.4334078 -0.51165164
37.344238 10.108952 -0.48233706
2.0011301 0.56819689 -0.55739594
2.0739329 0.58886832 -0.55851221
2.1510813 0.61077368 -0.55949879
2.234894 0.63457131 -0.56082326
2.3150394 0.65732765 -0.55981022
2.3913262 0.67898834 -0.55652094
2.4901788 0.70705634 -0.55697536
2.604918 0.73963517 -0.55913305
2.7182136 0.77180409 -0.55900723
2.8304851 0.80368227 -0.55672592
2.9543126 0.83884156 -0.55468446
3.1158934 0.8847205 -0.55726469
3.2609875 0.92591822 -0.55424732
3.4517443 0.98008138 -0.55609089
3.6504529 1.0365022 -0.55584848
3.8707814 1.0990618 -0.55527872
4.1234403 1.1708013 -0.55526102
4.3968182 1.2484237 -0.55349046
4.7293725 1.3428485 -0.55393547
5.0880203 1.4446824 -0.55146676
5.5329576 1.5710168 -0.55140984
6.05443 1.7190826 -0.55063146
6.6847143 1.8980443 -0.54979944
7.445086 2.1139426 -0.54765368
8.3926792 2.3830004 -0.5445264
9.6655788 2.7444251 -0.54332298
11.353686 3.223743 -0.53987885
13.727196 3.8976724 -0.53393823
17.393118 4.9385667 -0.52609247
23.696495 6.7283349 -0.51189476
37.246296 10.575639 -0.48271519
2.0073771 0.5967378 -0.56113744
2.0700696 0.61537451 -0.55946732
2.1325765 0.63395607 -0.55667114
2.220521 0.66009951 -0.55921102
2.2846875 0.67917448 -0.55444831
2.3998053 0.71339583 -0.56049341
2.4920173 0.74080789 -0.55938178
2.5923328 0.77062893 -0.55842346
2.7098432 0.80556148 -0.55928063
2.8292165 0.84104782 -0.55846828
2.9580102 0.87933469 -0.55736667
3.1010673 0.92186165 -0.55659837
3.2476549 0.96543813 -0.55395716
3.4282815 1.0191333 -0.55428791
3.6360722 1.0809038 -0.55564058
3.8522437 1.1451657 -0.55459756
4.0997605 1.2187455 -0.55404848
4.3901935 1.3050832 -0.55463475
4.7091165 1.3998902 -0.55353725
5.0868826 1.5121896 -0.55331695
5.5190258 1.640654 -0.55199027
6.0330334 1.7934542 -0.55064958
6.6557794 1.9785793 -0.54937917
7.4091249 2.2025282 -0.54695934
8.3789406 2.4908276 -0.54558098
9.6263618 2.8616514 -0.54305547
11.279983 3.3532271 -0.53829414
13.689038 4.0693727 -0.53435993
17.319725 5.1486759 -0.52574778
23.633709 7.0256486 -0.512366
37.122894 11.03561 -0.48283803
1.994406 0.61967111 -0.55959916
2.0552371 0.63857156 -0.55753863
2.1200025 0.65869451 -0.55546123
2.2130251 0.68759704 -0.55941033
2.2899671 0.71150327 -0.55781054
2.3817382 0.740017 -0.55835676
2.4814537 0.77099901 -0.5590964
2.5784006 0.80112094 -0.55750221
2.7000365 0.8389138 -0.55934346
2.8224583 0.87695074 -0.55922061
2.9443045 0.91480893 -0.5568617
3.0991647 0.96292472 -0.55833989
3.2500803 1.0098149 -0.55644679
3.4200642 1.0626296 -0.55502999
3.6276572 1.1271298 -0.55643058
3.8356223 1.1917455 -0.55427247
4.0980868 1.2732944 -0.55589622
4.3556271 1.3533133 -0.55232841
4.6994882 1.4601525 -0.55447406
5.0733705 1.5763195 -0.55391365
5.4948459 1.7072738 -0.55162984
5.9997773 1.8641583 -0.54966486
6.6175208 2.0560942 -0.54826665
7.3917108 2.2966385 -0.54771715
8.3430853 2.5922348 -0.54528064
9.583127 2.9775214 -0.54264086
11.254128 3.4967091 -0.53907144
13.623848 4.2329922 -0.53380668
17.281469 5.3694315 -0.52655089
23.549788 7.3170271 -0.51245844
36.988007 11.492344 -0.48288512
1.9780359 0.64135802 -0.55717665
2.0499368 0.66467118 -0.55827576
2.1255462 0.68918681 -0.55909193
2.2020586 0.71399516 -0.5588153
2.2814782 0.73974615 -0.55791634
2.3654404 0.76696998 -0.55670482
2.4696181 0.80074859 -0.55860597
2.5677783 0.83257604 -0.55737686
2.6778905 0.8682788 -0.55692536
2.7887497 0.90422374 -0.55470288
2.9488678 0.9561404 -0.55990607
3.0812588 0.99906689 -0.55728507
3.2461693 1.0525374 -0.55795085
3.4098909 1.1056225 -0.55554336
3.6229215 1.1746955 -0.5578776
3.8143034 1.2367492 -0.55334753
4.0794358 1.3227155 -0.55553049
4.3527131 1.411323 -0.55411768
4.6818485 1.5180417 -0.55455327
5.0413122 1.6345942 -0.55256629
5.4889884 1.7797487 -0.55319697
5.9932532 1.9432515 -0.55121464
6.6063185 2.1420317 -0.54947925
7.3572364 2.3855093 -0.54729486
8.3181534 2.6970766 -0.54577738
9.5487299 3.0960786 -0.54280788
11.21504 3.6363628 -0.53930014
13.573964 4.4012198 -0.53393227
17.205809 5.5788088 -0.52629596
23.467094 7.6089668 -0.51265621
36.896648 11.963364 -0.48357639
1.9696817 0.66552287 -0.55708647
2.0423005 0.69005954 -0.55846477
2.1234915 0.7174927 -0.5608297
2.1965804 0.74218816 -0.5596987
2.2640395 0.76498151 -0.55591017
2.3755715 0.80266631 -0.56136966
2.4634626 0.83236325 -0.55948645
2.5613046 0.86542243 -0.5582394
2.6711802 0.9025476 -0.55779576
2.7736483 0.93716985 -0.55394942
2.9246702 0.98819768 -0.55757666
3.0584214 1.0333899 -0.55541086
3.2403839 1.0948721 -0.55922824
3.4077861 1.1514345 -0.55746502
3.5937464 1.2142675 -0.55564225
3.8173745 1.2898277 -0.55605185
4.0747919 1.3768047 -0.55716145
4.3371887 1.4654644 -0.55439347
4.6553683 1.5729719 -0.553666
5.023572 1.697382 -0.55286777
5.453516 1.8426529 -0.55186385
5.9598894 2.0137482 -0.5503819
6.5883446 2.2260926 -0.55021942
7.3422914 2.4808388 -0.54841089
8.2734003 2.7954452 -0.54505527
9.5145216 3.2147994 -0.54306936
11.164366 3.7722547 -0.5390532
13.520304 4.5682869 -0.53399074
17.142422 5.792141 -0.52649587
23.372772 7.8972731 -0.51267833
36.753735 12.41848 -0.48366815
1.9768336 0.69513559 -0.5614844
2.0320561 0.71455407 -0.55802393
2.1076486 0.74113548 -0.55901009
2.1831167 0.76767313 -0.55863112
2.2643156 0.79622597 -0.55833972
2.3547382 0.8280223 -0.55881035
2.4440229 0.85941845 -0.55742937
2.549144 0.89638335 -0.55794913
2.6516135 0.93241584 -0.55606198
2.7827377 0.97852445 -0.55812562
2.9127138 1.0242293 -0.55765617
3.0465441 1.0712895 -0.55560422
3.2181292 1.1316259 -0.55774677
3.3831761 1.1896632 -0.55579019
3.5714586 1.2558709 -0.55454201
3.8119149 1.3404253 -0.55761534
4.0461593 1.4227951 -0.55559659
4.3199735 1.5190793 -0.55453867
4.6402826 1.6317133 -0.55421621
4.9997587 1.7581197 -0.55258441
5.4379811 1.9122167 -0.55262941
5.9380798 2.0880718 -0.55069733
6.5631075 2.3078573 -0.55044019
7.3003092 2.5670874 -0.54759151
8.2429295 2.8985512 -0.54535466
9.4705439 3.3302307 -0.5428555
11.134154 3.9152241 -0.53987819
13.470812 4.7368884 -0.53429615
17.053127 5.9965768 -0.52597827
23.283314 8.1873655 -0.51288563
36.621758 12.877708 -0.4839786
1.955695 0.71484149 -0.55793482
2.0348935 0.74378991 -0.56127226
2.1034985 0.7688663 -0.56037456
2.1627784 0.79053414 -0.55587226
2.2580585 0.82536072 -0.55925715
2.3376536 0.85445416 -0.55720723
2.4372616 0.89086264 -0.55834353
2.5315757 0.92533612 -0.55655223
2.6544709 0.97025651 -0.55912089
2.7868607 1.0186473 -0.56142235
2.8893955 1.0561256 -0.55563611
3.0451219 1.1130464 -0.55779874
3.200057 1.169678 -0.55706525
3.365046 1.2299844 -0.55525446
3.5669763 1.3037935 -0.55629325
3.7895694 1.3851553 -0.55679607
4.0315576 1.4736063 -0.55603778
4.3005528 1.5719289 -0.55448502
4.6212163 1.6891371 -0.55437779
4.9820561 1.8210305 -0.55306095
5.4084263 1.9768765 -0.55205458
5.9277549 2.1667004 -0.55216885
6.5210576 2.383563 -0.54933012
7.2687907 2.6568727 -0.54763651
8.2114706 3.0014391 -0.54567391
9.423255 3.4443681 -0.54253161
11.086136 4.0521808 -0.53992504
13.414757 4.9033332 -0.53442389
17.004728 6.2155318 -0.52680302
23.195013 8.4781914 -0.5131982
36.484192 13.335624 -0.48429111
1.942772 0.73732108 -0.5567925
2.017107 0.76553267 -0.55892044
2.0852237 0.79138434 -0.55805635
2.1563344 0.81837231 -0.55676031
2.2339301 0.84782141 -0.55582118
2.3296404 0.88414538 -0.55784643
2.421061 0.91884142 -0.55717844
2.5296435 0.96005064 -0.55868053
2.6380723 1.0012015 -0.55821776
2.7557511 1.045863 -0.55770385
2.8868928 1.095634 -0.55770344
3.0370507 1.1526219 -0.55887419
3.1759396 1.2053329 -0.55540502
3.3523929 1.2723006 -0.55570608
3.5504844 1.3474803 -0.55626327
3.7666073 1.4295032 -0.55596292
4.0148015 1.5236979 -0.55626875
4.2849183 1.6262127 -0.55500549
4.6022801 1.7466578 -0.55464071
4.9565477 1.8811097 -0.55275524
5.3750148 2.0399263 -0.55116284
5.8986778 2.238667 -0.55198282
6.5075774 2.4697566 -0.55071121
7.2593737 2.7550783 -0.54943782
8.1794195 3.1042542 -0.54603928
9.3841276 3.5614653 -0.54275924
11.028432 4.1855116 -0.53958052
13.356843 5.0691905 -0.53455955
16.916939 6.4203186 -0.52648926
23.115215 8.7726889 -0.51378053
36.353687 13.796955 -0.48477408
1.9364709 0.76229888 -0.5576309
1.9971026 0.78616679 -0.55601406
2.0755122 0.81703299 -0.55810386
2.1474004 0.84533203 -0.55709529
2.246279 0.88425595 -0.56155664
2.3220203 0.91407186 -0.558671
2.4206507 0.95289803 -0.55973822
2.520277 0.99211627 -0.55926394
2.6258845 1.0336891 -0.55828619
2.7425244 1.0796049 -0.55767155
2.8768303 1.1324748 -0.55840749
3.0127668 1.1859868 -0.55704707
3.1733584 1.2492043 -0.55759776
3.3402078 1.314885 -0.5563243
3.5435181 1.3949189 -0.55781698
3.7403955 1.4724205 -0.55472451
3.984359 1.5684576 -0.55468112
4.2463317 1.6715841 -0.5526281
4.5638976 1.7965951 -0.55263573
4.9238048 1.9382738 -0.55171996
5.3665547 2.1125641 -0.5529173
5.8587079 2.3063018 -0.55085468
6.46872 2.5464354 -0.55003107
7.2235436 2.8435745 -0.54933089
8.1422024 3.2052081 -0.5461446
9.3412743 3.6772268 -0.54285485
10.981905 4.3230672 -0.53986418
13.299548 5.2354164 -0.53480256
16.85767 6.6360836 -0.52714443
23.000763 9.0543346 -0.51367241
36.192986 14.247502 -0.48493069
1.9208299 0.78355402 -0.55585939
2.008343 0.81925273 -0.56190568
2.0574446 0.83928245 -0.55597854
2.1415458 0.87358952 -0.55832106
2.2244673 0.90741527 -0.55885106
2.3010721 0.9386642 -0.55636585
2.3969486 0.97777462 -0.55699563
2.4963977 1.0183424 -0.5567016
2.6164064 1.0672969 -0.55901909
2.7259221 1.111971 -0.55703384
2.8611894 1.1671499 -0.55811507
2.9988976 1.2233245 -0.55722189
3.1488488 1.2844932 -0.55602437
3.3181813 1.3535682 -0.55538589
3.5136502 1.4333048 -0.55584764
3.7475872 1.5287335 -0.55853671
3.9598238 1.6153101 -0.55398875
4.2409368 1.7299829 -0.55465251
4.5542202 1.857779 -0.55418819
4.9065013 2.0014832 -0.55249703
5.3486247 2.1818364 -0.55379224
5.8237228 2.3756406 -0.55027032
6.4249415 2.6208925 -0.54900742
7.1761432 2.9273262 -0.54842216
8.1019793 3.3049977 -0.54613125
9.3002481 3.7938011 -0.54314065
10.927518 4.4576049 -0.53984433
13.230653 5.3971105 -0.5346604
16.774797 6.8428545 -0.52714425
22.897444 9.3404331 -0.51389122
36.045681 14.703924 -0.48534286
1.929482 0.81489676 -0.56122047
1.9938468 0.84208059 -0.56070459
2.0663359 0.87269562 -0.56123865
2.139039 0.90340102 -0.56052125
2.2123907 0.93438035 -0.55866134
2.296617 0.96995252 -0.55813032
2.3914704 1.0100127 -0.55856639
2.4826705 1.0485303 -0.55647361
2.5881765 1.0930896 -0.55581731
2.7066669 1.1431328 -0.55592948
2.8351564 1.197399 -0.55586702
2.9857488 1.2610002 -0.55761766
3.134804 1.3239521 -0.55637705
3.3045306 1.3956344 -0.55593145
3.502305 1.4791623 -0.55688816
3.7227049 1.572246 -0.55766749
3.9485121 1.6676133 -0.55523306
4.2202663 1.7823859 -0.55477369
4.5130806 1.9060529 -0.55199236
4.8734927 2.0582693 -0.55158842
5.3185582 2.2462382 -0.5534972
5.7926741 2.4464762 -0.55013746
6.4002419 2.7030759 -0.54969549
7.1374793 3.0144408 -0.54825866
8.0609484 3.4044583 -0.54614604
9.265995 3.9133973 -0.54390949
10.869864 4.5907745 -0.53974402
13.165092 5.5601401 -0.53473347
16.705557 7.055419 -0.52765483
22.792356 9.6261168 -0.51415038
35.889229 15.157445 -0.48570916
1.9096565 0.83433867 -0.5583958
1.9740767 0.86248422 -0.55808514
2.043376 0.89276141 -0.55794197
2.1311569 0.93111336 -0.56141365
2.1924243 0.95788139 -0.55655169
2.2847929 0.99823767 -0.55819756
2.3811698 1.0403452 -0.55910611
2.4793754 1.0832517 -0.55867833
2.5735734 1.1244074 -0.55560851
2.7051482 1.1818931 -0.55856031
2.8366685 1.239355 -0.55910915
2.9628959 1.2945044 -0.55628043
3.1280985 1.3666822 -0.5581274
3.2838378 1.4347255 -0.55537623
3.4831305 1.5217975 -0.55677265
3.6872377 1.610973 -0.55527991
3.9282568 1.7162755 -0.55531043
4.1863832 1.8290522 -0.55323428
4.5003738 1.9662362 -0.55335349
4.8702106 2.12782 -0.5541364
5.2827811 2.308074 -0.55268574
5.7745461 2.5229287 -0.55132049
6.376328 2.7858503 -0.55054212
7.0999694 3.1020129 -0.54826593
8.0292044 3.5080006 -0.54687655
9.2185659 4.0276384 -0.54399139
10.826168 4.7300081 -0.54042155
13.10137 5.7240558 -0.53496373
16.619627 7.2612 -0.52772099
22.685822 9.9115515 -0.51445758
35.726223 15.60897 -0.48606396
1.8976007 0.85700941 -0.55790985
1.9870038 0.89738637 -0.56481659
2.0426834 0.9225328 -0.56080794
2.1078846 0.95197958 -0.55832452
2.1914835 0.98973513 -0.55936003
2.2820945 1.0306575 -0.56059223
2.3647835 1.0680022 -0.55829996
2.4704571 1.1157273 -0.55971789
2.5748 1.1628516 -0.55891806
2.6872752 1.2136484 -0.55790913
2.8119774 1.2699674 -0.55727834
2.9516742 1.3330585 -0.55720901
3.0865533 1.3939736 -0.55373126
3.2912407 1.4864161 -0.55967712
3.4677384 1.5661274 -0.55734843
3.6705422 1.6577194 -0.5557934
3.9103436 1.7660203 -0.55580598
4.1618657 1.8796147 -0.55300677
4.4761295 2.0215449 -0.55338711
4.8352151 2.1837182 -0.553168
5.2517872 2.3718538 -0.55245268
5.7485323 2.5961976 -0.55184299
6.3393669 2.863035 -0.55034894
7.0592222 3.1881418 -0.54810524
7.97721 3.6027308 -0.54631126
9.1677237 4.1403999 -0.54395437
10.76805 4.863152 -0.54046464
13.0338 5.8864279 -0.53511977
16.535509 7.4678969 -0.52792591
22.565432 10.191178 -0.51453036
35.570362 16.064569 -0.4865942
1.8865033 0.88008237 -0.5577867
1.9582933 0.9135735 -0.55980647
2.0106721 0.93800896 -0.55514407
2.105644 0.98231483 -0.56088805
2.1770897 1.0156453 -0.55883151
2.2778387 1.0626463 -0.5627141
2.359479 1.1007327 -0.56020081
2.4538143 1.1447415 -0.55909419
2.5605843 1.1945512 -0.55897844
2.6704633 1.2458115 -0.55755705
2.801152 1.3067799 -0.55827528
2.9354553 1.3694344 -0.557284
3.0848918 1.4391488 -0.55656588
3.2517462 1.5169889 -0.55609107
3.4482498 1.6086607 -0.55735326
3.6504641 1.7029967 -0.55588204
3.8772113 1.8087777 -0.55421609
4.1374426 1.9301795 -0.55287343
4.4412179 2.0718954 -0.55217898
4.8174734 2.2474244 -0.55425799
5.2172146 2.4339097 -0.55192244
5.7132411 2.6653135 -0.55155963
6.3035059 2.940681 -0.55033326
7.0262084 3.2778325 -0.54862988
7.9332051 3.7009604 -0.54637295
9.1158552 4.2526841 -0.54393846
10.695781 4.9897432 -0.53987598
12.97112 6.0512238 -0.53556079
16.447908 7.6731977 -0.52810156
22.451017 10.47374 -0.51481926
35.384888 16.507586 -0.48679695
1.8788003 0.90478164 -0.55875641
1.9476012 0.93791437 -0.56000447
2.016583 0.97113431 -0.56003082
2.0783069 1.0008589 -0.55684233
2.1673996 1.0437636 -0.55959642
2.2502742 1.083674 -0.55915421
2.3271573 1.1206988 -0.55575669
2.4381087 1.1741301 -0.55876303
2.5416365 1.2239864 -0.5580855
2.6584311 1.2802317 -0.55828947
2.7848551 1.3411143 -0.55827177
2.9149227 1.4037514 -0.55662084
3.0680737 1.477505 -0.55676734
3.2398338 1.5602202 -0.5572927
3.4254982 1.6496314 -0.55691242
3.6372502 1.7516056 -0.55710757
3.855938 1.8569201 -0.55439723
4.123292 1.9856707 -0.55420339
4.4364429 2.1364763 -0.55480963
4.7803774 2.3021061 -0.55320507
5.2011728 2.5047503 -0.55344176
5.6760263 2.7334278 -0.55117017
6.2715268 3.0202053 -0.55074203
6.9724174 3.3577359 -0.54761225
7.9004898 3.8046718 -0.54730052
9.0596218 4.3628798 -0.54374307
10.638168 5.1230669 -0.54010689
12.904151 6.2143059 -0.53591025
16.342598 7.8701725 -0.52778763
22.337318 10.757075 -0.51520628
35.204723 16.953684 -0.48714948
1.8708581 0.92946583 -0.55975115
1.9347718 0.96121895 -0.55967182
1.9988315 0.99304461 -0.55844986
2.0705812 1.0286908 -0.5581193
2.1492591 1.0677789 -0.5582605
2.2417617 1.1137353 -0.56039959
2.3264055 1.1557876 -0.55892891
2.4278767 1.2061996 -0.55977494
2.534137 1.2589911 -0.5597958
2.6460314 1.3145816 -0.55903792
2.756835 1.3696303 -0.55598879
2.8911853 1.4363773 -0.55541879
3.0414989 1.5110549 -0.55527461
3.215126 1.5973151 -0.55637914
3.4014742 1.6898952 -0.5563429
3.6082242 1.7926111 -0.55599594
3.840019 1.9077697 -0.55543923
4.1030498 2.0384467 -0.55480981
4.4129992 2.1924336 -0.55520731
4.7583299 2.3639982 -0.5539757
5.1701069 2.5685742 -0.55345511
5.640151 2.802098 -0.55099064
6.2235107 3.0919185 -0.54982263
6.9532728 3.4544735 -0.54940331
7.8352394 3.8926454 -0.5460549
9.0128021 4.4776735 -0.54419649
10.603481 5.2679429 -0.54159367
12.820803 6.3695359 -0.53566104
16.258499 8.0774269 -0.52823943
22.213291 11.035842 -0.51543653
35.016705 17.39674 -0.48747107
1.8654091 0.95553404 -0.56159383
1.935537 0.99145627 -0.5633772
1.9889178 1.0188 -0.55913794
2.0618157 1.056141 -0.55921483
2.1309376 1.0915478 -0.55694586
2.2291458 1.1418539 -0.56071341
2.3158922 1.1862888 -0.55986536
2.4090183 1.2339915 -0.55888313
2.4987183 1.2799393 -0.55540651
2.6269968 1.3456484 -0.55847007
2.7553821 1.4114124 -0.55915368
2.8829439 1.4767543 -0.55728185
3.0264904 1.5502844 -0.55597281
3.2041361 1.6412814 -0.55792767
3.3838112 1.7333179 -0.55689794
3.5898829 1.8388757 -0.5566119
3.8076785 1.9504389 -0.55418855
4.0876317 2.0938416 -0.55616438
4.3839536 2.2456293 -0.55498517
4.7288733 2.4223101 -0.55397213
5.124198 2.6248107 -0.55195403
5.6133432 2.8753695 -0.5517841
6.196866 3.1742725 -0.55087537
6.9002604 3.5345778 -0.54860729
7.7985291 3.9947057 -0.54687846
8.9669209 4.5932007 -0.54479527
10.512711 5.3850136 -0.5402987
12.748908 6.5304794 -0.53597182
16.170866 8.2833376 -0.52866155
22.080133 11.310291 -0.51553494
34.841835 17.847322 -0.48805487
1.8489016 0.97596061 -0.56019473
1.9114746 1.0089903 -0.55994231
1.9682909 1.0389813 -0.5568887
2.0483611 1.0812472 -0.55912948
2.1258962 1.1221749 -0.55919242
2.2167141 1.1701139 -0.56116313
2.3052363 1.2168412 -0.56086415
2.394505 1.2639625 -0.55907959
2.4907937 1.3147895 -0.5571965
2.6056869 1.3754369 -0.55749315
2.7333603 1.4428307 -0.55824292
2.8675287 1.5136527 -0.55785775
3.007401 1.5874856 -0.55600995
3.1766739 1.6768379 -0.55669403
3.3638759 1.7756543 -0.5571683
3.5627136 1.8806127 -0.55594277
3.7911217 2.0011802 -0.55531836
4.0392938 2.13218 -0.55311292
4.3641214 2.3036435 -0.55601847
4.6844907 2.4727538 -0.55229312
5.0869241 2.6851821 -0.55145389
5.5717635 2.9411092 -0.55121022
6.1528559 3.2478445 -0.55047166
6.8555393 3.6187625 -0.5485481
7.7468143 4.0892305 -0.54673672
8.9028835 4.6994729 -0.54437435
10.459213 5.5209966 -0.54099745
12.667454 6.6866379 -0.53596359
16.068302 8.4818077 -0.52867818
21.943987 11.583345 -0.51564276
34.662048 18.296698 -0.48865107
1.8315544 0.99578881 -0.55860651
1.9030391 1.034654 -0.56115574
1.9660939 1.068936 -0.55994362
2.0365651 1.10725 -0.55958372
2.1145964 1.1496744 -0.55989635
2.1907477 1.1910769 -0.5582552
2.2808363 1.2400568 -0.55859536
2.3738711 1.2906383 -0.55792516
2.4760404 1.3461862 -0.55755705
2.5912044 1.4087991 -0.55805874
2.7163041 1.4768139 -0.55842602
2.8409929 1.5446055 -0.55634832
2.9944985 1.6280642 -0.55728364
3.1542854 1.7149379 -0.55642402
3.3386605 1.8151798 -0.5566467
3.5321507 1.9203777 -0.55481648
3.7709329 2.0502 -0.5560118
4.0243058 2.1879549 -0.55470276
4.3080382 2.3422163 -0.55250078
4.6617384 2.5345175 -0.55324322
5.0608506 2.751509 -0.55225343
5.5308471 3.0070388 -0.55077875
6.1166058 3.3255074 -0.55084532
6.8001223 3.697125 -0.54771012
7.7034383 4.1882443 -0.54726875
8.8425045 4.807538 -0.54425603
10.390272 5.6490359 -0.54098356
12.59323 6.8467512 -0.53634471
15.979021 8.6875553 -0.52921551
21.830135 11.868718 -0.51635778
34.452858 18.731504 -0.48891214
1.8240143 1.0209438 -0.56009334
1.8772793 1.0507574 -0.55732769
1.9434444 1.0877916 -0.55726039
2.0215254 1.1314954 -0.559232
2.0977366 1.1741525 -0.5592128
2.1819515 1.2212895 -0.55979818
2.2676289 1.2692453 -0.5591408
2.3408523 1.31023 -0.55390954
2.4563117 1.3748555 -0.55687928
2.5806835 1.4444693 -0.55957597
2.6981504 1.5102181 -0.55846947
2.8331742 1.5857943 -0.55859363
2.9814315 1.6687773 -0.55862844
3.1495855 1.7628971 -0.5593766
3.3282366 1.8628924 -0.55868578
3.5256517 1.9733901 -0.55756503
3.745765 2.0965929 -0.55606014
3.995194 2.2362041 -0.55443829
4.2855778 2.3987389 -0.5533613
4.6303315 2.5917053 -0.55325615
5.0212698 2.8105228 -0.55166376
5.4952407 3.0758157 -0.55095768
6.0643134 3.3943388 -0.54985327
6.7585044 3.7828939 -0.54806322
7.6432281 4.2780948 -0.54668719
8.7896023 4.9197469 -0.54468215
10.335212 5.7848616 -0.54177946
12.513778 7.0042558 -0.53658843
15.869986 8.8828039 -0.52918178
21.699316 12.145617 -0.51675701
34.251732 19.171501 -0.48936638
1.8093127 1.0421357 -0.55947161
1.8625399 1.0727937 -0.55682606
1.9333267 1.1135658 -0.55824333
2.0052433 1.1549885 -0.55861437
2.0851929 1.2010384 -0.55976361
2.1629348 1.2458165 -0.55880737
2.2475035 1.2945267 -0.55806118
2.3408353 1.3482844 -0.55778646
2.4469249 1.4093902 -0.55863798
2.5477045 1.4674377 -0.55629557
2.6790783 1.543107 -0.55840713
2.8013103 1.6135107 -0.55618101
2.9494665 1.6988462 -0.55651122
3.1121745 1.7925637 -0.55660498
3.2835879 1.8912951 -0.55505282
3.492588 2.0116758 -0.55620611
3.7217281 2.1436567 -0.55636287
3.9662752 2.2845123 -0.55428159
4.2569427 2.4519322 -0.55351508
4.5984025 2.6486075 -0.55329078
5.0004277 2.8801677 -0.55322307
5.4702597 3.1507835 -0.55229574
6.0198545 3.4673417 -0.5496465
6.7305031 3.8766642 -0.54961658
7.6075077 4.3818049 -0.54794466
8.7247534 5.025321 -0.54445171
10.259349 5.9092236 -0.54157072
12.431295 7.1602306 -0.53678644
15.775919 9.0866814 -0.52973092
21.562185 12.41948 -0.51708907
34.04113 19.607157 -0.48976508
1.8106887 1.0727915 -0.56393355
1.8590199 1.1014266 -0.55978042
1.9280192 1.142307 -0.56072426
1.9866067 1.1770188 -0.55741239
2.0658793 1.2239859 -0.558577
2.1554956 1.2770816 -0.56090009
2.23366 1.3233922 -0.55862218
2.3233902 1.3765552 -0.55762076
2.4337583 1.4419458 -0.55963773
2.547085 1.5090892 -0.56016976
2.6617913 1.5770502 -0.55880368
2.7793574 1.6467054 -0.55580062
2.9372797 1.7402707 -0.55820721
3.1001029 1.8367398 -0.55844313
3.2696254 1.937178 -0.55667716
3.4700022 2.0558965 -0.55659312
3.6917739 2.1872911 -0.55586368
3.9406924 2.3347697 -0.55467659
4.2354412 2.5094016 -0.55468953
4.5754461 2.7108467 -0.55449748
4.9677825 2.9432969 -0.55357367
5.4290481 3.2165861 -0.55208653
5.9968486 3.552995 -0.55149329
6.6722918 3.9531796 -0.54879105
7.5633645 4.4811196 -0.54869252
8.6657295 5.1342454 -0.54466695
10.193369 6.0393367 -0.54196697
12.339684 7.3109789 -0.53667188
15.662131 9.2794533 -0.52970147
21.414209 12.687428 -0.51724267
33.842457 20.050879 -0.49041688
1.7855217 1.0877609 -0.56021881
1.8444092 1.1236359 -0.55949903
1.9036889 1.1597497 -0.55775362
1.9784279 1.2052817 -0.55923378
2.0602841 1.2551495 -0.56119484
2.1209741 1.2921226 -0.55600941
2.2173457 1.3508332 -0.55865407
2.3154378 1.4105922 -0.55983281
2.406822 1.4662644 -0.55754757
2.5183551 1.5342118 -0.55795819
2.6469152 1.612532 -0.55980098
2.764961 1.6844469 -0.55702162
2.9140425 1.7752692 -0.55789757
3.0685275 1.8693831 -0.55685389
3.2355783 1.9711525 -0.55496514
3.4407709 2.0961583 -0.55599672
3.6612456 2.230474 -0.55535471
3.9162712 2.3858387 -0.55532664
4.1938953 2.5549707 -0.55332124
4.5358405 2.7632878 -0.5537737
4.9188542 2.996624 -0.55218577
5.3785934 3.2767026 -0.55101144
5.9456711 3.6221733 -0.55084121
6.6245456 4.0357513 -0.54890412
7.4919682 4.5641956 -0.54754311
8.6093521 5.2449188 -0.54513586
10.119634 6.1650009 -0.54203624
12.262146 7.4702444 -0.5372541
15.53754 9.4656534 -0.52938426
21.274818 12.960871 -0.51768619
33.620708 20.482134 -0.49081612
1.7640704 1.1046596 -0.55770802
1.8181158 1.1385028 -0.55572778
1.8929566 1.1853681 -0.55883747
1.9642518 1.230013 -0.55945963
2.0395861 1.2771872 -0.5597924
2.1143153 1.3239827 -0.55848944
2.2013483 1.3784827 -0.5588519
2.3067887 1.4445094 -0.56199378
2.3910971 1.4973031 -0.5581277
2.4933276 1.5613198 -0.55662465
2.6168084 1.6386435 -0.55765301
2.7543027 1.7247423 -0.55910468
2.8875952 1.8082099 -0.55704892
3.0433469 1.9057416 -0.55649483
3.2169487 2.014451 -0.55597645
3.414571 2.1382017 -0.55596966
3.638622 2.2785022 -0.55613083
3.8901427 2.4360044 -0.55582708
4.1688256 2.6105156 -0.55420685
4.4965458 2.8157337 -0.55316162
4.8936329 3.0643892 -0.55354267
5.3366179 3.3417861 -0.5508793
5.9049549 3.6976783 -0.55123979
6.5864048 4.124402 -0.54990453
7.4450822 4.6621051 -0.5482648
8.5539064 5.3564496 -0.54575437
10.048027 6.2920671 -0.54230392
12.158222 7.6134696 -0.536762
15.442681 9.6701956 -0.53016359
21.115709 13.222642 -0.51773179
33.395023 20.911938 -0.49123818
1.7571386 1.1306314 -0.55986959
1.8109273 1.1652417 -0.55786794
1.8870083 1.2141961 -0.56144667
1.9490511 1.2541175 -0.55948013
2.0261269 1.3037119 -0.56045592
2.1092458 1.3571949 -0.56151617
2.1913917 1.4100517 -0.56068361
2.2735755 1.4629329 -0.5582425
2.3596106 1.5182922 -0.55509406
2.4715874 1.5903437 -0.55609494
2.6054335 1.6764671 -0.55957973
2.7205977 1.7505695 -0.55659032
2.8670385 1.8447968 -0.55741721
3.0228784 1.9450722 -0.55708343
3.193079 2.0545876 -0.55617535
3.380229 2.1750095 -0.55469072
3.6066842 2.3207221 -0.55556899
3.8570597 2.4818263 -0.55541855
4.1442237 2.6666021 -0.55525345
4.4631982 2.8718464 -0.55336165
4.853085 3.122719 -0.5532577
5.3020167 3.4115844 -0.55159622
5.8508353 3.7647219 -0.55046755
6.5307326 4.2022018 -0.54952902
7.3924322 4.7566628 -0.54865336
8.4794378 5.4560971 -0.54524249
9.9657755 6.4124813 -0.54207939
12.070049 7.7664766 -0.53704488
15.329879 9.8640156 -0.530415
20.964394 13.489546 -0.51804954
33.175995 21.347103 -0.49184036
1.7406558 1.1505326 -0.55908316
1.8023634 1.1913199 -0.55970019
1.8743438 1.2388972 -0.56216872
1.938586 1.2813599 -0.5609566
1.9994134 1.3215653 -0.55751961
