# .PCD v0.7 - Point Cloud Data file format
VERSION 0.7
FIELDS x y z
SIZE 4 4 4
TYPE F F F
COUNT 1 1 1
WIDTH 1422
HEIGHT 1
VIEWPOINT 0 0 0 1 0 0 0
POINTS 1422
DATA ascii
-0.25239488 -2.0952437 -0.56547666
-0.25940189 -2.1534121 -0.56189716
-0.26873657 -2.2309036 -0.56223106
-0.27928743 -2.318491 -0.56372356
-0.29155231 -2.4203074 -0.56708038
-0.30111599 -2.4996996 -0.56366646
-0.31276554 -2.5964079 -0.56269115
-0.32690969 -2.713825 -0.56440991
-0.34070763 -2.8283679 -0.56358761
-0.35837281 -2.9750144 -0.5669716
-0.37325203 -3.0985336 -0.56368625
-0.3919777 -3.253984 -0.56387913
-0.41374207 -3.4346597 -0.56562668
-0.43512785 -3.6121929 -0.56385803
-0.46078297 -3.8251674 -0.56435424
-0.48957202 -4.0641584 -0.56490409
-0.52024776 -4.3188114 -0.56349939
-0.55649316 -4.6197009 -0.56347823
-0.60031068 -4.9834499 -0.56555831
-0.64982873 -5.3945217 -0.5665198
-0.7050845 -5.8532248 -0.56520247
-0.77164751 -6.4057941 -0.56448507
-0.85489547 -7.0968728 -0.56556195
-0.9560408 -7.9365258 -0.56566387
-1.0853025 -9.0095854 -0.56638902
-1.2519269 -10.39281 -0.56605011
-1.4802685 -12.288377 -0.56616837
-1.8129635 -15.050228 -0.56721008
-2.3350446 -19.38426 -0.56810099
-3.2805176 -27.233057 -0.57001287
-5.5033827 -45.686062 -0.57369792
-0.22554129 -2.0882602 -0.56280082
-0.23415451 -2.1680086 -0.56491184
-0.24189207 -2.2396498 -0.56364304
-0.25252211 -2.3380721 -0.56768662
-0.26095968 -2.4161947 -0.56532222
-0.27061558 -2.5055976 -0.56420338
-0.2809394 -2.6011844 -0.56293505
-0.29264352 -2.7095516 -0.56273019
-0.30577564 -2.8311403 -0.56334823
-0.32167467 -2.9783475 -0.56681019
-0.33510423 -3.1026902 -0.56365019
-0.35191286 -3.2583194 -0.56383795
-0.37045541 -3.4300027 -0.56406695
-0.3915025 -3.6248751 -0.56504351
-0.41244209 -3.8187523 -0.562617
-0.44011539 -4.074976 -0.56561273
-0.46769899 -4.330369 -0.56421435
-0.50152522 -4.6435623 -0.56559378
-0.53766418 -4.9781685 -0.56416601
-0.58188337 -5.387589 -0.56499761
-0.63384402 -5.8686862 -0.56590009
-0.69541025 -6.4387212 -0.56659025
-0.76765239 -7.1076021 -0.56562197
-0.85677165 -7.9327469 -0.56460094
-0.9722957 -9.0023708 -0.56514114
-1.1230817 -10.398479 -0.56556398
-1.330462 -12.318589 -0.56676376
-1.6264139 -15.058773 -0.56673557
-2.0934193 -19.382719 -0.56725854
-2.9392297 -27.213978 -0.56881404
-4.9325819 -45.670189 -0.57269365
-0.20063151 -2.0990732 -0.56500739
-0.2073369 -2.1692271 -0.56452239
-0.21394795 -2.238394 -0.56262237
-0.2207191 -2.309236 -0.55998391
-0.22950497 -2.4011567 -0.56110108
-0.23952602 -2.5060003 -0.56358826
-0.24992836 -2.6148329 -0.56518096
-0.26079065 -2.728478 -0.56595212
-0.27215052 -2.8473284 -0.56586075
-0.28462994 -2.9778924 -0.56601471
-0.29731664 -3.1106248 -0.56438482
-0.31124887 -3.2563884 -0.56279892
-0.32791114 -3.4307146 -0.56347829
-0.34679192 -3.6282516 -0.56486243
-0.3665784 -3.8352642 -0.56434298
-0.38859364 -4.0655951 -0.56360477
-0.4153102 -4.3451123 -0.56542712
-0.44433242 -4.6487527 -0.56551772
-0.47567919 -4.9767127 -0.56329554
-0.51462954 -5.3842244 -0.5639385
-0.56056583 -5.8648248 -0.56482041
-0.61384052 -6.4222021 -0.56442976
-0.67942196 -7.1083364 -0.56497282
-0.76085484 -7.9603143 -0.56585437
-0.86280811 -9.0269833 -0.56597739
-0.99490488 -10.409023 -0.56542933
-1.1776644 -12.321115 -0.56617087
-1.4398263 -15.063937 -0.56622076
-1.8537538 -19.394585 -0.56689578
-2.6011338 -27.213921 -0.56810141
-4.3614736 -45.631172 -0.57148868
-0.17511353 -2.1050649 -0.56599784
-0.18008137 -2.164784 -0.5627473
-0.18715145 -2.2497745 -0.56486171
-0.19339918 -2.3248794 -0.56315809
-0.2012427 -2.4191673 -0.5646888
-0.20868403 -2.5086205 -0.56355786
-0.21785498 -2.618866 -0.56543094
-0.22627541 -2.7200892 -0.56359237
-0.2371418 -2.8507156 -0.56591159
-0.24773659 -2.9780772 -0.56542802
-0.25887984 -3.1120319 -0.56401992
-0.27108157 -3.2587104 -0.5625816
-0.28548822 -3.431895 -0.56305301
-0.30272266 -3.6390727 -0.56592476
-0.31924182 -3.8376517 -0.56407398
-0.3396259 -4.0826917 -0.56535316
-0.36066642 -4.3356228 -0.56357253
-0.38724655 -4.6551461 -0.56567347
-0.41576973 -4.9980273 -0.56508672
-0.44904694 -5.3980579 -0.56476641
-0.48807135 -5.8671756 -0.56442612
-0.53493959 -6.4305859 -0.56454575
-0.59162587 -7.1120195 -0.56464463
-0.66181409 -7.9557619 -0.56490958
-0.74985403 -9.0141029 -0.56454903
-0.86692125 -10.421385 -0.56547898
-1.02528 -12.325038 -0.56572908
-1.2528315 -15.060467 -0.56546849
-1.613542 -19.39662 -0.56633258
-2.2634058 -27.208727 -0.56736904
-3.7919698 -45.583813 -0.57026845
-0.14920728 -2.1069162 -0.56595951
-0.15372492 -2.1707087 -0.56375343
-0.15907204 -2.2462139 -0.56343406
-0.16488755 -2.3283331 -0.56346095
-0.17190798 -2.4274669 -0.56608987
-0.17675428 -2.4959002 -0.56016958
-0.18490735 -2.6110275 -0.56320506
-0.19375862 -2.7360139 -0.56635541
-0.20139845 -2.843894 -0.56402308
-0.21038108 -2.9707351 -0.56350029
-0.22020498 -3.1094558 -0.56301969
-0.23240982 -3.2817972 -0.56603116
-0.24380524 -3.4427087 -0.56429267
-0.25712469 -3.630789 -0.56410223
-0.27262634 -3.849684 -0.56530708
-0.28819168 -4.069478 -0.56299007
-0.3063308 -4.3256154 -0.56173962
-0.32995483 -4.6592045 -0.56563079
-0.35378432 -4.9956942 -0.56428838
-0.38217735 -5.3966246 -0.56408209
-0.41536719 -5.8652892 -0.56371069
-0.4556011 -6.4334216 -0.56426024
-0.50485998 -7.1289935 -0.56545663
-0.5640918 -7.9653897 -0.56505799
-0.63958818 -9.0314541 -0.56510049
-0.737046 -10.40763 -0.5641982
-0.87227112 -12.317108 -0.56483006
-1.0670583 -15.067646 -0.56520265
-1.3749579 -19.415415 -0.56634486
-1.926695 -27.206347 -0.56678253
-3.2249174 -45.5382 -0.56915867
-0.12342916 -2.1109662 -0.56659687
-0.12654229 -2.1642087 -0.56161875
-0.13067438 -2.2348783 -0.56014526
-0.1362825 -2.3307924 -0.56360793
-0.14186446 -2.4262588 -0.56535858
-0.14641115 -2.504019 -0.56154525
-0.15290824 -2.6151364 -0.56364316
-0.15962483 -2.7300081 -0.56466323
-0.16655806 -2.8485844 -0.5645045
-0.17398429 -2.9755929 -0.56397325
-0.18188585 -3.1107306 -0.56280303
-0.19181356 -3.2805207 -0.56536138
-0.20049508 -3.4289975 -0.56159872
-0.2134217 -3.6500771 -0.56664836
-0.22479853 -3.8446512 -0.56411946
-0.2391939 -4.0908504 -0.56549716
-0.25355116 -4.3363972 -0.56269234
-0.27157325 -4.6446228 -0.56341261
-0.29216883 -4.9968619 -0.56397188
-0.31566867 -5.3987718 -0.56385815
-0.34308219 -5.8676152 -0.56348622
-0.37722611 -6.4515672 -0.56540215
-0.41632578 -7.120275 -0.56431639
-0.46574062 -7.9653997 -0.56460971
-0.52790314 -9.0285435 -0.56446952
-0.60909748 -10.417182 -0.56426734
-0.72068048 -12.325548 -0.56476802
-0.88128501 -15.07231 -0.56492847
-1.1349066 -19.409914 -0.56573457
-1.5904008 -27.200071 -0.56620163
-2.6571288 -45.443947 -0.56752938
-0.096532822 -2.092135 -0.56118143
-0.10044459 -2.176914 -0.56455261
-0.10400575 -2.2540941 -0.5645982
-0.10798787 -2.3403981 -0.56556684
-0.11182746 -2.4236124 -0.56437886
-0.11632212 -2.5210242 -0.56499535
-0.12109765 -2.6245234 -0.56530267
-0.12615369 -2.7341018 -0.56514639
-0.13104473 -2.8401043 -0.56246215
-0.13761835 -2.9825728 -0.56493276
-0.14394611 -3.1197131 -0.56406528
-0.15121534 -3.2772577 -0.56443596
-0.1596275 -3.4595726 -0.56624198
-0.16745082 -3.6291256 -0.56303358
-0.1777145 -3.8515682 -0.56477106
-0.18830639 -4.0811238 -0.56378996
-0.20103011 -4.3568821 -0.564987
-0.21482141 -4.6557779 -0.56440264
-0.23053472 -4.9963293 -0.56354922
-0.24901751 -5.396903 -0.56330061
-0.27136734 -5.8812857 -0.5644359
-0.29718032 -6.4407253 -0.56408912
-0.32874674 -7.1248574 -0.56431657
-0.36753243 -7.9654512 -0.56425041
-0.41705295 -9.0386982 -0.56474108
-0.48063335 -10.416663 -0.56387651
-0.56878471 -12.327147 -0.56447822
-0.6961472 -15.087448 -0.56513226
-0.89541781 -19.406197 -0.56526262
-1.2538615 -27.174669 -0.56530917
-2.0941286 -45.385597 -0.56643629
-0.071442932 -2.1121244 -0.56626481
-0.073938116 -2.1858914 -0.56660217
-0.076599337 -2.2645674 -0.56694275
-0.078645498 -2.3250597 -0.56158412
-0.082279012 -2.4324801 -0.56616545
-0.08478222 -2.5064843 -0.56146061
-0.088758551 -2.6240396 -0.56492072
-0.091965921 -2.7188618 -0.56172001
-0.096083194 -2.840584 -0.56228065
-0.10054178 -2.9723966 -0.56272858
-0.10494016 -3.1024296 -0.56066459
-0.1107166 -3.2732029 -0.56346053
-0.1165577 -3.4458883 -0.56372505
-0.1233476 -3.6466231 -0.56547016
-0.13015279 -3.8478105 -0.56394273
-0.13810357 -4.0828662 -0.56375343
-0.14722493 -4.3525276 -0.56414497
-0.15715002 -4.6459508 -0.56293452
-0.16929178 -5.0049076 -0.56423932
-0.18313555 -5.4141822 -0.56482637
-0.19875112 -5.8758373 -0.56363583
-0.21788415 -6.4414825 -0.56387818
-0.24131015 -7.1340442 -0.56476647
-0.26912847 -7.956459 -0.56333637
-0.30550721 -9.0319529 -0.56404227
-0.35278559 -10.429681 -0.5643037
-0.41721907 -12.334579 -0.56454086
-0.50986606 -15.073577 -0.56433517
-0.65542215 -19.376768 -0.56412798
-0.91849738 -27.154268 -0.56460714
-1.5326743 -45.311672 -0.56523567
-0.045376405 -2.1085951 -0.5651263
-0.047184397 -2.1926105 -0.56815046
-0.048573997 -2.2571838 -0.56490201
-0.050334055 -2.3389721 -0.56475228
-0.052057765 -2.419071 -0.56285292
-0.05421602 -2.5193629 -0.56415349
-0.056425255 -2.6220238 -0.5642947
-0.058659419 -2.7258432 -0.56297082
-0.061106361 -2.83955 -0.56188476
-0.064000636 -2.9740441 -0.56284893
-0.06692972 -3.1101558 -0.56186962
-0.070402056 -3.2715116 -0.56297779
-0.074190006 -3.4475336 -0.56380236
-0.078496687 -3.6476605 -0.56543857
-0.082914643 -3.8529584 -0.5645051
-0.087924875 -4.0857787 -0.56396365
-0.093617342 -4.3503017 -0.56366462
-0.10016035 -4.6543484 -0.56376022
-0.10787182 -5.0126929 -0.56492478
-0.11617956 -5.3987455 -0.56302434
-0.12666216 -5.8858609 -0.56440526
-0.13877767 -6.4488568 -0.56433165
-0.15340911 -7.1287642 -0.56415647
-0.17145938 -7.9675422 -0.56392914
-0.19449419 -9.0379457 -0.56422454
-0.22441775 -10.428463 -0.56404585
-0.26517022 -12.322189 -0.56378192
-0.32441217 -15.075101 -0.56420022
-0.41691399 -19.373566 -0.56384289
-0.58354694 -27.116829 -0.56363684
-0.97318602 -45.222958 -0.56393713
-0.019358888 -2.0994751 -0.5625757
-0.020199606 -2.1906512 -0.56753552
-0.020672485 -2.241935 -0.56097972
-0.021587985 -2.3412209 -0.56518847
-0.022376016 -2.4266829 -0.56451738
-0.023180023 -2.5138779 -0.56281888
-0.024139054 -2.6178851 -0.56329751
-0.025154928 -2.7280567 -0.56332147
-0.026298523 -2.8520799 -0.5642575
-0.027450163 -2.9769752 -0.56329721
-0.028653249 -3.1074502 -0.56127483
-0.03017373 -3.2723467 -0.5630151
-0.031723041 -3.4403696 -0.56252444
-0.033420365 -3.6244447 -0.56173366
-0.035474416 -3.8472071 -0.56355596
-0.037666 -4.0848846 -0.5637337
-0.040085815 -4.3473144 -0.56317109
-0.042913757 -4.6540051 -0.5636121
-0.046140853 -5.003984 -0.56383675
-0.050016109 -5.4242568 -0.56557798
-0.054259136 -5.8844137 -0.56415987
-0.059310924 -6.432281 -0.56277472
-0.065765657 -7.132298 -0.5643295
-0.073450975 -7.9657717 -0.56369734
-0.083407439 -9.0455523 -0.56459266
-0.096091643 -10.421157 -0.56354415
-0.11355449 -12.315006 -0.5633468
-0.13886783 -15.060242 -0.5635376
-0.17854096 -19.362801 -0.5634231
-0.24983208 -27.094337 -0.56306291
-0.41622022 -45.13916 -0.5627858
0.0065024714 -2.114419 -0.56655866
0.0066991192 -2.1783633 -0.56433076
0.0069289468 -2.2530968 -0.56375128
0.0071779336 -2.3340602 -0.56343848
0.0074364478 -2.4181216 -0.56250447
0.0077583604 -2.5227983 -0.56479472
0.0080261817 -2.6098864 -0.56155521
0.0083545707 -2.7166691 -0.56094885
0.0087659303 -2.8504314 -0.56391007
0.0091692619 -2.9815836 -0.56414783
0.009626545 -3.1302791 -0.56537682
0.010032334 -3.2622304 -0.56125337
0.010604481 -3.448276 -0.56379592
0.011174922 -3.6337671 -0.5631572
0.011800828 -3.8372943 -0.56208265
0.012563769 -4.085381 -0.5637809
0.013374333 -4.3489532 -0.56336212
0.014313397 -4.6543102 -0.56362772
0.015408332 -5.0103521 -0.56453294
0.016620766 -5.4046016 -0.56350726
0.018062074 -5.8732738 -0.56307054
0.019784302 -6.4332929 -0.56284201
0.021894656 -7.1195207 -0.56329721
0.024525568 -7.9750185 -0.56433034
0.027738737 -9.0198498 -0.56296712
0.032040227 -10.418571 -0.5633831
0.037863798 -12.312232 -0.56319869
0.046264831 -15.044009 -0.56290895
0.059491865 -19.345066 -0.56288576
0.083263151 -27.074812 -0.5626359
0.13851494 -45.041122 -0.56154227
0.032324098 -2.1027424 -0.56349385
0.033423331 -2.1742496 -0.56332892
0.03455206 -2.2476754 -0.56245863
0.035930481 -2.3373444 -0.56429529
0.037257772 -2.4236872 -0.5638631
0.038580943 -2.509762 -0.5619399
0.040179372 -2.6137428 -0.56244874
0.041967198 -2.7300441 -0.56377447
0.043739319 -2.845324 -0.56296349
0.045967557 -2.9902749 -0.56585652
0.047961053 -3.1199555 -0.56357616
0.050254114 -3.2691233 -0.56250304
0.052913878 -3.4421461 -0.56285745
0.055876095 -3.6348436 -0.56338793
0.058929335 -3.8334625 -0.56158507
0.062961444 -4.0957589 -0.56527716
0.066769347 -4.3434701 -0.56271565
0.071554117 -4.6547279 -0.56374228
0.076652177 -4.9863663 -0.56189412
0.083281875 -5.4176407 -0.56493086
0.090196759 -5.8674664 -0.56257761
0.098857045 -6.4308343 -0.56269073
0.10902868 -7.0925179 -0.5612244
0.12221057 -7.9500246 -0.56262553
0.13845943 -9.0070429 -0.56223154
0.16015537 -10.418405 -0.56343788
0.18931061 -12.315006 -0.56338942
0.23105812 -15.03076 -0.56247699
0.29690245 -19.314054 -0.56204718
0.41530153 -27.016134 -0.56148022
0.69089466 -44.943977 -0.5603947
0.058104463 -2.0996008 -0.56280082
0.060056388 -2.1701334 -0.56241125
0.062557355 -2.2605057 -0.56581897
0.064461879 -2.3293254 -0.56250817
0.066602863 -2.4066899 -0.56005687
0.069428459 -2.5087924 -0.56187153
0.072568402 -2.6222541 -0.56442964
0.075850941 -2.7408686 -0.56615967
0.078538015 -2.8379657 -0.56165624
0.082334071 -2.975136 -0.56314075
0.086445592 -3.1237054 -0.56440288
0.090644218 -3.2754226 -0.56373608
0.095574796 -3.4535885 -0.56487799
0.10051047 -3.6319389 -0.56308669
0.10624008 -3.8389778 -0.5625419
0.11275589 -4.0744262 -0.56248176
0.11996072 -4.3347721 -0.56173742
0.12865953 -4.6491032 -0.56321001
0.1381705 -4.9927812 -0.5627659
0.14908566 -5.3871999 -0.56190532
0.16244473 -5.8699284 -0.56296265
0.17842668 -6.4474359 -0.56429267
0.19655126 -7.102366 -0.56215245
0.21991895 -7.9467564 -0.56254309
0.24939804 -9.0119801 -0.56268865
0.28763473 -10.393661 -0.56224859
0.34027892 -12.295956 -0.56266677
0.41561729 -15.018301 -0.56215948
0.53420013 -19.303286 -0.56188244
0.7468639 -26.987875 -0.56104136
1.2407136 -44.833099 -0.55916011
0.08437968 -2.1103292 -0.56591195
0.086559601 -2.1648488 -0.56127512
0.089718737 -2.2438588 -0.56188577
0.094210058 -2.3561862 -0.56923145
0.09734422 -2.4345715 -0.56678087
0.10052371 -2.5140901 -0.56329221
0.10400426 -2.6011384 -0.56011748
0.10909969 -2.728575 -0.56385475
0.11327167 -2.8329155 -0.56089002
0.11883736 -2.9721131 -0.56280261
0.12457415 -3.1155899 -0.56317073
0.13064395 -3.2673948 -0.56258839
0.13807181 -3.4531651 -0.56504375
0.14543161 -3.6372333 -0.56414211
0.15312806 -3.8297207 -0.56141889
0.16307765 -4.0785594 -0.5632866
0.17360693 -4.3418961 -0.5628947
0.18604423 -4.6529517 -0.56391078
0.20020539 -5.0071211 -0.56461704
0.21603879 -5.4031134 -0.56379962
0.23436895 -5.8615494 -0.56239289
0.25681102 -6.4228234 -0.56237239
0.28433856 -7.1112847 -0.56309253
0.31804901 -7.9543805 -0.56331706
0.35991734 -9.0015049 -0.56226838
0.41540584 -10.389268 -0.56224471
0.49078238 -12.274429 -0.5619154
0.60004401 -15.007054 -0.5619722
0.77098715 -19.282328 -0.56150591
1.0774105 -26.945951 -0.56040287
1.7878703 -44.714497 -0.55791289
0.11017767 -2.1063931 -0.56517702
0.11366481 -2.1730607 -0.56372392
0.11716945 -2.240063 -0.56125367
0.12175252 -2.3276827 -0.56266451
0.12692139 -2.426502 -0.56522286
0.13179511 -2.5196786 -0.56486475
0.1362638 -2.6051116 -0.56129146
0.14334419 -2.7404757 -0.56663537
0.14894094 -2.8474748 -0.56409258
0.15535527 -2.9701052 -0.56274164
0.16321008 -3.1202745 -0.56433761
0.17096952 -3.2686205 -0.56311888
0.17979693 -3.4373846 -0.56278074
0.18986988 -3.6299608 -0.56333369
0.20072733 -3.8375349 -0.56288368
0.21371971 -4.0859251 -0.56462413
0.22646412 -4.3295751 -0.56161588
0.24267046 -4.63941 -0.56258875
0.26093152 -4.9885278 -0.56283963
0.28192997 -5.3899794 -0.56274831
0.30650806 -5.8598666 -0.56255054
0.33619228 -6.4273739 -0.56309021
0.37073091 -7.0876889 -0.56154263
0.41553488 -7.9442577 -0.5629195
0.47013018 -8.988018 -0.56174463
0.54341108 -10.389013 -0.56255007
0.64189196 -12.271786 -0.56211323
0.78355223 -14.980068 -0.56128001
1.0066303 -19.244907 -0.56073427
1.4068036 -26.895481 -0.55967069
2.3328753 -44.600258 -0.55680335
0.13581446 -2.1009481 -0.56412148
0.14035487 -2.1711848 -0.56364238
0.14586845 -2.2564757 -0.56577253
0.15000443 -2.3204563 -0.56132108
0.15631424 -2.4180644 -0.56366253
0.16231707 -2.5109234 -0.56330687
0.16878907 -2.6110406 -0.5629735
0.17536484 -2.7127626 -0.56130874
0.1826607 -2.8256242 -0.56016654
0.19235899 -2.9756496 -0.5641976
0.20181273 -3.121892 -0.56503624
0.21215782 -3.2819226 -0.56581718
0.22169179 -3.4294062 -0.56187832
0.23525722 -3.6392531 -0.56518197
0.24806169 -3.8373287 -0.56325829
0.26328182 -4.0727725 -0.56321144
0.28077811 -4.3434272 -0.56381804
0.29995993 -4.6401558 -0.56308389
0.3220731 -4.9822297 -0.56253338
0.34802884 -5.3837457 -0.56250179
0.37829563 -5.8519506 -0.56219465
0.41586763 -6.4331613 -0.56400263
0.45854431 -7.0933371 -0.56239438
0.5130589 -7.9366369 -0.56278396
0.58125466 -8.9915743 -0.56237108
0.67024487 -10.368186 -0.56182605
0.79188186 -12.24982 -0.56151062
0.96634257 -14.948596 -0.56050366
1.2418492 -19.210478 -0.5601337
1.7354234 -26.845701 -0.55903661
2.8749413 -44.473194 -0.55561638
0.16183279 -2.1016688 -0.56480664
0.16673993 -2.165396 -0.56262934
0.17298871 -2.2465467 -0.56377375
0.17867076 -2.3203378 -0.56178141
0.18531312 -2.4065998 -0.56147885
0.19190636 -2.4922242 -0.55959892
0.20169809 -2.619386 -0.56526494
0.20954762 -2.7213252 -0.56357104
0.21846755 -2.8371654 -0.56294453
0.22932826 -2.97821 -0.565175
0.2396498 -3.1122522 -0.56378227
0.25195196 -3.2720163 -0.56460077
0.26470518 -3.437638 -0.56371772
0.27963167 -3.6314836 -0.56446666
0.2946105 -3.8260086 -0.56208593
0.31232518 -4.0560632 -0.56138939
0.33288246 -4.3230338 -0.56165963
0.3564983 -4.629725 -0.56230754
0.38290992 -4.972724 -0.56194919
0.41452762 -5.3833323 -0.56294858
0.45066637 -5.8526545 -0.56275213
0.4928872 -6.4009624 -0.56166857
0.54529905 -7.0816174 -0.56195426
0.61045045 -7.9277172 -0.5626412
0.69121981 -8.9766417 -0.56192625
0.79790765 -10.362161 -0.56198877
0.9415077 -12.227047 -0.56095505
1.1503625 -14.939375 -0.56064594
1.4765373 -19.175301 -0.55959511
2.0631776 -26.7938 -0.55844188
3.4132304 -44.326488 -0.55426604
0.18653959 -2.0869658 -0.56142932
0.19185551 -2.1464393 -0.55827463
0.19920291 -2.2286406 -0.55985254
0.2099096 -2.3484247 -0.5691635
0.21616502 -2.4184091 -0.56481147
0.22490752 -2.5162182 -0.56556469
0.23391461 -2.6169879 -0.56532538
0.24359635 -2.7253051 -0.56497282
0.2520808 -2.8202274 -0.56015635
0.26512012 -2.9661083 -0.56345451
0.27659333 -3.0944684 -0.5611344
0.2917271 -3.2637815 -0.56375617
0.30617234 -3.4253922 -0.56228447
0.32399479 -3.6247859 -0.56400222
0.34154758 -3.8211627 -0.56194854
0.36376292 -4.0697036 -0.56385374
0.38609713 -4.3195739 -0.56178445
0.41361362 -4.6274228 -0.56260312
0.44347408 -4.9614954 -0.56125408
0.48149267 -5.3868394 -0.56389183
0.52236688 -5.8441315 -0.56250769
0.5729174 -6.4096804 -0.5630092
0.63159561 -7.0661592 -0.56130147
0.70683086 -7.907876 -0.56180745
0.80115294 -8.9631319 -0.56165475
0.92440653 -10.342067 -0.56147295
1.0918299 -12.215164 -0.56098342
1.3332167 -14.915749 -0.56033212
1.7116113 -19.149149 -0.55940384
2.3890271 -26.727936 -0.55763924
3.9519455 -44.213543 -0.55341953
0.21292539 -2.0917797 -0.56338608
0.21949601 -2.1563294 -0.56150657
0.22978503 -2.2574086 -0.56774622
0.23634313 -2.3218355 -0.56338108
0.24474587 -2.4043841 -0.56219637
0.2556912 -2.5119112 -0.56526053
0.26500121 -2.6033726 -0.56304556
0.27634069 -2.7147717 -0.56345099
0.28672284 -2.816766 -0.56012678
0.3011241 -2.9582438 -0.56262147
0.31541088 -3.0985975 -0.56254393
0.33170068 -3.2586284 -0.563528
0.34780505 -3.4168377 -0.56153983
0.36915505 -3.6265802 -0.56494498
0.38826469 -3.8143134 -0.56160092
0.41277203 -4.0550737 -0.56248754
0.43874505 -4.3102326 -0.56122881
0.46984828 -4.6157908 -0.56184888
0.50501066 -4.9612265 -0.56188369
0.54650527 -5.3688693 -0.56267166
0.59443784 -5.8397589 -0.56274784
0.65185475 -6.4038234 -0.56315619
0.71940988 -7.0674849 -0.56206697
0.80460167 -7.9044089 -0.56222153
0.9108178 -8.9478769 -0.56135821
1.0509045 -10.324089 -0.56115609
1.2413348 -12.194877 -0.56071031
1.5159731 -14.892924 -0.56013262
1.9440035 -19.097895 -0.55856264
2.7131572 -26.654064 -0.55675203
4.4850554 -44.061195 -0.55216116
0.23851918 -2.0880435 -0.5631271
0.24743067 -2.1660564 -0.564789
0.25460342 -2.228848 -0.56130803
0.26533031 -2.3227534 -0.56435275
0.27461115 -2.4039996 -0.56285346
0.28697166 -2.5122056 -0.56607813
0.29823899 -2.6108422 -0.56541145
0.30913043 -2.706188 -0.5624159
0.32318506 -2.8292248 -0.56335199
0.33764488 -2.9558091 -0.56290543
0.35249889 -3.0858438 -0.56097305
0.37138802 -3.2512031 -0.56299114
0.39141399 -3.4265144 -0.56387848
0.41104397 -3.5983591 -0.56129366
0.43713591 -3.8267727 -0.56418413
0.46339461 -4.0566468 -0.5634535
0.49239185 -4.3104944 -0.56200874
0.5284217 -4.6259065 -0.56382841
0.56695026 -4.9631929 -0.5628534
0.61388254 -5.3740473 -0.56396276
0.66469353 -5.8188562 -0.56147873
0.72875792 -6.3796887 -0.56177938
0.80570841 -7.053328 -0.56168658
0.90164071 -7.8931384 -0.56216598
1.0207818 -8.9361219 -0.56136578
1.1764352 -10.298743 -0.56052238
1.3905392 -12.17305 -0.56045061
1.6972487 -14.858046 -0.55956346
2.1773977 -19.061363 -0.55823511
3.0370214 -26.586678 -0.55608243
5.0152512 -43.904484 -0.55092847
0.26381603 -2.0821214 -0.56236243
0.27127957 -2.141026 -0.55909002
0.2827284 -2.231384 -0.56277972
0.29332295 -2.3149996 -0.56330264
0.30272633 -2.389214 -0.5602209
0.31575644 -2.4920521 -0.56236929
0.3287155 -2.5943291 -0.56266814
0.34502321 -2.7230349 -0.56675601
0.35869554 -2.8309414 -0.56452936
0.37570381 -2.9651761 -0.56552637
0.39132905 -3.0884955 -0.56228739
0.41074875 -3.2417622 -0.56218839
0.43247965 -3.4132695 -0.56253147
0.45670873 -3.6044929 -0.56308389
0.48327643 -3.8141739 -0.56316024
0.51329994 -4.0511293 -0.56352127
0.5462895 -4.3114934 -0.56297231
0.58343452 -4.6046543 -0.56207007
0.62735111 -4.9512582 -0.56233227
0.67726403 -5.3451872 -0.56176561
0.73721075 -5.818306 -0.56225783
0.80709273 -6.3698368 -0.56174332
0.89325529 -7.04986 -0.56224257
0.99763954 -7.8736939 -0.56161237
1.1299953 -8.9182892 -0.56107593
1.3029517 -10.283317 -0.56051236
1.5387164 -12.144049 -0.55994409
1.8772959 -14.816226 -0.5588156
2.4100363 -19.020786 -0.55787247
3.358623 -26.507339 -0.55524486
5.5417466 -43.737259 -0.54964364
0.28981578 -2.0817292 -0.56317639
0.29946002 -2.1510031 -0.56261438
0.31202841 -2.241281 -0.56620073
0.3223218 -2.315218 -0.56427747
0.33360887 -2.3962922 -0.56279987
0.34767386 -2.4973202 -0.56448019
0.36077252 -2.5914071 -0.56295395
0.37608743 -2.7014132 -0.56317574
0.39251864 -2.8194375 -0.56315523
0.41068336 -2.9499137 -0.56353599
0.427127 -3.0680273 -0.55947489
0.45020905 -3.2338243 -0.56172937
0.47665906 -3.4238131 -0.5651924
0.49977276 -3.5898373 -0.56171197
0.53059006 -3.8111961 -0.56364125
0.56472826 -4.0564089 -0.56517887
0.59828091 -4.2974157 -0.56205219
0.63972163 -4.5950813 -0.56181931
0.68776405 -4.940167 -0.56199062
0.74290967 -5.3362751 -0.56174666
0.8102634 -5.8200727 -0.56334883
0.88633353 -6.3664799 -0.56236589
0.97819769 -7.0263348 -0.56128323
1.0938185 -7.856832 -0.56132656
1.2370129 -8.8853874 -0.55992067
1.4284914 -10.260767 -0.56019831
1.6841913 -12.097444 -0.55870789
2.0592949 -14.791791 -0.55880684
2.6399915 -18.962898 -0.55708462
3.6813569 -26.442963 -0.5548026
6.0675268 -43.582676 -0.54859716
0.31550291 -2.0787532 -0.56337827
0.32803848 -2.1613464 -0.56633198
0.33804905 -2.2273028 -0.56367701
0.35009864 -2.306694 -0.56320667
0.36314204 -2.392633 -0.56294668
0.37718743 -2.4851737 -0.5627405
0.39332783 -2.5915182 -0.56398612
0.40802351 -2.6883433 -0.56145453
0.42743585 -2.8162453 -0.56352484
0.44408259 -2.9259257 -0.55995435
0.46884447 -3.0890744 -0.56432158
0.49100545 -3.2350862 -0.56295478
0.51421833 -3.3880291 -0.56028676
0.54437238 -3.5867047 -0.56222671
0.57592243 -3.7945786 -0.56218851
0.61204851 -4.0326023 -0.562868
0.64977348 -4.2811608 -0.56092882
0.69489723 -4.5784674 -0.5607903
0.74968249 -4.9394307 -0.562913
0.80777615 -5.3221927 -0.56126738
0.87974423 -5.7963681 -0.56205899
0.96167368 -6.3361769 -0.5606913
1.0640275 -7.0105553 -0.5610255
1.1912473 -7.8487687 -0.56175452
1.3483564 -8.8839121 -0.56083012
1.5532318 -10.233774 -0.55972511
1.8332629 -12.078815 -0.55884641
2.2371891 -14.740162 -0.55785346
2.8716996 -18.920759 -0.55684197
4.0004358 -26.35766 -0.55400306
6.5887914 -43.411549 -0.54742151
0.3413702 -2.0767348 -0.56392628
0.35225558 -2.1429565 -0.56260574
0.36265492 -2.2062211 -0.55942798
0.37736797 -2.2957284 -0.56161982
0.39194268 -2.3843939 -0.56209964
0.4064641 -2.4727354 -0.56101334
0.4235414 -2.5766256 -0.56183606
0.44297579 -2.6948552 -0.56390947
0.46218476 -2.8117135 -0.5637126
0.48366007 -2.9423592 -0.5641948
0.50297779 -3.0598791 -0.56007558
0.52808899 -3.2126436 -0.56013709
0.5583089 -3.3964875 -0.56277829
0.58896077 -3.5829587 -0.56273222
0.62437701 -3.7984145 -0.56385171
0.66036797 -4.0173664 -0.56183231
0.70322078 -4.2780628 -0.56161344
0.75435567 -4.5891433 -0.56319147
0.81107157 -4.934176 -0.56340814
0.87578154 -5.3278408 -0.56295615
0.95023376 -5.7807727 -0.56163728
1.0413275 -6.3349438 -0.56167281
1.1517154 -7.0064921 -0.56179118
1.2844632 -7.8140669 -0.56035894
1.4561524 -8.8585424 -0.56031656
1.6800958 -10.220909 -0.56010902
1.9821103 -12.058222 -0.55897903
2.4171274 -14.70466 -0.55759263
3.1010723 -18.865458 -0.55629456
4.319066 -26.275156 -0.55334342
7.1064811 -43.232471 -0.54622394
0.36646494 -2.0700419 -0.56328988
0.38065842 -2.1502161 -0.56569779
0.39187342 -2.2135663 -0.56246984
0.40940636 -2.312604 -0.56693691
0.41994977 -2.3721602 -0.56039065
0.43788853 -2.4734907 -0.5623638
0.45708764 -2.5819402 -0.56417781
0.47450262 -2.6803117 -0.56204468
0.49552137 -2.7990398 -0.56235081
0.51779747 -2.9248703 -0.56201971
0.54199141 -3.0615342 -0.56155598
0.56791848 -3.2079878 -0.5605005
0.59965473 -3.3872554 -0.56242782
0.63250524 -3.5728176 -0.5623185
0.66635203 -3.7640069 -0.55991805
0.71151441 -4.0191145 -0.56325775
0.75545138 -4.2673006 -0.56137764
0.80891293 -4.5692873 -0.56193292
0.87022895 -4.9156418 -0.56247115
0.94107443 -5.315825 -0.56286669
1.0219256 -5.7725267 -0.56201452
1.1192433 -6.3222427 -0.56172448
1.2353402 -6.9780369 -0.56068522
1.3808428 -7.7999344 -0.56052071
1.5612793 -8.8191614 -0.55899769
1.8055222 -10.198811 -0.56007236
2.128865 -12.02527 -0.55862278
2.5995898 -14.684241 -0.55798829
3.3298655 -18.809332 -0.55580497
4.6352839 -26.18322 -0.55256581
7.6267424 -43.080997 -0.54545385
0.39217815 -2.0669005 -0.56370473
0.406975 -2.1448846 -0.56556898
0.41980511 -2.2125034 -0.56346887
0.43732947 -2.304862 -0.56631446
0.4503215 -2.3733342 -0.56193358
0.46803769 -2.4667039 -0.56208676
0.48827955 -2.5733848 -0.56357777
0.50689805 -2.6715102 -0.56146359
0.53091908 -2.7981083 -0.56343269
0.55417496 -2.9206741 -0.56248033
0.58157289 -3.0650697 -0.56347358
0.61334938 -3.2325416 -0.56606555
0.64110178 -3.3788054 -0.56229126
0.67614353 -3.5634866 -0.56211597
0.71624672 -3.7748427 -0.56279755
0.75793064 -3.9945297 -0.56107605
0.80900896 -4.2637281 -0.5621739
0.86542523 -4.5610595 -0.56218731
0.92930204 -4.8977103 -0.56168443
1.003126 -5.2867861 -0.56105554
1.091001 -5.7499146 -0.5610767
1.1975995 -6.3117213 -0.56205559
1.3210582 -6.9623866 -0.56069058
1.4757596 -7.7777119 -0.56018543
1.6706489 -8.8048382 -0.55934966
1.924827 -10.144436 -0.55834389
2.2766855 -11.998839 -0.55865324
2.7736764 -14.618135 -0.55673021
3.5584006 -18.753876 -0.55541724
4.950254 -26.089376 -0.55182827
8.1394281 -42.897316 -0.54435426
0.41646266 -2.056493 -0.56222045
0.43126246 -2.1295745 -0.56288773
0.44842839 -2.2143397 -0.56529808
0.46391845 -2.2908297 -0.56422567
0.48122969 -2.3763127 -0.56399727
0.49746919 -2.4565034 -0.56111383
0.51810354 -2.5583956 -0.56164789
0.54256976 -2.6792097 -0.56444132
0.56573468 -2.7935984 -0.56388271
0.58846128 -2.9058223 -0.5609712
0.62020844 -3.0625899 -0.56437707
0.64804554 -3.2000494 -0.56172866
0.68385488 -3.3768759 -0.56332695
0.72068548 -3.5587454 -0.56272346
0.76210546 -3.7632773 -0.56242794
0.80853385 -3.9925411 -0.56215066
0.8625766 -4.2594037 -0.56295967
0.91959155 -4.5409441 -0.56105924
0.9879868 -4.8786798 -0.56085283
1.0676819 -5.2722144 -0.56086004
1.16169 -5.7364259 -0.56111199
1.2730811 -6.2864757 -0.56115907
1.4072371 -6.9489379 -0.56095862
1.5715399 -7.7602654 -0.56027836
1.7772685 -8.7761536 -0.55887347
2.0507016 -10.126366 -0.55869502
2.41957 -11.947839 -0.55762178
2.9578264 -14.605749 -0.55760151
3.7855315 -18.692959 -0.5549497
5.2650375 -25.99876 -0.55123931
8.6498156 -42.712795 -0.54332137
0.4414956 -2.0501893 -0.56193876
0.45734265 -2.1237788 -0.56279975
0.47168794 -2.1903946 -0.56062353
0.48844898 -2.2682285 -0.56009603
0.50933963 -2.3652391 -0.56281298
0.52941072 -2.4584441 -0.56300163
0.55003679 -2.5542262 -0.5621748
0.57360512 -2.663671 -0.5626111
0.60049462 -2.7885389 -0.56430924
0.62775999 -2.9151523 -0.56421989
0.65272748 -3.0310946 -0.56000984
0.68722552 -3.1912944 -0.56163275
0.72470897 -3.3653579 -0.56284952
0.7601887 -3.5301161 -0.55963224
0.80784237 -3.7514074 -0.562096
0.85709757 -3.9801354 -0.56184542
0.91252321 -4.2375174 -0.56150758
0.97591192 -4.531878 -0.56137937
1.048957 -4.8710804 -0.56141955
1.135206 -5.2715979 -0.56223691
1.2323325 -5.7226276 -0.56120211
1.3487635 -6.2633028 -0.56052864
1.4898065 -6.9182696 -0.55991942
1.6669763 -7.7409992 -0.56032491
1.8856701 -8.7565556 -0.55905974
2.1786332 -10.117 -0.55961394
2.5636311 -11.904827 -0.55704349
3.1295888 -14.532988 -0.55625081
4.0080843 -18.61249 -0.55398208
5.5772443 -25.899256 -0.550542
9.1508036 -42.493923 -0.54192764
0.46725309 -2.047159 -0.56264043
0.48244902 -2.1137362 -0.5616681
0.50278902 -2.2028511 -0.56535131
0.51721925 -2.2660737 -0.56109196
0.53890079 -2.3610661 -0.56335425
0.55695683 -2.4401746 -0.56034374
0.58246446 -2.5519302 -0.56320333
0.60339302 -2.6436236 -0.5599016
0.63310373 -2.7737942 -0.56285822
0.66398525 -2.9090941 -0.56458497
0.69242108 -3.033679 -0.56201786
0.72919267 -3.1947849 -0.56378239
0.76493013 -3.3513603 -0.56203914
0.80731958 -3.5370798 -0.56226742
0.85744208 -3.7566795 -0.56442308
0.9066422 -3.9722383 -0.56226188
0.96396053 -4.2233648 -0.56116045
1.0306185 -4.5154114 -0.56086701
1.1099557 -4.863008 -0.56201971
1.1965058 -5.2422071 -0.56062901
1.3041676 -5.7139015 -0.56187654
1.4263021 -6.2490048 -0.56077623
1.5789387 -6.9177461 -0.56140596
1.7619456 -7.7195477 -0.56029809
1.9924753 -8.7295589 -0.55885816
2.2972252 -10.064749 -0.55824405
2.7116129 -11.880291 -0.5574134
3.3058095 -14.483622 -0.55587518
4.2370305 -18.563547 -0.55403417
5.8882713 -25.798067 -0.54988861
9.6542063 -42.297619 -0.54089719
0.48899382 -2.0271852 -0.55876118
0.50926399 -2.1112175 -0.56262028
0.52830201 -2.1901422 -0.56371427
0.54478836 -2.2584882 -0.56083006
0.56669706 -2.3493135 -0.56217021
0.58994478 -2.4456899 -0.56323349
0.61246508 -2.5390506 -0.56198043
0.64171714 -2.6603186 -0.56506598
0.66762435 -2.7677202 -0.56324899
0.69475549 -2.8801959 -0.56059206
0.73033017 -3.0276749 -0.56252676
0.76431435 -3.1685607 -0.56077075
0.80539769 -3.338877 -0.56156403
0.85017127 -3.5244913 -0.56188571
0.90028739 -3.732254 -0.56237406
0.95629436 -3.964438 -0.56277966
1.0185407 -4.2224884 -0.56266558
1.0865568 -4.504457 -0.56112349
1.16719 -4.8387318 -0.56083041
1.2609948 -5.2276115 -0.56068403
1.367862 -5.6706429 -0.55923438
1.5022525 -6.2277756 -0.5604865
1.6574285 -6.8710771 -0.55923027
1.8537058 -7.6847692 -0.5593859
2.0993521 -8.7031269 -0.55877638
2.4175539 -10.022272 -0.55749476
2.8559155 -11.839555 -0.55710769
3.4808481 -14.430291 -0.5554291
4.460875 -18.493116 -0.55352741
6.1970916 -25.690817 -0.54918534
10.152472 -42.088345 -0.53977662
0.5165239 -2.0314088 -0.56163359
0.53703487 -2.1120753 -0.56456596
0.5519352 -2.170676 -0.56040835
0.5727399 -2.2524977 -0.56104892
0.59446317 -2.3379319 -0.56115341
0.61932176 -2.4356968 -0.56264341
0.6460712 -2.5408983 -0.56410509
0.6718809 -2.6424041 -0.56297308
0.69941413 -2.7506878 -0.56149054
0.73204142 -2.8790059 -0.56207007
0.76695031 -3.0162973 -0.56212252
0.80261546 -3.1565628 -0.56035167
0.85140187 -3.3484321 -0.56488919
0.89505178 -3.5201006 -0.56289774
0.94382811 -3.7119303 -0.56101799
1.0010316 -3.9369028 -0.56057584
1.0683933 -4.2018261 -0.56162041
1.143566 -4.4974685 -0.56196219
1.2258285 -4.8209944 -0.56047928
1.322878 -5.2026749 -0.55971181
1.4413545 -5.6686249 -0.56074089
1.5765991 -6.200521 -0.55973607
1.7388868 -6.8387733 -0.55829918
1.9462496 -7.6542993 -0.55886775
2.2048445 -8.6713133 -0.55843228
2.5395076 -9.9874916 -0.55725497
3.001502 -11.804444 -0.55715019
3.6516168 -14.361245 -0.5544579
4.6808009 -18.408867 -0.55268669
6.5055127 -25.585176 -0.54859561
10.648383 -41.878448 -0.53872329
0.54095209 -2.0229969 -0.56110454
0.5627588 -2.1045473 -0.5643608
0.58147544 -2.174542 -0.56320983
0.60395342 -2.2586029 -0.56437671
0.62348425 -2.3316422 -0.56144148
0.64768821 -2.4221578 -0.56131315
0.67401284 -2.5206039 -0.56139714
0.70233727 -2.6265285 -0.56138831
0.73453236 -2.7469285 -0.56252438
0.76419926 -2.8578737 -0.55973661
0.80195785 -2.9990795 -0.56070918
0.84168816 -3.1476588 -0.56056595
0.887308 -3.3182631 -0.56159788
0.93658072 -3.502528 -0.56188691
0.99244666 -3.7114496 -0.5627473
1.0550821 -3.9456871 -0.56363142
1.1163315 -4.1747417 -0.5597927
1.196775 -4.4755754 -0.561023
1.2844789 -4.8035622 -0.56024653
1.3873137 -5.1881332 -0.55994028
1.5138848 -5.6614704 -0.56183213
1.6546437 -6.1878662 -0.56038803
1.8234884 -6.819294 -0.55849719
2.0420556 -7.6366696 -0.55937165
2.3093512 -8.6362734 -0.5579623
2.6636834 -9.9613686 -0.5575828
3.1448851 -11.760918 -0.55687886
3.8299651 -14.322909 -0.55475408
4.9075198 -18.352636 -0.55276847
6.8054628 -25.450369 -0.54745799
11.141449 -41.665642 -0.53770745
0.56844568 -2.0256739 -0.56374317
0.58586913 -2.0877628 -0.56174922
0.60650975 -2.1613164 -0.56167358
0.62859917 -2.2400327 -0.56162542
0.65317714 -2.3276172 -0.56236374
0.67815393 -2.4166229 -0.56192052
0.70628113 -2.516855 -0.56245393
0.73316705 -2.6126637 -0.56030947
0.7679612 -2.7366538 -0.56231159
0.80179787 -2.8572319 -0.56149948
0.84290212 -3.0037081 -0.56346977
0.88496053 -3.1535845 -0.56351662
0.92540157 -3.2976973 -0.56000072
0.97383487 -3.4702909 -0.55859411
1.0408635 -3.7091496 -0.56429648
1.0969695 -3.9090853 -0.56028742
1.1659617 -4.1549411 -0.5590179
1.2525826 -4.4636168 -0.56141222
1.3389081 -4.7712412 -0.55835485
1.4538802 -5.1809478 -0.56105185
1.5770005 -5.6196904 -0.55956805
1.7282164 -6.1585531 -0.55961561
1.9141234 -6.8210387 -0.56052542
2.1349897 -7.6081028 -0.55915987
2.4156919 -8.6083937 -0.558038
2.7858086 -9.9273157 -0.55755198
3.2862482 -11.710649 -0.55636996
4.0041914 -14.269061 -0.5545336
5.1242309 -18.260357 -0.55184513
7.1126423 -25.346123 -0.5470556
11.62571 -41.428581 -0.53645247
0.58986098 -2.0067992 -0.56046653
0.61293405 -2.0852973 -0.56307119
0.6365481 -2.1656361 -0.56478757
0.65902984 -2.2421224 -0.56413847
0.68205148 -2.3204458 -0.56261486
0.70678073 -2.4045784 -0.56109834
0.7329101 -2.4934747 -0.55920076
0.76822066 -2.6136067 -0.56249505
0.80008668 -2.7220199 -0.56128377
0.83576304 -2.8433964 -0.56075776
0.87755048 -2.985564 -0.56204784
0.92371064 -3.1426079 -0.56354219
0.97092766 -3.3032475 -0.56292814
1.023378 -3.4816918 -0.56241232
1.0783052 -3.6685629 -0.56009668
1.1445501 -3.8939383 -0.56009126
1.2193776 -4.1485133 -0.56012809
1.3081753 -4.4506168 -0.56175792
1.4053239 -4.7811313 -0.56149209
1.5119036 -5.1437321 -0.55899274
1.645949 -5.5997758 -0.55955803
1.8083093 -6.1521506 -0.56101191
1.9937849 -6.7831678 -0.55938572
2.2275655 -7.5785255 -0.55895698
2.5220537 -8.5804205 -0.55819279
2.9047809 -9.8825188 -0.55699998
3.4241481 -11.649487 -0.5554226
4.1767583 -14.209985 -0.55419183
5.3410554 -18.171104 -0.55109102
7.4169869 -25.233749 -0.54655731
12.113237 -41.211124 -0.53552485
0.61427087 -1.9986783 -0.56026566
0.64229137 -2.0898497 -0.56639022
0.65840864 -2.1422911 -0.56076837
0.68478048 -2.2280984 -0.56268603
0.70987266 -2.309742 -0.5620935
0.74005735 -2.4079549 -0.56396705
0.7663151 -2.493391 -0.56125277
0.79862732 -2.5985265 -0.5613206
0.83336383 -2.71155 -0.56119549
0.87345886 -2.8420091 -0.56255978
0.91572011 -2.979516 -0.56298649
0.95981836 -3.1230004 -0.56210011
1.010684 -3.2885039 -0.56249094
1.0623003 -3.45645 -0.56040257
1.1259778 -3.6636403 -0.56141651
1.1905056 -3.8735969 -0.55922878
1.2702472 -4.1330557 -0.56010759
1.3588302 -4.4212818 -0.56012183
1.4607472 -4.752893 -0.56024295
1.5825256 -5.1491284 -0.56165147
1.7123346 -5.5714936 -0.55879372
1.877617 -6.1092796 -0.55916566
2.0785377 -6.7630239 -0.5597899
2.3223159 -7.5562153 -0.55937535
2.6225176 -8.5329933 -0.55716318
3.0253465 -9.8436947 -0.55686641
3.5686212 -11.611369 -0.55565542
4.3467865 -14.143318 -0.55363452
5.5644684 -18.105339 -0.55112994
7.7173553 -25.110275 -0.54589707
12.595747 -40.983299 -0.5345366
0.63931531 -1.9925828 -0.5607183
0.66474521 -2.0718415 -0.56368232
0.68566197 -2.1370335 -0.56155664
0.71361393 -2.2241526 -0.56386298
0.73640013 -2.2951715 -0.56070894
0.76564068 -2.3863068 -0.56105942
0.80106592 -2.4967182 -0.56417638
0.82880747 -2.5831816 -0.56016499
0.86764914 -2.704241 -0.5618484
0.90513831 -2.8210855 -0.56057888
0.94855827 -2.9564142 -0.56078291
0.99752194 -3.1090214 -0.56174934
1.0497754 -3.2718823 -0.56181335
1.1111608 -3.4632046 -0.5636704
1.1748691 -3.6617675 -0.56330079
1.2427319 -3.8732786 -0.56134653
1.3219509 -4.1201839 -0.56052381
1.4129673 -4.4038591 -0.56007344
1.5157723 -4.7242761 -0.55902445
1.6425804 -5.1195045 -0.56058091
1.7798686 -5.5473967 -0.55852979
1.9505513 -6.0793715 -0.55858123
2.1607175 -6.734405 -0.559578
2.4089365 -7.5080404 -0.55795974
2.7301092 -8.5090542 -0.55774993
3.1394918 -9.7849951 -0.55568767
3.7103243 -11.564135 -0.55553633
4.5153327 -14.073141 -0.55301905
5.7786088 -18.01045 -0.55036288
8.0175486 -24.988655 -0.54535514
13.070825 -40.73843 -0.53339881
0.66598105 -1.9911916 -0.56258875
0.69002897 -2.0630915 -0.56356764
0.71076626 -2.1250932 -0.56067324
0.7372219 -2.2041919 -0.56105834
0.76533717 -2.2882526 -0.56127536
0.79838473 -2.3870604 -0.56350219
0.83014524 -2.4820199 -0.56311911
0.85568815 -2.5583897 -0.55702841
0.90210253 -2.6971624 -0.56263983
0.93864787 -2.8064277 -0.55991739
0.9893468 -2.9580107 -0.56335068
1.0363598 -3.098573 -0.56212151
1.0866041 -3.2487965 -0.56010127
1.1511586 -3.4418054 -0.5624488
1.2171421 -3.6390872 -0.56207168
1.2866212 -3.8468201 -0.55976254
1.3761146 -4.1143932 -0.56199551
1.471249 -4.3988318 -0.56169242
1.5742431 -4.7067699 -0.55920124
1.7070309 -5.1037874 -0.56111592
1.852121 -5.5375867 -0.55979276
2.0260162 -6.0575094 -0.55881935
2.2399399 -6.6971116 -0.55872554
2.4968541 -7.4652495 -0.55701923
2.8308556 -8.4638681 -0.5570277
3.263458 -9.7572899 -0.55635113
3.8459842 -11.498963 -0.55463547
4.685822 -14.009962 -0.55275881
5.9949412 -17.924047 -0.54993367
8.3093071 -24.843683 -0.54437995
13.549394 -40.510818 -0.53255981
0.68365657 -1.9634467 -0.55708277
0.70896465 -2.0361311 -0.55854207
0.73557675 -2.1125605 -0.55971074
0.76539785 -2.1982059 -0.56188786
0.79637587 -2.2871742 -0.56337023
0.8238523 -2.3660858 -0.56089991
0.85568297 -2.4575028 -0.5599016
0.8912285 -2.5595887 -0.55963326
0.94441807 -2.712348 -0.56818724
0.97994035 -2.8143673 -0.56386292
1.0230654 -2.9382217 -0.56193531
1.0721242 -3.0791173 -0.56094122
1.1270881 -3.2369723 -0.56040972
1.1912079 -3.421123 -0.5614202
1.259182 -3.6163433 -0.56090784
1.3401108 -3.8487689 -0.56240147
1.4233952 -4.0879598 -0.56073326
1.5216323 -4.3700948 -0.56036979
1.6344413 -4.6940799 -0.56003904
1.7656157 -5.0708098 -0.5598349
1.9131886 -5.4946361 -0.55778688
2.0979414 -6.0252419 -0.55818027
2.3212392 -6.6665487 -0.55851483
2.5957477 -7.4549303 -0.55858862
2.9326808 -8.422595 -0.55664259
3.3778393 -9.7010813 -0.55547243
3.9835541 -11.440681 -0.55414504
4.8597646 -13.957137 -0.55299056
6.2087083 -17.831276 -0.54938811
8.6067467 -24.718388 -0.54391235
14.019184 -40.262791 -0.53152525
0.7125898 -1.9682702 -0.56089503
0.74107885 -2.0469608 -0.56396997
0.767277 -2.1193237 -0.56395972
0.78693146 -2.1736119 -0.55803257
0.82367516 -2.2751031 -0.5628491
0.85373062 -2.3581204 -0.56145781
0.8893792 -2.4565866 -0.56214195
0.92873639 -2.5652966 -0.56333554
0.96688437 -2.6706665 -0.56190377
1.0070801 -2.7816925 -0.55975521
1.0587757 -2.9244826 -0.56175518
1.1103214 -3.0668592 -0.56115294
1.16791 -3.2259264 -0.56094128
1.2328807 -3.4053848 -0.56128287
1.3048981 -3.6043065 -0.5614872
1.3840088 -3.8228209 -0.56105423
1.4729151 -4.0683923 -0.56049114
1.5758785 -4.3527913 -0.56059331
1.6955891 -4.6834483 -0.5612157
1.8244442 -5.0393639 -0.55879772
1.9848251 -5.4823575 -0.55897582
2.1778648 -6.0155597 -0.55972189
2.4017298 -6.6339049 -0.55821198
2.6825755 -7.4096394 -0.55762452
3.0371871 -8.3891249 -0.55685669
3.4998553 -9.667078 -0.5559476
4.1177421 -11.373764 -0.55331457
5.0272732 -13.886014 -0.55258006
6.4218116 -17.737919 -0.54890323
8.8984175 -24.578642 -0.54320395
14.482289 -40.002056 -0.53039402
0.73611027 -1.9576932 -0.56041801
0.76173818 -2.025851 -0.56069213
0.79327565 -2.1097252 -0.56395859
0.82104462 -2.1835771 -0.56314027
0.84728116 -2.2533534 -0.56000352
0.88351679 -2.3497224 -0.56200248
0.92018771 -2.4472492 -0.56255198
0.9569757 -2.5450871 -0.56143928
0.99239612 -2.6392882 -0.55782717
1.0430821 -2.7740881 -0.5607636
1.0896198 -2.8978555 -0.55917186
1.1436316 -3.0415006 -0.55904377
1.2034345 -3.200547 -0.55905908
1.27899 -3.4014878 -0.56319016
1.352706 -3.5975363 -0.56298119
1.4298221 -3.8026273 -0.56062847
1.5210055 -4.0451307 -0.55982083
1.6322694 -4.3410378 -0.56162214
1.7462052 -4.6440516 -0.55902559
1.8937892 -5.0365529 -0.56102586
2.0573819 -5.4716296 -0.56041902
2.2459118 -5.9730272 -0.55829185
2.4823217 -6.6017613 -0.55803353
2.7733817 -7.3758388 -0.55760509
3.1372173 -8.3434639 -0.55634439
3.6179938 -9.6220942 -0.55587709
4.2632241 -11.338091 -0.55408746
5.1931434 -13.81122 -0.55210316
6.63205 -17.63801 -0.54829365
9.1849995 -24.427605 -0.54232109
14.943942 -39.743576 -0.52936321
0.76641095 -1.9646063 -0.56505203
0.78720677 -2.0179141 -0.56113213
0.81484878 -2.0887711 -0.56099331
0.84820402 -2.1742735 -0.56338817
0.87646776 -2.2467244 -0.56099206
0.91677403 -2.350045 -0.56473321
0.94958782 -2.4341593 -0.56218457
0.99108994 -2.540545 -0.56308311
1.0322905 -2.6461577 -0.56191945
1.0732051 -2.7510378 -0.55872947
1.1363037 -2.9127839 -0.56470585
1.1812787 -3.0280721 -0.55920315
1.2441229 -3.1891658 -0.55970097
1.3160973 -3.3736639 -0.56122041
1.3938622 -3.5730057 -0.56178206
1.4751743 -3.7814398 -0.56013674
1.5713962 -4.0280933 -0.56009477
1.6826108 -4.313179 -0.56065232
1.805241 -4.6275277 -0.55966628
1.9503397 -4.9994717 -0.55952442
2.1143391 -5.4198651 -0.55773789
2.3245749 -5.9587808 -0.55958968
2.5592391 -6.5603156 -0.5571481
2.86092 -7.3336391 -0.55703229
3.2424736 -8.3117085 -0.55684346
3.7305484 -9.5628319 -0.55506164
4.3971915 -11.271695 -0.55344331
5.3562508 -13.730133 -0.55145288
6.8460131 -17.548967 -0.54810113
9.4827747 -24.308002 -0.5422135
15.402589 -39.482765 -0.52837211
0.78992814 -1.953598 -0.56463695
0.81883395 -2.0250859 -0.56588358
0.84286743 -2.0845239 -0.56259364
0.87278348 -2.1585104 -0.56204212
0.90888155 -2.2477858 -0.56400502
0.93726099 -2.3179719 -0.55975306
0.98332477 -2.4318938 -0.56441128
1.0205015 -2.5238369 -0.56211871
1.0623308 -2.6272862 -0.56064361
1.1114309 -2.7487173 -0.56099147
1.163475 -2.8774295 -0.56058294
1.2229438 -3.0245037 -0.56127888
1.2829368 -3.1728745 -0.55956817
1.3568913 -3.3557739 -0.56097752
1.4372575 -3.5545304 -0.5616135
1.5262167 -3.7745385 -0.56185192
1.6199102 -4.0062547 -0.55978554
1.7362731 -4.2940359 -0.56089675
1.8641316 -4.6102471 -0.56030625
2.0097268 -4.9703231 -0.55898571
2.1801479 -5.3917975 -0.55756617
2.3849316 -5.8982553 -0.55661768
2.6459126 -6.5436959 -0.55845761
2.9503789 -7.2966819 -0.55693865
3.3407035 -8.2620068 -0.55622375
3.847522 -9.5154371 -0.55501485
4.52913 -11.201145 -0.55267197
5.5208173 -13.653721 -0.55106878
7.0543561 -17.446367 -0.54756451
9.7662048 -24.153133 -0.5413968
15.861202 -39.226879 -0.52751791
0.80836725 -1.9305507 -0.56080621
0.84051037 -2.0073152 -0.5637632
0.86972523 -2.0770864 -0.56343013
0.89176905 -2.1297319 -0.55736172
0.93142855 -2.224447 -0.56098038
0.9673965 -2.3103461 -0.56074172
1.0073153 -2.4056804 -0.56115979
1.0489209 -2.5050433 -0.56076318
1.0902892 -2.6038399 -0.55845898
1.1525831 -2.7526104 -0.56463593
1.2011826 -2.8686762 -0.56171274
1.2567471 -3.0013762 -0.55981243
1.3239439 -3.1618559 -0.56045365
1.3930387 -3.3268692 -0.55896682
1.4795699 -3.5335238 -0.56112659
1.5692621 -3.7477276 -0.560691
1.6691501 -3.9862809 -0.55982023
1.7921275 -4.2799768 -0.56189632
1.922927 -4.5923538 -0.56096286
2.067595 -4.9378514 -0.55815089
2.2504578 -5.3745661 -0.55860358
2.4684267 -5.8951211 -0.55914402
2.7185636 -6.4925008 -0.55689925
3.0355496 -7.2495298 -0.55614668
3.434526 -8.2023697 -0.55501002
3.9633856 -9.4653978 -0.55489677
4.6717639 -11.157153 -0.553294
5.6798763 -13.564738 -0.55025464
7.2623158 -17.343935 -0.54711103
10.052019 -24.006332 -0.54083598
16.31588 -38.965748 -0.5266645
0.83017898 -1.9161625 -0.55954963
0.85743815 -1.9790802 -0.55875218
0.89065611 -2.0557516 -0.56057125
0.92784953 -2.1415989 -0.5634107
0.96041781 -2.2167706 -0.56198031
1.0024039 -2.3136799 -0.56449986
1.0371994 -2.3939927 -0.56136602
1.07812 -2.4884429 -0.55997247
1.1301786 -2.6086009 -0.56241822
1.1795715 -2.7226064 -0.56141406
1.2320073 -2.8436351 -0.55973351
1.2962394 -2.9918911 -0.56097382
1.3657658 -3.1523674 -0.56170613
1.4376047 -3.3181808 -0.56043476
1.5174426 -3.5024574 -0.55911404
1.6085858 -3.7128279 -0.55838674
1.7171433 -3.963393 -0.55952889
1.8351969 -4.2358761 -0.55902696
1.9722372 -4.5521832 -0.55897611
2.1292391 -4.9145641 -0.55843592
2.3101711 -5.3321791 -0.55710846
2.5363643 -5.8542628 -0.55818462
2.7957714 -6.4530082 -0.55641848
3.1243536 -7.2114196 -0.55612826
3.5340774 -8.1571159 -0.55484647
4.0799756 -9.4171209 -0.55496579
4.8047471 -11.089989 -0.55285138
5.849369 -13.501114 -0.55054981
7.4756193 -17.254715 -0.5471549
10.337504 -23.860321 -0.54036939
16.752892 -38.667881 -0.52538306
0.85983533 -1.9195595 -0.56358653
0.8810184 -1.9668502 -0.55831569
0.91736966 -2.0480034 -0.56149197
0.95353264 -2.1287363 -0.56306881
0.98913866 -2.2082257 -0.56285495
1.0268707 -2.2924616 -0.56236118
1.058827 -2.3638031 -0.55729783
1.1090271 -2.4758737 -0.56017041
1.1596413 -2.5888684 -0.56119573
1.211835 -2.7053895 -0.56089419
1.2698773 -2.8349674 -0.56105858
1.3291333 -2.9672546 -0.55937666
1.3974406 -3.1197491 -0.55891365
1.4802811 -3.3046882 -0.5611878
1.5604188 -3.4835935 -0.55912346
1.6614535 -3.7091508 -0.56086385
1.7636049 -3.937201 -0.55885053
1.8900504 -4.2194872 -0.55988896
2.0329137 -4.5384259 -0.560314
2.1848495 -4.8776183 -0.55724841
2.3801086 -5.313529 -0.55817556
2.6088648 -5.8242211 -0.55833679
2.8739448 -6.4160051 -0.55623299
3.2175257 -7.1830411 -0.55694872
3.6398199 -8.1258011 -0.55571878
4.1934824 -9.3618383 -0.55470479
4.9412336 -11.031173 -0.55290645
6.0053897 -13.406873 -0.54967654
7.6710567 -17.125431 -0.54600513
10.62014 -23.709179 -0.53986317
17.196302 -38.390289 -0.52444482
0.87936467 -1.9001821 -0.56102961
0.90565425 -1.9569902 -0.55863577
0.94270551 -2.0370529 -0.56162536
0.97943765 -2.1164258 -0.56295568
1.013514 -2.1900601 -0.56135887
1.0502014 -2.269336 -0.5598138
1.0932347 -2.362325 -0.5600763
1.1409053 -2.4653342 -0.56091756
1.1928791 -2.5776422 -0.56189942
1.2507973 -2.7027955 -0.56350249
1.3072484 -2.8247781 -0.56218082
1.3674041 -2.954766 -0.56014979
1.4424217 -3.1168685 -0.56153274
1.5191213 -3.2826054 -0.56056756
1.6129616 -3.4853811 -0.5625512
1.7038639 -3.681808 -0.5598551
1.8122259 -3.9159629 -0.55895674
1.9390321 -4.1899729 -0.55909419
2.0825288 -4.5000491 -0.55869526
2.2488983 -4.8595495 -0.55830127
2.4476545 -5.2890344 -0.55872184
2.6812527 -5.7938066 -0.55853951
2.956847 -6.3893266 -0.55703008
3.2991033 -7.1288939 -0.55585378
3.7339656 -8.0685692 -0.55490291
4.2975597 -9.286417 -0.5533253
5.0722113 -10.960329 -0.55243999
