# .PCD v0.7 - Point Cloud Data file format
VERSION 0.7
FIELDS x y z
SIZE 4 4 4
TYPE F F F
COUNT 1 1 1
WIDTH 1456
HEIGHT 1
VIEWPOINT 0 0 0 1 0 0 0
POINTS 1456
DATA ascii
2.4779112 -2.3372526 -0.5569281
2.625819 -2.4767642 -0.55941075
2.7738881 -2.6164281 -0.55854416
2.9349086 -2.7683084 -0.55675727
3.1243293 -2.9469767 -0.55635649
3.3473117 -3.1573017 -0.55721998
3.5915267 -3.3876536 -0.5562802
3.8807311 -3.6604414 -0.55621529
4.2136264 -3.9744396 -0.5553056
4.6091161 -4.3474793 -0.55432481
5.073967 -4.785943 -0.55185884
5.6708183 -5.3489141 -0.55162114
6.4123445 -6.0483475 -0.55016643
7.3700695 -6.9517074 -0.54784876
8.6601334 -8.16854 -0.54455638
10.507846 -9.9113674 -0.54048258
13.355502 -12.597377 -0.53419983
18.303034 -17.264063 -0.52285177
29.124624 -27.471365 -0.49914539
1.5425545 -1.4195588 -0.56171048
1.5872344 -1.460676 -0.55880797
1.6565455 -1.5244606 -0.56328636
1.7010835 -1.5654474 -0.55805665
1.7712889 -1.6300548 -0.55995792
1.8403009 -1.6935642 -0.55990595
1.9192924 -1.7662574 -0.56121618
1.9924009 -1.8335365 -0.55908954
2.0896542 -1.9230353 -0.56181306
2.163902 -1.9913629 -0.55641866
2.2815247 -2.0996068 -0.56001318
2.387991 -2.1975842 -0.55833536
2.4962406 -2.2972023 -0.55465698
2.6487155 -2.4375198 -0.55786103
2.8037148 -2.5801601 -0.5581193
2.9636598 -2.7273519 -0.55580735
3.171313 -2.9184477 -0.55829042
3.3800175 -3.1105113 -0.55625528
3.6281028 -3.3388152 -0.55554438
3.9194946 -3.6069732 -0.55537212
4.2539668 -3.9147761 -0.55423611
4.6591311 -4.2876348 -0.55395728
5.1372576 -4.7276373 -0.55237794
5.7252326 -5.2687302 -0.55057061
6.4723134 -5.9562421 -0.5489862
7.4431076 -6.8496299 -0.54697573
8.7487526 -8.0511694 -0.54386246
10.626177 -9.7788963 -0.54034323
13.508196 -12.431118 -0.53415287
18.512085 -17.036022 -0.52279991
29.411657 -27.066515 -0.49832296
1.5574565 -1.3982981 -0.56083339
1.6052029 -1.4411652 -0.55885279
1.6599782 -1.490343 -0.55817991
1.7329954 -1.5558984 -0.56220663
1.7872736 -1.6046299 -0.55873126
1.8627259 -1.6723716 -0.56042969
1.9323256 -1.7348589 -0.55874705
2.0095603 -1.8042009 -0.5576371
2.1110699 -1.8953371 -0.56126243
2.201437 -1.9764694 -0.55977863
2.3087945 -2.0728557 -0.560408
2.4091334 -2.162941 -0.55701804
2.5366285 -2.2774074 -0.55736649
2.6726849 -2.3995597 -0.55665278
2.8306954 -2.5414231 -0.55722719
2.9956808 -2.6895485 -0.55556828
3.1996853 -2.8727055 -0.55702448
3.4077625 -3.0595191 -0.55458796
3.6719766 -3.2967327 -0.55601311
3.9588926 -3.5543284 -0.55471981
4.3067775 -3.8666627 -0.55488008
4.7104139 -4.2290511 -0.55382985
5.1987405 -4.6674747 -0.55277586
5.7871227 -5.1957297 -0.55033678
6.5521302 -5.8825603 -0.54957932
7.5328979 -6.7631021 -0.54742146
8.8532295 -7.9485068 -0.54424018
10.742085 -9.6443386 -0.54016602
13.640635 -12.246681 -0.53339475
18.69166 -16.781536 -0.52200413
29.70583 -26.670155 -0.49771306
1.5743622 -1.3788942 -0.56077307
1.6315088 -1.4289458 -0.56185138
1.6863168 -1.476949 -0.56088722
1.7466556 -1.5297962 -0.56049323
1.8119258 -1.5869626 -0.56029516
1.8853428 -1.6512644 -0.5610829
1.9536042 -1.7110507 -0.55877388
2.0395162 -1.7862962 -0.55981219
2.1251152 -1.8612673 -0.55886942
2.2190807 -1.9435664 -0.55814582
2.3279109 -2.0388846 -0.55892038
2.4355924 -2.1331968 -0.55702877
2.5651228 -2.246645 -0.55751514
2.7051837 -2.3693166 -0.55731148
2.8621967 -2.5068352 -0.55731821
3.0440366 -2.6660984 -0.55841398
3.23508 -2.8334227 -0.55707872
3.4569867 -3.0277779 -0.55649769
3.7234511 -3.2611589 -0.55769318
3.9981625 -3.5017631 -0.55414695
4.3457294 -3.8061771 -0.55382675
4.7498126 -4.1600904 -0.55240589
5.2445636 -4.5934148 -0.55160075
5.8501139 -5.1237817 -0.55029386
6.6144762 -5.7932434 -0.54879206
7.6162806 -6.6706667 -0.54747862
8.9432211 -7.8328581 -0.54381025
10.856469 -9.508563 -0.53999758
13.795707 -12.082874 -0.53360838
18.898954 -16.552519 -0.52206963
29.991632 -26.267963 -0.49705219
1.5870284 -1.3558706 -0.55930376
1.6413999 -1.4023225 -0.55927706
1.7038336 -1.4556626 -0.56071752
1.7674475 -1.5100108 -0.56116456
1.8259771 -1.5600153 -0.55866617
1.8993007 -1.622659 -0.55925649
1.9892423 -1.6995002 -0.56294733
2.0540493 -1.7548677 -0.55783606
2.1503582 -1.8371488 -0.55952471
2.2465227 -1.9193065 -0.55906975
2.3550773 -2.0120497 -0.5594604
2.4739704 -2.1136255 -0.55981952
2.5917425 -2.2142434 -0.55734092
2.7498708 -2.3493397 -0.56052381
2.8962557 -2.4744031 -0.55798334
3.059778 -2.6141076 -0.555363
3.2562263 -2.7819424 -0.55478758
3.4799592 -2.9730875 -0.55426878
3.7527931 -3.206182 -0.55614096
4.0384526 -3.4502337 -0.55380905
4.3955674 -3.7553332 -0.55425137
4.8042445 -4.1044846 -0.5528248
5.3005896 -4.5285349 -0.55159497
5.9058323 -5.0456214 -0.5496574
6.696631 -5.7212367 -0.54972988
7.6961408 -6.5751629 -0.54736602
9.037035 -7.7207503 -0.54370081
10.959214 -9.3629551 -0.53934067
13.931386 -11.902217 -0.53315514
19.081852 -16.302496 -0.52154499
30.280809 -25.870274 -0.49653509
1.6121827 -1.3434237 -0.56230444
1.6560626 -1.3799886 -0.55844903
1.7226553 -1.4354799 -0.56106025
1.7863201 -1.4885314 -0.56130272
1.8517444 -1.5430492 -0.56070226
1.9184881 -1.5986663 -0.55907565
1.9959104 -1.663182 -0.55900449
2.0846353 -1.737116 -0.56029922
2.1826558 -1.818796 -0.56206679
2.2673788 -1.8893952 -0.55843604
2.3760631 -1.9799612 -0.5586198
2.5026488 -2.0854445 -0.56046391
2.613523 -2.1778355 -0.55622387
2.7669153 -2.3056564 -0.55817688
2.9234381 -2.4360859 -0.55740696
3.1022756 -2.5851104 -0.55726475
3.2977667 -2.7480123 -0.55606586
3.52057 -2.9336731 -0.55494946
3.7897582 -3.1579862 -0.55582225
4.0912313 -3.4092021 -0.55525607
4.429615 -3.6911755 -0.55277956
4.8601837 -4.0499663 -0.55348933
5.3580713 -4.4648533 -0.55182165
5.9701495 -4.9748955 -0.5499084
6.7630415 -5.6356082 -0.54945129
7.7653289 -6.470809 -0.54658645
9.1290092 -7.6071572 -0.54356551
11.067373 -9.2223854 -0.53904188
14.069771 -11.724268 -0.53289354
19.262184 -16.051081 -0.52103984
30.557346 -25.463282 -0.49589792
1.6196866 -1.3162729 -0.55923414
1.6752304 -1.3614117 -0.55922526
1.7453949 -1.4184324 -0.56274319
1.7994025 -1.4623227 -0.55972099
1.8713802 -1.520817 -0.56094295
1.9381306 -1.5750632 -0.5591135
2.0158384 -1.638214 -0.55890167
2.1021154 -1.708329 -0.55930918
2.1921325 -1.7814832 -0.55882376
2.2804856 -1.8532853 -0.55600941
2.4059727 -1.955265 -0.55995679
2.5104158 -2.040143 -0.55654311
2.641181 -2.1464119 -0.5564509
2.7887864 -2.2663667 -0.55692494
2.9447799 -2.3931382 -0.55582333
3.1335392 -2.5465374 -0.55721366
3.3191745 -2.6973979 -0.55404091
3.5638366 -2.8962278 -0.55611378
3.8302321 -3.1127198 -0.55610263
4.1290355 -3.3555489 -0.5547449
4.4840236 -3.6440372 -0.55393565
4.9032083 -3.9846969 -0.55276734
5.4070334 -4.3941407 -0.55125779
6.0322366 -4.902226 -0.55003327
6.8252316 -5.54667 -0.54892117
7.8405266 -6.3717713 -0.54632324
9.2148418 -7.4886374 -0.54315215
11.175675 -9.0821514 -0.53883672
14.192818 -11.534097 -0.53214198
19.439198 -15.797679 -0.5205341
30.83235 -25.056566 -0.49532324
1.6461389 -1.3044924 -0.56278646
1.6980205 -1.3456063 -0.56126714
1.7617484 -1.3961078 -0.56243837
1.8177363 -1.4404757 -0.55987185
1.8834788 -1.4925737 -0.55902582
1.9509411 -1.5460347 -0.55728269
2.0439739 -1.6197591 -0.5611378
2.1334829 -1.6906911 -0.56208116
2.2196522 -1.7589763 -0.56028306
2.3031175 -1.825119 -0.55601358
2.4250886 -1.9217758 -0.5588637
2.543793 -2.0158436 -0.55840516
2.6743989 -2.119343 -0.55791676
2.8213773 -2.235817 -0.55790085
2.9787073 -2.3604941 -0.55670643
3.1585002 -2.5029721 -0.55613732
3.3637497 -2.6656232 -0.55596811
3.606555 -2.8580358 -0.55725366
3.8697429 -3.0666003 -0.55632228
4.1612468 -3.2976043 -0.55358285
4.5263162 -3.5869057 -0.55366969
4.9530587 -3.9250803 -0.55290431
5.4677453 -4.3329468 -0.55197376
6.091485 -4.8272333 -0.54998171
6.8893313 -5.4594913 -0.54863578
7.9195952 -6.2759295 -0.54641408
9.3159523 -7.3824806 -0.54372007
11.291356 -8.9479017 -0.53906852
14.331837 -11.357348 -0.53207791
19.619909 -15.547912 -0.52021432
31.097635 -24.643503 -0.49467951
1.6477474 -1.2730999 -0.55794209
1.7075592 -1.3193125 -0.55901551
1.7686402 -1.3665055 -0.55923188
1.8418216 -1.4230475 -0.56185818
1.9080459 -1.4742146 -0.56089473
1.9732584 -1.5245997 -0.55826026
2.054374 -1.587272 -0.55859244
2.1441736 -1.6566541 -0.55948853
2.2228491 -1.7174411 -0.55571729
2.3383229 -1.8066597 -0.55910724
2.4505296 -1.8933541 -0.55931902
2.5717328 -1.9869993 -0.55913264
2.700624 -2.0865846 -0.55799294
2.8418798 -2.1957233 -0.55657405
3.0112097 -2.3265526 -0.55739206
3.1933088 -2.467248 -0.55688232
3.400471 -2.6273077 -0.5566557
3.6216211 -2.7981751 -0.55422324
3.8988237 -3.0123503 -0.55513591
4.2131042 -3.255173 -0.55511475
4.569056 -3.5301921 -0.55354601
4.9986181 -3.8620849 -0.55264699
5.5146646 -4.2607985 -0.55137956
6.158843 -4.7585101 -0.55073863
6.9507456 -5.3703585 -0.54822624
7.9860368 -6.1702557 -0.54572219
9.3928547 -7.2572064 -0.54295909
11.38744 -8.7982836 -0.53844994
14.462688 -11.174315 -0.53179443
19.794367 -15.293733 -0.51981437
31.36801 -24.235882 -0.49420244
1.6674651 -1.2558987 -0.55934727
1.7206373 -1.2959468 -0.55803782
1.7869716 -1.3459084 -0.55975282
1.8446672 -1.3893635 -0.55747247
1.9216925 -1.4473773 -0.55963218
1.9909406 -1.4995334 -0.55800396
2.0745575 -1.5625119 -0.55881399
2.1595681 -1.6265401 -0.55824435
2.2584574 -1.7010213 -0.55934799
2.3562765 -1.7746966 -0.55813998
2.4707778 -1.8609364 -0.55867541
2.5889571 -1.9499466 -0.55762225
2.7319632 -2.0576558 -0.55919808
2.8664737 -2.1589661 -0.55614936
3.043793 -2.2925191 -0.55816311
3.227289 -2.4307244 -0.55755353
3.4391806 -2.5903168 -0.55773622
3.6678498 -2.7625453 -0.55605721
3.939394 -2.9670665 -0.55567569
4.2417626 -3.194804 -0.55367273
4.6102204 -3.4723184 -0.5533185
5.0439262 -3.7989764 -0.55244988
5.5702543 -4.1953955 -0.5517379
6.2049074 -4.6734023 -0.54967749
7.0137463 -5.2826023 -0.5480305
8.0533676 -6.0656228 -0.54518521
9.4814949 -7.1412573 -0.54296589
11.488146 -8.6526241 -0.53814018
14.587435 -10.98694 -0.5313735
19.964521 -15.036847 -0.5193879
31.616749 -23.813053 -0.4934707
1.6819336 -1.2346793 -0.55906558
1.7410747 -1.2780938 -0.55952674
1.802395 -1.323108 -0.55944544
1.8605853 -1.3658246 -0.55716538
1.9369386 -1.4218743 -0.55893821
2.0185869 -1.4818109 -0.56060326
2.0921872 -1.5358396 -0.55843347
2.1767554 -1.5979198 -0.55756593
2.2783651 -1.6725097 -0.55914265
2.3890455 -1.7537583 -0.5607515
2.4970365 -1.8330327 -0.55947405
2.6246474 -1.9267098 -0.56016421
2.7570367 -2.0238945 -0.55919403
2.8948071 -2.1250296 -0.55653471
3.0694294 -2.2532167 -0.55774134
3.2527158 -2.3877642 -0.55683178
3.4539633 -2.5354967 -0.55503541
3.6928298 -2.7108445 -0.55474883
3.9717424 -2.9155898 -0.5551396
4.2824554 -3.1436791 -0.55389673
4.645328 -3.4100575 -0.55245775
5.0881057 -3.7350934 -0.55221653
5.6267071 -4.1304717 -0.552257
6.2845402 -4.6133757 -0.55166483
7.0776782 -5.1956053 -0.54799247
8.1310177 -5.9688444 -0.54543197
9.568738 -7.0242505 -0.54297465
11.599657 -8.5151138 -0.53841823
14.72939 -10.812599 -0.53166109
20.129669 -14.776854 -0.51891798
31.882898 -23.404703 -0.49309558
1.697803 -1.2144891 -0.55933428
1.7583705 -1.2578148 -0.56007224
1.8166553 -1.2995076 -0.55886966
1.8680878 -1.3362988 -0.5544495
1.9546088 -1.3981899 -0.55903369
2.031564 -1.4532384 -0.55920219
2.117594 -1.514778 -0.56020093
2.2028477 -1.5757626 -0.55924392
2.2841792 -1.6339413 -0.55559671
2.4081702 -1.7226359 -0.5602262
2.5087359 -1.7945735 -0.557109
2.6418447 -1.8897902 -0.55883276
2.7714677 -1.9825134 -0.55713439
2.9258971 -2.0929813 -0.55752182
3.0947587 -2.213773 -0.55735534
3.2793174 -2.3457932 -0.55640566
3.4810598 -2.4901059 -0.55442739
3.7331009 -2.6703982 -0.55582368
4.0086803 -2.8675284 -0.55533206
4.3281155 -3.0960298 -0.55483645
4.6864858 -3.3523829 -0.55240828
5.1379528 -3.6753306 -0.55267978
5.6729569 -4.0580349 -0.55185705
6.3177233 -4.5192556 -0.54965806
7.1474013 -5.1127491 -0.54848176
8.2062206 -5.8701539 -0.54559332
9.6506968 -6.9034305 -0.54276735
11.698828 -8.3685198 -0.53820431
14.829994 -10.608336 -0.53054386
20.30402 -14.524071 -0.51876938
32.132607 -22.985409 -0.492549
1.7147889 -1.1950421 -0.56004667
1.779977 -1.2404718 -0.56205332
1.8367531 -1.2800394 -0.56016797
1.9033529 -1.326453 -0.56003284
1.971969 -1.3742718 -0.5591234
2.0443006 -1.4246799 -0.55784374
2.1368949 -1.4892092 -0.56042016
2.2155051 -1.5439929 -0.55759519
2.3186355 -1.6158649 -0.55910254
2.4134955 -1.6819731 -0.55661154
2.5428691 -1.7721339 -0.55980748
2.6651917 -1.8573809 -0.55889791
2.8033655 -1.9536747 -0.55867511
2.9583228 -2.0616651 -0.55882758
3.1333091 -2.1836135 -0.55942011
3.3130019 -2.3088422 -0.55726177
3.526212 -2.4574289 -0.55676389
3.7599821 -2.6203442 -0.55498672
4.0373106 -2.8136151 -0.55446345
4.3567839 -3.0362573 -0.55368358
4.735116 -3.2999182 -0.5533157
5.1770005 -3.6078689 -0.55206621
5.7073064 -3.9774408 -0.55039918
6.3757701 -4.4432955 -0.54991317
7.1990485 -5.0170407 -0.54766953
8.276433 -5.7678733 -0.54550475
9.731184 -6.7816944 -0.54256308
11.774538 -8.2057142 -0.53700477
14.959189 -10.425109 -0.53053969
20.474274 -14.26859 -0.5185973
32.375912 -22.56288 -0.49198851
1.7298347 -1.1741945 -0.56020272
1.7932981 -1.2172729 -0.56149083
1.8457606 -1.2528838 -0.55817431
1.9221467 -1.304734 -0.56079972
1.987787 -1.34929 -0.55886185
2.0737636 -1.40765 -0.56111783
2.1493344 -1.4589468 -0.5589354
2.2410538 -1.5212049 -0.55927521
2.3353209 -1.5851926 -0.55838352
2.4286997 -1.6485771 -0.55540085
2.5491612 -1.7303452 -0.55646652
2.6771376 -1.8172143 -0.55667508
2.8051994 -1.9041413 -0.55433255
2.9620128 -2.0105846 -0.55481249
3.1381586 -2.1301506 -0.55556738
3.332001 -2.2617288 -0.55573744
3.5529466 -2.4117045 -0.55626065
3.7957749 -2.576534 -0.55555141
4.0774045 -2.7677014 -0.55525386
4.3978634 -2.9852257 -0.55419725
4.7736201 -3.2402856 -0.55311728
5.2176318 -3.5416763 -0.55171323
5.7666245 -3.9143271 -0.55143625
6.4220476 -4.3592215 -0.54923981
7.2583685 -4.926908 -0.54753202
8.3483381 -5.6667686 -0.54561013
9.8025999 -6.6539068 -0.54194206
11.887878 -8.0693731 -0.53760791
15.079188 -10.235602 -0.53029162
20.620409 -13.996927 -0.51790017
32.619358 -22.141695 -0.49151349
1.7457078 -1.1538719 -0.56070584
1.8023826 -1.1913326 -0.55970615
1.8673606 -1.2342815 -0.56007427
1.921375 -1.2699839 -0.55597633
1.9901921 -1.3154702 -0.55494833
2.0781519 -1.3736097 -0.55769283
2.1610506 -1.4284037 -0.55737245
2.2590539 -1.4931816 -0.55914289
2.3553007 -1.5567986 -0.55854136
2.4611866 -1.6267866 -0.55821335
2.5760009 -1.7026763 -0.55771291
2.7079124 -1.7898667 -0.55845565
2.8564112 -1.8880209 -0.5598225
2.9906802 -1.9767694 -0.55558717
3.1657467 -2.0924842 -0.55585426
3.3649948 -2.2241826 -0.55663681
3.5834458 -2.3685737 -0.55643374
3.8225682 -2.5266278 -0.55488372
4.1002078 -2.7101414 -0.55377918
4.4226942 -2.9232972 -0.55275476
4.802896 -3.1746016 -0.55194455
5.265079 -3.4800937 -0.5521636
5.8192301 -3.8463745 -0.55190212
6.4834914 -4.2854357 -0.54994643
7.3298101 -4.8448324 -0.54838574
8.4074583 -5.5571327 -0.54496676
9.8935471 -6.5394025 -0.54248351
11.974382 -7.9147854 -0.53707802
15.195853 -10.044103 -0.53001094
20.787041 -13.739746 -0.51780277
32.844334 -21.709333 -0.49084389
1.763274 -1.1345792 -0.56182444
1.8179274 -1.1697459 -0.56002438
1.8867035 -1.214 -0.56135601
1.9487433 -1.2539196 -0.55939186
2.0166035 -1.2975842 -0.55782163
2.0888622 -1.344079 -0.5560897
2.1834605 -1.4049484 -0.55865437
2.2725053 -1.4622443 -0.5579797
2.3676801 -1.5234845 -0.55699241
2.4783654 -1.594705 -0.55761993
2.579591 -1.6598387 -0.55402941
2.7311339 -1.757349 -0.55874586
2.8721526 -1.8480874 -0.55841154
3.0185311 -1.9422747 -0.55628222
3.2058945 -2.0628338 -0.5584076
3.3743227 -2.1712091 -0.55372155
3.6082742 -2.3217452 -0.55581391
3.8455346 -2.4744105 -0.55375898
4.1382651 -2.6627679 -0.55445504
4.4607158 -2.870249 -0.55305386
4.8421593 -3.1156888 -0.55201215
5.3070035 -3.4147933 -0.55211502
5.8510351 -3.7648504 -0.55048639
6.5324697 -4.2033195 -0.54967517
7.3760319 -4.74611 -0.54743618
8.4842329 -5.4591823 -0.54555076
9.95292 -6.4042096 -0.54138011
12.078962 -7.772212 -0.53744149
15.31913 -9.8570986 -0.53004307
20.946646 -13.478126 -0.51761097
33.070896 -21.279478 -0.49028227
1.7789855 -1.1139994 -0.56242341
1.832216 -1.1473323 -0.56003761
1.9022048 -1.1911591 -0.56156766
1.9656419 -1.2308835 -0.55985552
2.0398693 -1.2773646 -0.55987018
2.1105077 -1.3215983 -0.55748367
2.2022543 -1.37905 -0.55908191
2.2876782 -1.4325424 -0.55733794
2.3862851 -1.4942899 -0.55700451
2.4899144 -1.5591825 -0.55586267
2.613328 -1.636464 -0.55691129
2.7525201 -1.723626 -0.55874282
2.8994327 -1.8156226 -0.55933249
3.0439613 -1.9061263 -0.55660719
3.2229538 -2.0182114 -0.55701423
3.4090149 -2.1347225 -0.55506498
3.634397 -2.2758567 -0.55548507
3.8738201 -2.4257832 -0.55349493
4.1628628 -2.6067815 -0.55341417
4.5072041 -2.822408 -0.5544728
4.8810697 -3.0565221 -0.55212158
5.3395748 -3.3436377 -0.55118448
5.905724 -3.6981599 -0.55131161
6.5747895 -4.1171284 -0.5489347
7.4384131 -4.6579285 -0.54777366
8.5406628 -5.3481565 -0.54490942
10.037567 -6.2855172 -0.5417394
12.164053 -7.6171207 -0.53701943
15.431811 -9.6633883 -0.5297904
21.097895 -13.211486 -0.517295
33.306717 -20.856642 -0.48993924
1.7748154 -1.0812386 -0.55685961
1.842066 -1.1222084 -0.55878824
1.9093478 -1.1631973 -0.55941159
1.9794201 -1.2058861 -0.55951422
2.0448656 -1.2457563 -0.55699503
2.1320772 -1.2988867 -0.55892009
2.2209046 -1.3530012 -0.5595507
2.2973812 -1.3995917 -0.55546701
2.4043558 -1.464762 -0.55697626
2.5208023 -1.5357026 -0.55850035
2.6403494 -1.6085321 -0.55841237
2.7742372 -1.6900982 -0.55889034
2.908617 -1.7719638 -0.55685884
3.0649366 -1.8671957 -0.55620223
3.2410765 -1.9745022 -0.5559082
3.4433951 -2.0977571 -0.5564208
3.664906 -2.2327039 -0.55590993
3.9188166 -2.3873894 -0.55568755
4.1984096 -2.5577209 -0.55391681
4.5362058 -2.7635102 -0.55381835
4.9191995 -2.9968343 -0.55222452
5.3823547 -3.2789941 -0.55139673
5.933918 -3.6150131 -0.54975235
6.6237063 -4.0352402 -0.54883462
7.4761472 -4.5545573 -0.5463869
8.6075983 -5.2438507 -0.54502487
10.112064 -6.1603889 -0.54163074
12.247313 -7.4612083 -0.53660423
15.53346 -9.4631672 -0.5292452
21.237459 -12.938111 -0.5167771
33.535656 -20.430319 -0.48957446
1.8070525 -1.0706371 -0.56280106
1.855811 -1.0995253 -0.55881417
1.9278858 -1.142228 -0.56068546
1.9883327 -1.1780415 -0.55789673
2.064326 -1.2230657 -0.55815709
2.1309712 -1.2625514 -0.5545184
2.2328997 -1.3229418 -0.55843204
2.3141847 -1.3711013 -0.55541146
2.4251621 -1.4368528 -0.55766106
2.5217502 -1.4940791 -0.55459803
2.656723 -1.5740473 -0.55773968
2.7827275 -1.6487021 -0.55647457
2.9290323 -1.7353843 -0.55663991
3.0826979 -1.8264276 -0.55530781
3.2767503 -1.9413993 -0.55789018
3.4563327 -2.0477977 -0.5544005
3.6933055 -2.1881986 -0.55609429
3.9400868 -2.3344109 -0.55459136
4.2302661 -2.5063355 -0.55401176
4.5819397 -2.714694 -0.5552845
4.962935 -2.9404249 -0.55303353
5.4186196 -3.2104075 -0.55102605
5.9817371 -3.5440416 -0.55010355
6.6747732 -3.9546497 -0.54899514
7.5589161 -4.4784837 -0.54836977
8.6601086 -5.1309152 -0.54431367
10.174984 -6.0284443 -0.54098946
12.337294 -7.3095632 -0.53656799
15.651165 -9.2729559 -0.52933061
21.38233 -12.668539 -0.51647264
33.749004 -19.995508 -0.48906264
1.8147495 -1.0452671 -0.56115276
1.8691772 -1.0766168 -0.55881035
1.9338439 -1.1138637 -0.5583927
1.9997331 -1.1518148 -0.55707937
2.0892656 -1.203384 -0.56085688
2.1657422 -1.2474334 -0.55953264
2.2492864 -1.2955536 -0.55850387
2.3408768 -1.3483083 -0.55779636
2.4507849 -1.4116136 -0.55951923
2.5517073 -1.4697433 -0.55716956
2.6814859 -1.5444938 -0.55890894
2.8064148 -1.6164509 -0.55719447
2.9424689 -1.6948159 -0.55519092
3.1113133 -1.7920676 -0.55645096
3.2887709 -1.8942803 -0.55592895
3.4833553 -2.0063579 -0.55473572
3.7190349 -2.1421056 -0.55596024
3.9755628 -2.2898617 -0.55557954
4.2607384 -2.4541185 -0.5540086
4.5923305 -2.6451101 -0.55256015
4.995729 -2.8774614 -0.55270326
5.4665031 -3.1486199 -0.55191648
6.0208688 -3.4679258 -0.54973906
6.7331319 -3.8781781 -0.54983127
7.5873818 -4.370213 -0.54649508
8.726203 -5.0261559 -0.54454219
10.252772 -5.9054356 -0.54122359
12.434926 -7.1623216 -0.5369432
15.747406 -9.0702581 -0.52877349
21.518467 -12.394299 -0.51604062
33.964821 -19.563204 -0.48866716
1.8374633 -1.0284715 -0.56422305
1.8850725 -1.0551194 -0.5596413
1.950338 -1.09165 -0.55923706
2.0184388 -1.1297677 -0.5583781
2.1017756 -1.1764133 -0.56028956
2.1717389 -1.2155734 -0.55717808
2.2693143 -1.2701886 -0.55955637
2.3771634 -1.3305542 -0.56250173
2.4509239 -1.3718398 -0.5556578
2.5681217 -1.4374381 -0.5568521
2.6836107 -1.5020801 -0.55546004
2.82653 -1.5820754 -0.55728358
2.9660122 -1.6601468 -0.55573934
3.1352994 -1.7549008 -0.55683935
3.312465 -1.8540646 -0.55603832
3.5244052 -1.9726925 -0.55736792
3.7469196 -2.097239 -0.55623156
3.9875255 -2.2319119 -0.55337411
4.3011994 -2.4074824 -0.55537832
4.637445 -2.5956869 -0.55410612
5.0277181 -2.8141322 -0.55237222
5.4986076 -3.0777001 -0.55129528
6.0616941 -3.3928728 -0.5496158
6.764905 -3.7864764 -0.54858226
7.6445856 -4.2788544 -0.54678428
8.7895021 -4.9196911 -0.54467595
10.323905 -5.7785325 -0.54118669
12.499917 -6.9964981 -0.53599411
15.861029 -8.8777914 -0.52888316
21.657154 -12.122019 -0.51575291
34.177452 -19.129925 -0.48830509
1.8399378 -1.0003467 -0.56116331
1.8944856 -1.0300035 -0.55863357
1.9709306 -1.0715655 -0.56132108
2.0282857 -1.1027486 -0.55730879
2.11149 -1.1479856 -0.55907387
2.188468 -1.1898375 -0.55767429
2.2813377 -1.2403293 -0.55871814
2.3702245 -1.2886558 -0.55706817
2.4820569 -1.3494573 -0.55891186
2.59953 -1.4133257 -0.55985183
2.7235017 -1.4807272 -0.55990577
2.8373256 -1.5426116 -0.55563015
2.9824908 -1.6215358 -0.555049
3.1568127 -1.7163119 -0.5568698
3.3350031 -1.8131914 -0.55603695
3.5387762 -1.9239798 -0.55585718
3.7628016 -2.0457792 -0.55481291
4.0270987 -2.1894734 -0.55508775
4.3211131 -2.3493247 -0.55417764
4.6602883 -2.5337293 -0.55307114
5.0590358 -2.7505221 -0.55205536
5.5251846 -3.0039604 -0.55021483
6.1134501 -3.3237915 -0.55056113
6.8010044 -3.6976047 -0.54778117
7.6917958 -4.1819148 -0.54644167
8.8394499 -4.8058772 -0.54406798
10.393852 -5.6509824 -0.54116994
12.582339 -6.8408303 -0.53588086
15.956588 -8.6753588 -0.52847248
21.790556 -11.8472 -0.51542163
34.386036 -18.695173 -0.48796386
1.8457917 -0.97431892 -0.55925244
1.9035836 -1.004825 -0.55763078
1.976917 -1.0435348 -0.55932927
2.0430181 -1.0784267 -0.55767095
2.1254511 -1.1219399 -0.55907536
2.2109785 -1.1670864 -0.55971122
2.2915716 -1.2096282 -0.55753952
2.4032371 -1.2685719 -0.56111836
2.4775777 -1.3078133 -0.55424005
2.6059873 -1.3755955 -0.55755746
2.7256539 -1.4387628 -0.556669
2.8632321 -1.5113847 -0.55702192
3.0162749 -1.5921699 -0.55765063
3.1849017 -1.6811811 -0.55813587
3.3494985 -1.7680651 -0.55478698
3.5789816 -1.8892 -0.55848128
3.7831352 -1.9969645 -0.5541485
4.0547404 -2.1403337 -0.55522811
4.3530726 -2.2978115 -0.55461079
4.6961246 -2.4788947 -0.55366468
5.0864401 -2.6849263 -0.55140144
5.5770121 -2.9438796 -0.55172944
6.158648 -3.2509017 -0.55098987
6.8713326 -3.6270993 -0.54981184
7.7397079 -4.0854793 -0.5462352
8.8955708 -4.6956129 -0.54392719
10.45179 -5.5170779 -0.54061341
12.672246 -6.689167 -0.53616631
16.045233 -8.4696312 -0.52791917
21.927055 -11.574408 -0.5152449
34.585625 -18.256355 -0.48757365
1.85348 -0.94942355 -0.55800247
1.9264345 -0.98679364 -0.56072772
1.9835203 -1.0160351 -0.55762053
2.0614157 -1.0559362 -0.55910641
2.1432583 -1.097859 -0.560166
2.2247779 -1.1396165 -0.55961472
2.317678 -1.1872035 -0.56029707
2.3998797 -1.2293104 -0.55676299
2.51407 -1.2878031 -0.55881882
2.6218803 -1.3430276 -0.55738235
2.7444639 -1.4058197 -0.55693805
2.8831265 -1.4768479 -0.55731714
3.0322187 -1.5532186 -0.55702513
3.192543 -1.635343 -0.55590898
3.3828642 -1.7328328 -0.55674207
3.5802116 -1.8339217 -0.55511236
3.8265169 -1.9600886 -0.55693042
4.0813756 -2.0906372 -0.55531323
4.3866119 -2.2469907 -0.55532169
4.7084904 -2.4118693 -0.55158436
5.1380224 -2.6318922 -0.55344307
5.6033382 -2.8702447 -0.55080062
6.1936221 -3.1726105 -0.550587
6.8972788 -3.5330508 -0.54837024
7.7924175 -3.991575 -0.5464499
8.9608355 -4.5900836 -0.54442555
10.516191 -5.3867965 -0.54047757
12.748317 -6.5301766 -0.53594697
16.154587 -8.2749987 -0.52812934
22.051851 -11.295804 -0.51487458
34.762608 -17.80674 -0.48694509
1.8684169 -0.92825305 -0.55902076
1.9384801 -0.96306127 -0.56074452
2.0167665 -1.0019549 -0.56346071
2.0757403 -1.0312539 -0.55950993
2.1550047 -1.0706334 -0.55975294
2.2338479 -1.1098038 -0.55842131
2.3275955 -1.1563786 -0.55921477
2.4135454 -1.1990796 -0.55647069
2.5317769 -1.2578186 -0.55927444
2.6413436 -1.3122526 -0.55804747
2.7596025 -1.3710053 -0.55654693
2.8990827 -1.4403007 -0.55693591
3.0440776 -1.512336 -0.55574542
3.2188005 -1.5991406 -0.557015
3.4039032 -1.6911019 -0.55674022
3.6022341 -1.7896353 -0.5550729
3.8336735 -1.9046172 -0.55452144
4.0942235 -2.0340617 -0.55361629
4.3947954 -2.1833897 -0.55291706
4.7583175 -2.363992 -0.55397427
5.1577406 -2.5624304 -0.55213135
5.6375942 -2.8008277 -0.55074084
6.2180877 -3.0892241 -0.54934353
6.9436235 -3.4496794 -0.54864091
7.841773 -3.8958914 -0.54651022
9.0120525 -4.4773011 -0.54415125
10.580417 -5.256484 -0.54041559
12.809336 -6.3638391 -0.53518194
16.237999 -8.0672426 -0.52757341
22.185917 -11.022243 -0.51480138
34.957855 -17.367502 -0.48665178
1.8856905 -0.90809977 -0.56080556
1.9415959 -0.93502241 -0.55827779
2.0140669 -0.9699226 -0.55933207
2.0923083 -1.0076016 -0.56059372
2.1615081 -1.0409265 -0.55807525
2.2521229 -1.0845642 -0.55961359
2.3392658 -1.1265301 -0.55864835
2.427979 -1.1692519 -0.55644149
2.5516083 -1.2287886 -0.56027514
2.6606202 -1.2812859 -0.5587492
2.7814326 -1.339466 -0.5575856
2.9136164 -1.4031223 -0.55637139
3.0817339 -1.4840834 -0.55924624
3.2356136 -1.5581878 -0.55656677
3.412256 -1.6432543 -0.55475956
3.6337516 -1.7499208 -0.55657166
3.8682935 -1.8628701 -0.55617362
4.1361451 -1.9918606 -0.55593103
4.4323211 -2.1344912 -0.55429417
4.7592578 -2.2919357 -0.55076098
5.1902294 -2.4994805 -0.55227733
5.6817865 -2.7362015 -0.5517295
6.2618561 -3.0155482 -0.54989278
6.9831328 -3.3628962 -0.54845387
7.8811655 -3.7953656 -0.5459618
9.0536661 -4.3600116 -0.54338568
10.649077 -5.1283202 -0.5406608
12.884818 -6.2049956 -0.53510737
16.339443 -7.8686538 -0.52768576
22.314362 -10.74602 -0.51467675
35.141731 -16.923349 -0.48627785
1.9030917 -0.88782108 -0.56269139
1.9560443 -0.91252428 -0.55916351
2.0267282 -0.9454993 -0.55957711
2.1029778 -0.981071 -0.5601778
2.1731107 -1.0137889 -0.55781019
2.258388 -1.0535722 -0.55790907
2.3476491 -1.0952138 -0.55739206
2.4494498 -1.1427053 -0.55809969
2.5588291 -1.1937325 -0.5585953
2.6754072 -1.2481179 -0.55858928
2.797509 -1.3050803 -0.55754918
2.9381773 -1.3707042 -0.55780077
3.0889044 -1.4410207 -0.55728984
3.2612212 -1.521409 -0.55771142
3.4426231 -1.6060358 -0.55644381
3.6500082 -1.7027841 -0.5558126
3.8856812 -1.8127291 -0.55542678
4.1524081 -1.9371612 -0.55487329
4.453445 -2.0775993 -0.55369914
4.8131428 -2.2454038 -0.55375969
5.2029257 -2.4272435 -0.55041081
5.7021232 -2.6601269 -0.55048633
6.3128066 -2.9450197 -0.55114526
7.0263 -3.2778752 -0.54863703
7.9289241 -3.6989632 -0.54607809
9.1131659 -4.2514296 -0.543778
10.703236 -4.9932218 -0.54025233
12.961368 -6.0466743 -0.53515816
16.422939 -7.66155 -0.52729994
22.423742 -10.461015 -0.51419377
35.308144 -16.471785 -0.48574114
1.8999782 -0.85808319 -0.55860883
1.9689726 -0.88924295 -0.55969113
2.0430145 -0.92268234 -0.56089884
2.1193032 -0.95713651 -0.56134897
2.1752288 -0.98239404 -0.55521113
2.2736554 -1.0268463 -0.55851918
2.3656309 -1.0683849 -0.55850005
2.4654322 -1.1134579 -0.55857944
2.5635753 -1.1577822 -0.55648148
2.6792867 -1.2100407 -0.55625063
2.8067057 -1.2675866 -0.55623358
2.9573522 -1.3356228 -0.55828089
3.119113 -1.4086785 -0.55957252
3.2774489 -1.4801874 -0.55733186
3.4633992 -1.5641677 -0.556651
3.6616924 -1.6537225 -0.55445337
3.9126077 -1.7670429 -0.55612779
4.18325 -1.8892725 -0.55584824
4.4794273 -2.0230343 -0.5537948
4.8336067 -2.1829917 -0.552984
5.2390475 -2.3661001 -0.55111253
5.7430053 -2.5937014 -0.55131245
6.3322783 -2.8598337 -0.54973352
7.0431004 -3.1808608 -0.54685348
7.9608226 -3.5953295 -0.54518896
9.1563597 -4.1352677 -0.54328012
10.763738 -4.8612041 -0.54024816
13.037333 -5.8880234 -0.53526485
16.512228 -7.4573827 -0.52718264
22.539824 -10.179613 -0.51394647
35.482189 -16.024746 -0.48538798
1.9256648 -0.84133279 -0.56307673
1.9698755 -0.86064869 -0.55689746
2.0470667 -0.89437395 -0.55894977
2.13467 -0.9326483 -0.56233913
2.1991048 -0.96080017 -0.55824757
2.2970483 -1.0035921 -0.56119174
2.3780527 -1.0389833 -0.55837429
2.4732294 -1.0805666 -0.55729353
2.5856891 -1.1297008 -0.55822414
2.686399 -1.1737015 -0.55468899
2.838094 -1.2399777 -0.55939007
2.9718399 -1.298412 -0.55795962
3.1163895 -1.3615665 -0.55603826
3.2774179 -1.4319206 -0.55429047
3.4669209 -1.5147154 -0.55418158
3.687968 -1.6112921 -0.55538994
3.9261284 -1.7153455 -0.55500954
4.1925755 -1.8317575 -0.55405253
4.5081205 -1.9696209 -0.55430603
4.8597589 -2.1232533 -0.55294716
5.2866287 -2.3097551 -0.55308825
5.7775407 -2.5242372 -0.55160636
6.3598161 -2.7786362 -0.54911649
7.101171 -3.1025379 -0.54835874
8.0078268 -3.4986606 -0.54542053
9.2048817 -4.0216599 -0.54318386
10.816514 -4.72579 -0.53993958
13.092951 -5.720377 -0.53461993
16.601393 -7.2532334 -0.52714199
22.652555 -9.8970175 -0.51370317
35.656139 -15.578349 -0.4851104
1.9191602 -0.81053746 -0.55821818
1.9743468 -0.83384496 -0.55522084
2.0716293 -0.87493122 -0.56267637
2.1298273 -0.8995105 -0.55810738
2.2153931 -0.93564832 -0.55941945
2.2957296 -0.96957767 -0.55791461
2.391227 -1.0099101 -0.55850953
2.4886386 -1.0510508 -0.55781126
2.5990601 -1.0976862 -0.55815458
2.7167904 -1.1474084 -0.55800873
2.8272235 -1.1940486 -0.55431169
2.9853501 -1.2608318 -0.55754322
3.1411455 -1.3266304 -0.55750251
3.3044691 -1.3956084 -0.55592114
3.4950397 -1.4760939 -0.55573291
3.7131295 -1.5682019 -0.55623311
3.9424071 -1.665035 -0.55437458
4.2218614 -1.7830596 -0.55498332
4.5292439 -1.9128793 -0.55396926
4.8918219 -2.0660105 -0.5536629
5.318696 -2.2462964 -0.55351156
5.8020701 -2.4504445 -0.5510298
6.4028273 -2.7041678 -0.54991752
7.118175 -3.0062878 -0.54677588
8.0628166 -3.4052472 -0.54627264
9.2674656 -3.9140184 -0.54399574
10.876263 -4.5934772 -0.54006177
13.163975 -5.559669 -0.53468812
16.679176 -7.0442777 -0.52682161
22.767635 -9.6156759 -0.51359272
35.814732 -15.125981 -0.48470095
1.926066 -0.78568995 -0.5573746
2.0198295 -0.82393843 -0.5651195
2.0611 -0.84077364 -0.5569663
2.1561193 -0.87953442 -0.56212056
2.2250502 -0.90765303 -0.55899751
2.3230002 -0.94760925 -0.5616678
2.4037669 -0.98055595 -0.55857998
2.5163727 -1.0264907 -0.56115603
2.6200359 -1.0687774 -0.55979455
2.73315 -1.1149194 -0.55851084
2.8556991 -1.1649103 -0.55704409
3.0043256 -1.2255386 -0.5582304
3.1501095 -1.2850076 -0.55624706
3.3245974 -1.3561854 -0.55645978
3.5068703 -1.4305391 -0.55477512
3.7242718 -1.5192226 -0.55506182
3.9699697 -1.6194488 -0.55540818
4.2387762 -1.7291017 -0.55436999
4.555841 -1.8584402 -0.55438536
4.9082026 -2.0021772 -0.55268866
5.3456511 -2.1806233 -0.55348438
5.8363614 -2.3807962 -0.5514645
6.4145899 -2.6166699 -0.54812288
7.1583595 -2.9200718 -0.54706305
8.0974569 -3.303153 -0.54582644
9.291687 -3.790309 -0.54264069
10.928981 -4.4582014 -0.53991657
13.223585 -5.3942275 -0.53437477
16.759947 -6.8367968 -0.52667761
22.876148 -9.3317471 -0.51341325
35.97369 -14.674558 -0.48437354
1.948843 -0.76716918 -0.56119359
2.0099916 -0.79124057 -0.5596025
2.0756271 -0.81707823 -0.55813473
2.1469622 -0.84515959 -0.55698168
2.2341774 -0.8794921 -0.55853128
2.3238904 -0.91480798 -0.55912089
2.4120123 -0.94949752 -0.55774075
2.5127363 -0.9891479 -0.5575906
2.6200156 -1.0313787 -0.55703843
2.7409148 -1.0789713 -0.55734426
2.8719981 -1.1305727 -0.55746955
3.0064945 -1.1835177 -0.55588734
3.1789098 -1.2513895 -0.55857319
3.3402009 -1.3148824 -0.55632317
3.5286412 -1.3890625 -0.55547512
3.7425442 -1.4732662 -0.55504316
3.9912851 -1.571184 -0.55564535
4.2538948 -1.6745614 -0.55361241
4.5683122 -1.7983328 -0.55317026
4.9251142 -1.9387894 -0.55186671
5.3594275 -2.1097584 -0.55218297
5.8526778 -2.3039281 -0.55028772
6.4586606 -2.5424755 -0.54917574
7.2177925 -2.8413105 -0.54889357
8.1443729 -3.2060621 -0.54629016
9.3379984 -3.6759377 -0.54266453
10.980267 -4.322422 -0.5397836
13.293367 -5.2329831 -0.534554
16.833298 -6.6264896 -0.52638233
22.978025 -9.0453844 -0.51316464
36.136871 -14.225412 -0.48417884
1.9646634 -0.74562931 -0.56306648
2.012295 -0.76370639 -0.55758709
2.0917938 -0.79387784 -0.55981469
2.1759872 -0.82583094 -0.56183463
2.2443521 -0.85177678 -0.55841434
2.3340223 -0.88580841 -0.55889571
2.4201329 -0.9184891 -0.55696481
2.5260971 -0.95870465 -0.55789727
2.6405623 -1.0021465 -0.55874461
2.7608752 -1.0478077 -0.55874085
2.8739741 -1.090731 -0.55520773
3.0310686 -1.1503514 -0.55777335
3.189229 -1.2103766 -0.55772907
3.352921 -1.272501 -0.55579364
3.5491498 -1.3469737 -0.55605417
3.7687864 -1.4303303 -0.55628461
4.0136728 -1.5232695 -0.55611235
4.28509 -1.6262778 -0.55502772
4.5994 -1.7455649 -0.55429369
4.9589157 -1.8820083 -0.55301929
5.3901167 -2.0456576 -0.55271143
5.8921733 -2.2361982 -0.55137414
6.4989691 -2.4664896 -0.54998273
7.2408319 -2.7480414 -0.54803449
8.1684847 -3.1001043 -0.54530936
9.3950338 -3.5656042 -0.54339004
11.026268 -4.1846905 -0.53947467
13.341177 -5.0632448 -0.53393251
16.919613 -6.4213333 -0.52657247
23.087111 -8.762023 -0.51315588
36.277843 -13.768171 -0.48376271
1.9598058 -0.71634406 -0.5591076
2.028192 -0.7413404 -0.5594238
2.0969129 -0.76645911 -0.55862015
2.1707852 -0.79346079 -0.55793017
2.2589111 -0.82567239 -0.55946833
2.351356 -0.85946262 -0.56047332
2.4412327 -0.8923142 -0.55925328
2.5445797 -0.93008935 -0.55941111
2.6428776 -0.96601897 -0.55667895
2.7616565 -1.0094348 -0.55634493
2.888418 -1.0557684 -0.55544811
3.0288506 -1.1070991 -0.55481815
3.209702 -1.1732035 -0.55874425
3.3722332 -1.2326114 -0.55644035
3.5659776 -1.3034285 -0.5561375
3.782371 -1.3825243 -0.55573845
4.0149055 -1.4675196 -0.55374104
4.3052068 -1.57363 -0.55508506
4.611042 -1.6854182 -0.55315727
4.988297 -1.8233116 -0.55375373
5.4103179 -1.9775678 -0.55224764
5.9152689 -2.1621363 -0.55100578
6.5189276 -2.3827844 -0.54915065
7.2633982 -2.6549017 -0.54723024
8.1982813 -2.9966183 -0.54479742
9.4252157 -3.4450848 -0.5426445
11.087343 -4.0526218 -0.53998387
13.40616 -4.9001913 -0.5340814
16.978382 -6.2059016 -0.52598679
23.181135 -8.4731197 -0.51289117
36.415939 -13.310677 -0.48338512
1.9719033 -0.69340187 -0.56008404
2.0277736 -0.71304822 -0.55684793
2.1228762 -0.74649012 -0.5630489
2.1724539 -0.76392365 -0.55590266
2.2687392 -0.79778153 -0.55943048
2.3602545 -0.82996207 -0.56011945
2.4616275 -0.86560899 -0.56144464
2.5549896 -0.89843887 -0.5592286
2.6536222 -0.9331221 -0.55648321
2.78423 -0.97904921 -0.55842495
2.9231863 -1.0279119 -0.55966121
3.0680766 -1.0788612 -0.55953115
3.2256668 -1.1342764 -0.55905318
3.3841374 -1.1900011 -0.55594808
3.5669694 -1.2542924 -0.55384499
3.8112235 -1.3401822 -0.55751425
4.0440021 -1.4220366 -0.55530047
4.3112354 -1.5160067 -0.55341697
4.6478591 -1.6343775 -0.55512106
5.002058 -1.7589282 -0.5528385
5.4275203 -1.9085382 -0.55156636
5.941535 -2.0892868 -0.5510177
6.5420809 -2.3004634 -0.54867667
7.314837 -2.572196 -0.5486812
8.2616177 -2.9051228 -0.5465911
9.4811592 -3.3339636 -0.543464
11.125765 -3.9122741 -0.53947139
13.477489 -4.7392368 -0.53456104
17.072998 -6.0035648 -0.52659118
23.268826 -8.182271 -0.51256645
36.565083 -12.857779 -0.48322958
1.986519 -0.6712119 -0.56184858
2.0458643 -0.69126368 -0.55943924
2.1267185 -0.71858299 -0.56168199
2.1915109 -0.7404753 -0.55840701
2.2675538 -0.76616895 -0.55677307
2.3696477 -0.80066478 -0.55996984
2.4588568 -0.83080703 -0.55844039
2.5653501 -0.8667894 -0.55912113
2.6578729 -0.89805126 -0.55501688
2.7924473 -0.94352174 -0.55770391
2.9169402 -0.98558587 -0.55610299
3.0778105 -1.0399413 -0.55893201
3.2166028 -1.0868368 -0.55512404
3.4156978 -1.1541077 -0.55875921
3.5887144 -1.2125672 -0.55486423
3.814899 -1.2889913 -0.5556913
4.0664024 -1.3739702 -0.55601436
4.3318152 -1.4636487 -0.55370659
4.6526208 -1.5720435 -0.55333918
5.024241 -1.697608 -0.55294138
5.4449868 -1.839771 -0.55100071
5.9627905 -2.0147283 -0.55064982
6.5742774 -2.2213395 -0.54904461
7.3383512 -2.4795074 -0.54811656
8.2732983 -2.7954106 -0.54504848
9.5098495 -3.2132208 -0.54280269
11.16501 -3.7724721 -0.53908432
13.517016 -4.5671759 -0.53386092
17.12549 -5.7864199 -0.52597582
23.362049 -7.8936501 -0.51244313
36.688831 -12.396548 -0.48281398
1.979906 -0.64196444 -0.55770344
2.0436814 -0.66264296 -0.5565722
2.1287723 -0.69023275 -0.55994046
2.206053 -0.71529031 -0.55982894
2.2939434 -0.74378788 -0.56096464
2.3691554 -0.76817453 -0.55757916
2.4667416 -0.79981589 -0.55795532
2.5715394 -0.83379549 -0.55819327
2.6873119 -0.8713336 -0.55888474
2.8086567 -0.91067839 -0.55866253
2.9309082 -0.9503172 -0.55649608
3.0749674 -0.99702698 -0.55614722
3.2444739 -1.0519878 -0.55765951
3.4196935 -1.1088009 -0.55714035
3.6061611 -1.1692611 -0.55529672
3.8200047 -1.2385978 -0.5541746
4.0747628 -1.3212004 -0.55489415
4.3557148 -1.4122962 -0.55449975
4.6728764 -1.5151327 -0.55349058
5.0384436 -1.6336641 -0.55225188
5.4813972 -1.7772874 -0.55243194
5.9848371 -1.9405227 -0.55044061
6.5996947 -2.139884 -0.54892832
7.3521929 -2.3838739 -0.54691964
8.3196239 -2.6975536 -0.54587394
9.5408649 -3.0935285 -0.54236078
11.201571 -3.6319957 -0.53865248
13.573828 -4.4011755 -0.5339269
17.200699 -5.5771518 -0.52613968
23.442242 -7.6009088 -0.51211327
36.834312 -11.943151 -0.48275939
1.9896173 -0.6181832 -0.55825555
2.0614057 -0.64048821 -0.55921203
2.1307395 -0.66203052 -0.55827439
2.2072239 -0.68579459 -0.55794388
2.2944198 -0.71288675 -0.55889523
2.3798678 -0.73943585 -0.55791825
2.4721529 -0.76810932 -0.55700088
2.591737 -0.80526453 -0.56038576
2.6970327 -0.83798045 -0.55872118
2.7931454 -0.86784309 -0.55341274
2.9373953 -0.91266221 -0.55555493
3.0896289 -0.95996189 -0.55662191
3.2463348 -1.0086511 -0.5558055
3.4359834 -1.0675758 -0.55761343
3.6306448 -1.1280581 -0.55688882
3.8410575 -1.1934342 -0.55505788
4.0848103 -1.2691692 -0.55409527
4.3804789 -1.3610349 -0.55547982
4.6875176 -1.4564332 -0.55306172
5.0568695 -1.5711926 -0.5521121
5.495944 -1.707615 -0.55174005
6.0050807 -1.8658061 -0.55015075
6.6229296 -2.0577745 -0.54871476
7.3770838 -2.2920938 -0.5466333
8.3442583 -2.5925992 -0.54535729
9.5856886 -2.9783175 -0.54278594
11.256626 -3.4974854 -0.53919113
13.61225 -4.2293887 -0.53335226
17.255457 -5.3613496 -0.52575833
23.534435 -7.3122568 -0.51212436
36.945477 -11.479129 -0.48232991
2.0081201 -0.59695858 -0.56134504
2.0538974 -0.61056691 -0.55509651
2.1222432 -0.63088429 -0.55397385
2.2088478 -0.65662938 -0.55627126
2.3062918 -0.68559688 -0.55969125
2.3941588 -0.71171731 -0.5591746
2.4785535 -0.7368055 -0.55635959
2.5812206 -0.76732558 -0.5560298
2.6997082 -0.80254871 -0.55718893
2.8250635 -0.83981329 -0.55764854
2.9508932 -0.87721902 -0.55602568
3.1024175 -0.92226297 -0.55684072
3.2775202 -0.97431618 -0.55905128
3.4309573 -1.0199288 -0.55472052
3.6382298 -1.0815452 -0.55597031
3.8592825 -1.147258 -0.55561095
4.1156826 -1.2234788 -0.55620027
4.3811059 -1.3023818 -0.5534867
4.7152009 -1.4016988 -0.55425245
5.0795574 -1.5100121 -0.55252022
5.5158582 -1.6397122 -0.55167341
6.0220904 -1.7902011 -0.54965079
6.6419711 -1.9744745 -0.54823941
7.4173574 -2.2049754 -0.54756707
8.388711 -2.493732 -0.5462172
9.6133585 -2.8577859 -0.54232192
11.28431 -3.3545136 -0.53850067
13.658788 -4.0603805 -0.5331791
17.314724 -5.1471887 -0.5255959
23.628328 -7.0240493 -0.51224935
37.07309 -11.020804 -0.48219022
2.0051136 -0.56932789 -0.55850542
2.0775938 -0.58990777 -0.55949807
2.1427445 -0.60840654 -0.55733037
2.2233582 -0.63129586 -0.55792844
2.3097606 -0.65582877 -0.55853373
2.40905 -0.68402076 -0.5606457
2.4844711 -0.70543569 -0.55569869
2.6099389 -0.74106073 -0.56021076
2.7080588 -0.76892084 -0.55691892
2.8317575 -0.80404353 -0.5569762
2.9646552 -0.84177822 -0.55662632
3.1164162 -0.88486892 -0.55735815
3.2749352 -0.92987853 -0.55661798
3.4563022 -0.98137552 -0.55682516
3.6515062 -1.0368013 -0.55600888
3.8665051 -1.0978477 -0.55466533
4.1280107 -1.1720991 -0.55587649
4.3999424 -1.2493109 -0.55388379
4.733438 -1.344003 -0.55441165
5.1077547 -1.4502856 -0.55360562
5.5359097 -1.5718551 -0.55170405
6.0719328 -1.7240524 -0.55222332
6.6693654 -1.8936862 -0.54853708
7.4625335 -2.1188967 -0.54893714
8.4100113 -2.3879216 -0.54565096
9.6445913 -2.738466 -0.54214323
11.320733 -3.2143862 -0.5383119
13.717876 -3.8950264 -0.53357571
17.368511 -4.9315801 -0.52534819
23.69895 -6.729032 -0.51194781
37.196522 -10.561506 -0.48207009
2.009131 -0.54386455 -0.55771953
2.0872173 -0.56500226 -0.56017643
2.1650248 -0.5860644 -0.56120867
2.2166133 -0.60002923 -0.55434245
2.3282988 -0.63026214 -0.56110007
2.4068699 -0.65153104 -0.55823165
2.5022516 -0.67735052 -0.55777055
2.6126754 -0.70724183 -0.55888921
2.7181296 -0.73578793 -0.55708718
2.8425422 -0.76946598 -0.55719429
2.9798932 -0.80664635 -0.55758286
3.1213274 -0.84493208 -0.55633634
3.2751844 -0.88658065 -0.55476546
3.450871 -0.93413836 -0.55405772
3.6532106 -0.98891097 -0.55437493
3.891041 -1.0532907 -0.55628502
4.129797 -1.1179211 -0.55422401
4.4174533 -1.1957887 -0.55419523
4.7479067 -1.2852412 -0.55421335
5.1208763 -1.3862028 -0.55313855
5.5527811 -1.5031178 -0.55150175
6.074379 -1.6443125 -0.5505653
6.697844 -1.8130823 -0.5490042
7.4715528 -2.0225224 -0.54772979
8.419631 -2.2791638 -0.54441559
9.6930437 -2.623872 -0.54301214
11.371589 -3.0782483 -0.53888953
13.76734 -3.7267694 -0.53367686
17.435469 -4.7197185 -0.52557832
23.763048 -6.4325714 -0.51158512
37.305286 -10.098407 -0.4818339
2.0179019 -0.51969582 -0.55833811
2.0913169 -0.53860337 -0.55945694
2.1741319 -0.55993176 -0.56174213
2.2425044 -0.57754052 -0.55899912
2.3265955 -0.59919763 -0.55887169
2.42466 -0.62445337 -0.56053448
2.5137572 -0.64739972 -0.55851853
2.6124361 -0.67281377 -0.55702615
2.7310424 -0.70335996 -0.55791897
2.8514972 -0.73438221 -0.55713743
2.9845164 -0.76864034 -0.55663735
3.1288848 -0.80582136 -0.55587518
3.2926843 -0.84800667 -0.55592138
3.4761522 -0.89525747 -0.55630726
3.6813242 -0.94809806 -0.55682993
3.8953054 -1.0032073 -0.55508912
4.1471138 -1.0680587 -0.55474353
4.4282722 -1.1404691 -0.55375129
4.7572765 -1.2252017 -0.55350661
5.1322579 -1.3217754 -0.55257052
5.5693626 -1.4343486 -0.55135524
6.0820513 -1.5663878 -0.5494734
6.726934 -1.7324724 -0.54960084
7.4885898 -1.9286314 -0.54719883
8.4612064 -2.1791217 -0.54532999
9.7140036 -2.5017705 -0.542422
11.397023 -2.93522 -0.53834373
13.805029 -3.5553842 -0.5334028
17.486303 -4.5034695 -0.52540171
23.821861 -6.1351457 -0.51118851
37.398491 -9.6317072 -0.48147163
2.0415003 -0.49908966 -0.56312698
2.103668 -0.51428789 -0.56102687
2.1753387 -0.53180939 -0.56032199
2.2524989 -0.55067289 -0.55976033
2.3331418 -0.57038784 -0.55871719
2.4168797 -0.59085941 -0.55701411
2.5317392 -0.61893934 -0.56078047
2.6316216 -0.64335775 -0.5593878
2.7336187 -0.66829318 -0.55672437
2.854701 -0.69789445 -0.55604464
2.9840651 -0.72952032 -0.55483812
3.1420128 -0.76813412 -0.55648738
3.3077171 -0.80864418 -0.55673856
3.4855554 -0.8521207 -0.55609322
3.6783345 -0.89924979 -0.55466324
3.9116223 -0.95628208 -0.55569661
4.1526699 -1.0152115 -0.55377501
4.4457746 -1.0868673 -0.55422682
4.7735209 -1.1669922 -0.55368519
5.1456285 -1.2579621 -0.55230296
5.5853853 -1.3654703 -0.55123752
6.1130366 -1.4944663 -0.55057091
6.734798 -1.6464695 -0.5485478
7.5088673 -1.8357077 -0.54698974
8.4819708 -2.0736041 -0.54498374
9.7444897 -2.3822546 -0.54244757
11.437114 -2.7960539 -0.53857267
13.85189 -3.386399 -0.53356415
17.526367 -4.2847056 -0.52498269
23.899775 -5.8428254 -0.51128006
37.500324 -9.167779 -0.48129496
2.0313702 -0.47022089 -0.55869555
2.1066613 -0.48764923 -0.56018358
2.1794326 -0.50449431 -0.55973625
2.2556303 -0.52213252 -0.55890071
2.3497379 -0.54391652 -0.56104743
2.4263909 -0.56166011 -0.55757225
2.5404229 -0.58805621 -0.56105977
2.6311734 -0.60906309 -0.55765843
2.7342427 -0.63292158 -0.55522448
2.8753192 -0.66557795 -0.55842429
2.9977541 -0.69391906 -0.55575484
3.1598866 -0.73144948 -0.55801791
3.3254526 -0.76977462 -0.5580883
3.4998038 -0.8101334 -0.55673498
3.679065 -0.85162872 -0.55315244
3.9207675 -0.90757793 -0.55536842
4.159441 -0.96282601 -0.55305737
4.460155 -1.0324352 -0.55439496
4.7917538 -1.1091934 -0.55417609
5.1558008 -1.193463 -0.5517779
5.6080289 -1.2981446 -0.55185515
6.1302118 -1.4190193 -0.55050462
6.7537551 -1.563357 -0.54848462
7.5479636 -1.7472 -0.5482313
8.5080166 -1.9694327 -0.54506004
9.7568998 -2.2585237 -0.54155147
11.454261 -2.6514285 -0.53780419
13.875434 -3.2118807 -0.53290945
17.591276 -4.0720229 -0.52538747
23.954132 -5.5448942 -0.51094568
37.59111 -8.7015772 -0.48105049
2.036566 -0.44511408 -0.558577
2.0937755 -0.45761785 -0.55521888
2.1813765 -0.47676399 -0.55868763
2.2643576 -0.49490047 -0.55951303
2.3498945 -0.51359546 -0.55953455
2.4381928 -0.53289407 -0.55873626
2.5368719 -0.55446148 -0.55872756
2.6510649 -0.57941955 -0.56032187
2.7528813 -0.60167271 -0.55746478
2.8821127 -0.62991762 -0.55819714
3.0191848 -0.65987629 -0.55818141
3.1653967 -0.69183254 -0.55744648
3.3282211 -0.72741956 -0.5570097
3.5142612 -0.76808071 -0.55749029
3.7128117 -0.81147611 -0.55668396
3.9338858 -0.85979432 -0.55568701
4.1878939 -0.91531056 -0.55530202
4.4773192 -0.97856772 -0.55499083
4.7817674 -1.0451082 -0.55149323
5.1872869 -1.133739 -0.55361372
5.6116099 -1.2264795 -0.55068189
6.1389132 -1.3417275 -0.54976285
6.7874165 -1.4834651 -0.54969537
7.5603852 -1.652406 -0.5476163
8.5262165 -1.863499 -0.54471684
9.7965584 -2.1411464 -0.54225034
11.491474 -2.5115891 -0.53806072
13.913258 -3.0408967 -0.53288573
17.613176 -3.8495545 -0.52458805
24.015776 -5.2489138 -0.51084518
37.674999 -8.2342882 -0.48079196
2.0537381 -0.42247805 -0.56181949
2.1095243 -0.43395394 -0.55793786
2.1716881 -0.44674176 -0.55475742
2.2566268 -0.46421468 -0.55615026
2.3548198 -0.4844141 -0.55924672
2.4407783 -0.50209677 -0.5578717
2.5467408 -0.52389449 -0.55944002
2.6523516 -0.5456199 -0.55913353
2.7653234 -0.56885952 -0.55852562
2.8816471 -0.59278864 -0.55665314
3.0181246 -0.62086368 -0.55653185
3.1754553 -0.65322846 -0.55776113
3.3437095 -0.68784034 -0.55814409
3.5175464 -0.72360063 -0.55655783
3.7268124 -0.76664913 -0.55732757
3.9382701 -0.81014842 -0.55485719
4.1949134 -0.86294299 -0.55478388
4.4909525 -0.92384166 -0.55523062
4.8010583 -0.98763406 -0.55227566
5.2001114 -1.069724 -0.55353671
5.6353817 -1.1592642 -0.55157405
6.157505 -1.2666711 -0.54999137
6.7949619 -1.3978035 -0.54887295
7.5702748 -1.5572945 -0.54690421
8.551136 -1.7590691 -0.54488575
9.8198605 -2.0200608 -0.54212427
11.519841 -2.3697667 -0.53798383
13.960263 -2.8717902 -0.53329325
17.676191 -3.6362004 -0.52509356
24.079466 -4.9534292 -0.51086575
37.75914 -7.767499 -0.48061052
2.0569065 -0.39683333 -0.56130892
2.1316154 -0.41124675 -0.56240064
2.1802726 -0.42063403 -0.55558705
2.2654147 -0.43706027 -0.55694944
2.3651898 -0.45630962 -0.56033462
2.4557099 -0.47377339 -0.55991066
2.5539484 -0.4927263 -0.55965006
2.654382 -0.51210266 -0.5581919
2.7679269 -0.53400856 -0.55768305
2.8921254 -0.55796987 -0.55730981
3.035265 -0.58558536 -0.55832255
3.1814251 -0.61378366 -0.55744189
3.3496139 -0.64623183 -0.55776107
3.5272741 -0.68050736 -0.55673093
3.7174363 -0.71719486 -0.55456465
3.9514446 -0.76234138 -0.55535066
4.2045498 -0.81117231 -0.55469722
4.4810495 -0.86451662 -0.55265021
4.817544 -0.92943561 -0.55281562
5.2204752 -1.007172 -0.55434418
5.6450305 -1.0890803 -0.55116606
6.1738997 -1.1911136 -0.55010593
6.8069911 -1.3132541 -0.54849869
7.5830603 -1.4629791 -0.54648697
8.5692177 -1.6532358 -0.5447014
9.8309317 -1.8966548 -0.54140699
11.548409 -2.2280028 -0.53799784
13.988131 -2.6986916 -0.53304982
17.719913 -3.4186544 -0.52510387
24.135132 -4.6563249 -0.51079339
37.84219 -7.3007903 -0.4804886
2.058583 -0.37096345 -0.56047928
2.1127133 -0.3807179 -0.55613637
2.1963012 -0.39578071 -0.55838919
2.2889278 -0.41247231 -0.56144071
2.3651631 -0.42621017 -0.55904436
2.4489846 -0.44131511 -0.55709785
2.5461051 -0.45881656 -0.55665302
2.6529467 -0.47806972 -0.55661178
2.7773192 -0.50048208 -0.55829328
2.9140902 -0.5251286 -0.56025571
3.0337696 -0.54669529 -0.55676883
