# .PCD v0.7 - Point Cloud Data file format
VERSION 0.7
FIELDS x y z
SIZE 4 4 4
TYPE F F F
COUNT 1 1 1
WIDTH 1475
HEIGHT 1
VIEWPOINT 0 0 0 1 0 0 0
POINTS 1475
DATA ascii
-1.3967268 1.8904771 -0.5673992
-1.4397143 1.9486609 -0.5635947
-1.5085063 2.0417712 -0.56832659
-1.5657313 2.1192255 -0.56693184
-1.6317096 2.2085276 -0.56698579
-1.7000407 2.3010139 -0.56598032
-1.7750789 2.4025786 -0.56520551
-1.8688205 2.5294585 -0.56802225
-1.9605544 2.6536207 -0.56763083
-2.0639625 2.7935839 -0.56789029
-2.182694 2.9542878 -0.56925672
-2.3031819 3.1173689 -0.56773555
-2.4471118 3.3121789 -0.56829572
-2.6064215 3.5278051 -0.56818569
-2.788399 3.7741127 -0.5682438
-3.0032544 4.0649204 -0.56945044
-3.2464931 4.3941455 -0.56963032
-3.5401092 4.7915564 -0.57113928
-3.8833072 5.2560768 -0.57173884
-4.299407 5.8192701 -0.57245082
-4.8160195 6.5185075 -0.57349908
-5.4762135 7.4120836 -0.57518411
-6.333384 8.5722685 -0.57633394
-7.5209198 10.179605 -0.57894665
-9.2512112 12.521563 -0.5825268
-12.012733 16.259296 -0.58821303
-17.123373 23.176575 -0.59881693
-29.760948 40.281601 -0.62439984
-1.276474 1.683991 -0.56620383
-1.3258215 1.7490927 -0.56858504
-1.3701653 1.8075933 -0.56752849
-1.411292 1.8618498 -0.56397301
-1.4751126 1.9460452 -0.56804138
-1.5330926 2.0225356 -0.56817675
-1.5861478 2.0925288 -0.56496495
-1.6535906 2.1815028 -0.56522518
-1.7332549 2.2866001 -0.56763434
-1.8078067 2.3849528 -0.56624573
-1.9019753 2.5091848 -0.5686785
-1.9957078 2.6328416 -0.5683924
-2.0888374 2.7557032 -0.56536835
-2.2123685 2.9186716 -0.56759298
-2.3466208 3.0957842 -0.56901664
-2.4912348 3.2865665 -0.56911421
-2.6646564 3.5153534 -0.57141429
-2.8474894 3.7565563 -0.57082915
-3.0534592 4.0282822 -0.56953466
-3.302784 4.3572044 -0.57006317
-3.6022723 4.752305 -0.57169724
-3.9544654 5.2169366 -0.57272738
-4.3682485 5.7628207 -0.57213855
-4.8920488 6.453845 -0.57305914
-5.5743518 7.3539753 -0.57595038
-6.4338946 8.4879284 -0.57593906
-7.6537061 10.097167 -0.5795669
-9.4160566 12.422153 -0.58324444
-12.218773 16.11964 -0.5885517
-17.424856 22.987776 -0.59942955
-30.300402 39.973869 -0.62535787
-1.2918845 1.6614829 -0.56393456
-1.3379509 1.7207285 -0.56467003
-1.3845209 1.7806218 -0.56436276
-1.4463129 1.860092 -0.56878465
-1.4979111 1.9264522 -0.56765574
-1.5572983 2.0028296 -0.56797737
-1.6169397 2.0795338 -0.5667817
-1.6795362 2.1600387 -0.56497216
-1.7580565 2.261023 -0.56660873
-1.8469805 2.3753877 -0.5693239
-1.9288129 2.4806316 -0.56753963
-2.0248554 2.6041512 -0.56753087
-2.1242702 2.7320077 -0.56582326
-2.2440717 2.8860836 -0.56657892
-2.3839042 3.0659211 -0.56887263
-2.5397666 3.2663746 -0.57098246
-2.6938758 3.4645731 -0.56850153
-2.8919492 3.7193136 -0.57053047
-3.0978684 3.9841449 -0.56863707
-3.3623164 4.3242493 -0.57111764
-3.65167 4.6963849 -0.57032877
-4.0102367 5.1575351 -0.57157648
-4.4441767 5.7156219 -0.57283473
-4.9790959 6.4035773 -0.57398874
-5.6559272 7.274045 -0.57509381
-6.5537353 8.428709 -0.57734531
-7.7768226 10.001712 -0.57953298
-9.569541 12.307313 -0.58333331
-12.424706 15.979321 -0.58896208
-17.717787 22.786711 -0.59982228
-30.846968 39.67205 -0.62652284
-1.3214616 1.6570668 -0.56790805
-1.3648512 1.711476 -0.56709826
-1.4152328 1.7746527 -0.56794363
-1.4598632 1.8306177 -0.56521833
-1.5199335 1.9059438 -0.56707704
-1.5837475 1.9859643 -0.56867439
-1.6479871 2.0665185 -0.5687145
-1.7009611 2.132946 -0.56331396
-1.790139 2.244772 -0.56800956
-1.868152 2.3425977 -0.56692785
-1.9562165 2.4530272 -0.56668472
-2.0602474 2.5834785 -0.56850374
-2.1587839 2.7070398 -0.56610715
-2.2848198 2.8650846 -0.56792909
-2.4133062 3.026202 -0.56696612
-2.5736086 3.2272158 -0.56962621
-2.7378566 3.433177 -0.56883097
-2.9466307 3.6949725 -0.5723114
-3.1546648 3.9558401 -0.57009059
-3.411396 4.2777719 -0.57047635
-3.7143304 4.6576414 -0.57112706
-4.0713797 5.1053681 -0.57130021
-4.5109043 5.656517 -0.57242697
-5.0469823 6.3287401 -0.57280016
-5.7549305 7.2164826 -0.57609415
-6.6614575 8.3532362 -0.57774276
-7.8989635 9.9050255 -0.5795148
-9.7226954 12.191922 -0.58348656
-12.630126 15.837738 -0.58942336
-18.021103 22.597836 -0.60063821
-31.392193 39.364716 -0.62771791
-1.3523179 1.6536329 -0.57238686
-1.3888137 1.6982605 -0.568335
-1.424654 1.7420865 -0.56308526
-1.4854863 1.816473 -0.56644809
-1.5376774 1.8802931 -0.56502819
-1.5997055 1.9561418 -0.56572467
-1.6774166 2.051168 -0.57012331
-1.7371759 2.1242428 -0.56661409
-1.8126335 2.2165132 -0.56645614
-1.8914961 2.3129473 -0.56533831
-1.9892547 2.432488 -0.56754768
-2.0903561 2.5561163 -0.56809586
-2.202579 2.6933439 -0.56886393
-2.3185971 2.8352125 -0.56761628
-2.4578974 3.0055509 -0.56871653
-2.6151326 3.1978199 -0.57007045
-2.7804694 3.3999963 -0.56895518
-2.9775336 3.640969 -0.56957477
-3.2031596 3.9168677 -0.57010734
-3.472532 4.2462597 -0.57192504
-3.7663267 4.605516 -0.57037121
-4.1353545 5.0567684 -0.57150888
-4.5860281 5.6078587 -0.57316625
-5.1397252 6.2849264 -0.57451135
-5.8433847 7.145371 -0.57610977
-6.7606921 8.2670679 -0.57748908
-8.0251331 9.8132439 -0.57987458
-9.8783979 12.079441 -0.58387262
-12.841375 15.70261 -0.59022635
-18.309263 22.388821 -0.60102135
-31.917423 39.029064 -0.6285764
-1.3512118 1.6114352 -0.56348908
-1.4071358 1.6781294 -0.56734562
-1.4429455 1.7208354 -0.5619089
-1.509722 1.8004721 -0.56720459
-1.5664084 1.8680755 -0.56710196
-1.6314939 1.9456956 -0.56846249
-1.6943827 2.0206957 -0.56740171
-1.7640281 2.1037538 -0.56689197
-1.8489217 2.2049966 -0.56928015
-1.9290844 2.3005977 -0.56807476
-2.0158112 2.4040267 -0.56664765
-2.1270397 2.5366762 -0.56954521
-2.2320437 2.6619022 -0.56797713
-2.357573 2.8116066 -0.5686512
-2.4960372 2.9767373 -0.56902903
-2.6561203 3.16765 -0.57047135
-2.8278079 3.3724017 -0.57011318
-3.0275776 3.6106443 -0.5706116
-3.2558341 3.8828597 -0.57094145
-3.5329092 4.2132955 -0.57329297
-3.8289075 4.5662985 -0.571302
-4.2034674 5.0129933 -0.57235986
-4.6544914 5.5508776 -0.57314879
-5.2165537 6.2211847 -0.57450479
-5.9271169 7.0685916 -0.57575202
-6.8648987 8.1869764 -0.57774746
-8.1486244 9.7179289 -0.58011943
-10.032079 11.964108 -0.58421642
-13.035795 15.546296 -0.59033138
-18.613676 22.198395 -0.60200822
-32.456055 38.706612 -0.62976319
-1.3927277 1.6200633 -0.57245141
-1.4244266 1.6569363 -0.56605947
-1.4800891 1.7216847 -0.56808615
-1.5331018 1.7833507 -0.56770676
-1.5927794 1.8527696 -0.56835812
-1.6570777 1.9275632 -0.56907505
-1.7003379 1.9778849 -0.56120908
-1.7945976 2.0875306 -0.56842375
-1.8654894 2.1699941 -0.56612277
-1.9520769 2.2707155 -0.56658036
-2.0534787 2.388669 -0.56893647
-2.1540337 2.5056374 -0.56848031
-2.2741539 2.6453652 -0.57037222
-2.3924999 2.7830288 -0.5687784
-2.5351202 2.9489291 -0.56962919
-2.6919475 3.1313553 -0.56985319
-2.8797002 3.349755 -0.5722276
-3.0718207 3.5732355 -0.57062596
-3.2987087 3.8371584 -0.57014275
-3.5754726 4.1590986 -0.57185763
-3.8928251 4.5282526 -0.57248759
-4.2576838 4.9526677 -0.57140654
-4.7243605 5.4955201 -0.57338786
-5.2963147 6.1608343 -0.57490236
-6.0206361 7.0033875 -0.57642752
-6.970603 8.1084175 -0.57820863
-8.2738361 9.6243773 -0.58056426
-10.185102 11.847621 -0.58459967
-13.235377 15.395794 -0.59075171
-18.88271 21.964941 -0.60192847
-32.988529 38.37326 -0.63089168
-1.4024733 1.5913914 -0.568371
-1.4423106 1.636595 -0.56512642
-1.4933078 1.6944618 -0.5651198
-1.5528141 1.7619839 -0.56694043
-1.6104242 1.8273541 -0.56659347
-1.6684595 1.8932071 -0.56494635
-1.7478539 1.9832962 -0.56879979
-1.8221607 2.0676124 -0.56905818
-1.8896271 2.1441667 -0.56540388
-1.9878743 2.2556481 -0.56887692
-2.0748172 2.3543026 -0.56678486
-2.1802156 2.4738984 -0.56731886
-2.2974861 2.6069655 -0.5681411
-2.4248438 2.7514789 -0.56838125
-2.5683036 2.9142635 -0.56899035
-2.7342176 3.1025267 -0.57068223
-2.9176378 3.3106542 -0.57163358
-3.1118529 3.5310307 -0.56995368
-3.3446708 3.7952101 -0.5699777
-3.6221435 4.1100593 -0.57119572
-3.9407418 4.4715738 -0.57140499
-4.3260555 4.9087911 -0.57243842
-4.7997532 5.4462976 -0.57436669
-5.361433 6.0836372 -0.5738073
-6.106504 6.9290724 -0.57644761
-7.0622034 8.0135078 -0.57758951
-8.4029045 9.5348053 -0.58134997
-10.342733 11.735937 -0.58531994
-13.42293 15.231048 -0.59071887
-19.184301 21.768496 -0.6029641
-33.51936 38.034538 -0.63205141
-1.4226873 1.5748606 -0.56867194
-1.4566489 1.6124549 -0.56293315
-1.5193024 1.6818098 -0.56708801
-1.5711099 1.7391587 -0.56576955
-1.6327333 1.8073735 -0.56658053
-1.6979856 1.8796054 -0.56707519
-1.7702072 1.9595518 -0.56818986
-1.8454072 2.0427954 -0.56843036
-1.9177808 2.1229103 -0.56597435
-2.013973 2.2293911 -0.56845766
-2.1092744 2.3348863 -0.56831163
-2.2176068 2.4548061 -0.56915087
-2.3442762 2.5950243 -0.57177764
-2.4552774 2.7178986 -0.56763822
-2.6118743 2.8912454 -0.57072371
-2.770617 3.0669672 -0.57036495
-2.9487338 3.2641358 -0.56981909
-3.149848 3.4867616 -0.56901687
-3.3937223 3.7567213 -0.57042146
-3.6724341 4.0652447 -0.57120025
-4.0011921 4.4291673 -0.57222986
-4.3792157 4.8476248 -0.57154191
-4.8612914 5.3812642 -0.57376897
-5.4390745 6.0208483 -0.57414985
-6.1902189 6.8523359 -0.5763526
-7.1622434 7.9283304 -0.57775432
-8.5191469 9.4303703 -0.58132559
-10.476634 11.597234 -0.58478314
-13.636286 15.094849 -0.59189498
-19.463528 21.545383 -0.60336775
-34.034985 37.67543 -0.63299072
-1.4438272 1.559283 -0.56941479
-1.4871116 1.6060287 -0.56703085
-1.5446466 1.6681646 -0.56884843
-1.5848449 1.7115774 -0.56309408
-1.6591483 1.7918226 -0.56805813
-1.7229551 1.8607315 -0.56772989
-1.7852379 1.9279948 -0.5653621
-1.8691087 2.0185723 -0.56804246
-1.9479589 2.1037278 -0.56720334
-2.0363004 2.1991336 -0.56708425
-2.1354685 2.3062317 -0.5676856
-2.2377739 2.4167178 -0.56665701
-2.3618603 2.5507269 -0.5683735
-2.5004816 2.7004333 -0.57036906
-2.6382167 2.8491824 -0.56878126
-2.8043485 3.0285988 -0.56959939
-2.9903729 3.2294986 -0.57014847
-3.1994894 3.455337 -0.57026595
-3.4504466 3.7263622 -0.57221085
-3.723747 4.0215173 -0.57144672
-4.0533533 4.3774805 -0.57194829
-4.4485831 4.8043146 -0.5728417
-4.9234715 5.3171778 -0.57334763
-5.5118246 5.952579 -0.57405943
-6.2778006 6.7798061 -0.5767014
-7.2697029 7.8510265 -0.57859147
-8.6311579 9.3213501 -0.58110362
-10.621849 11.471228 -0.58497113
-13.817947 14.922902 -0.59177053
-19.75176 21.331213 -0.60412604
-34.55447 37.317627 -0.63407004
-1.4652035 1.5438499 -0.57031524
-1.5077065 1.5886344 -0.56739223
-1.5571877 1.6407715 -0.56599408
-1.6243538 1.7115428 -0.56961089
-1.6824665 1.7727748 -0.56853533
-1.751533 1.8455486 -0.56962574
-1.8224003 1.9202198 -0.5696103
-1.8858054 1.9870282 -0.56564844
-1.9747528 2.08075 -0.56751215
-2.0619478 2.1726253 -0.56674385
-2.1632764 2.279393 -0.56758404
-2.2735946 2.3956325 -0.56822532
-2.3971052 2.5257728 -0.56933802
-2.5142715 2.6492281 -0.56604105
-2.6658881 2.8089826 -0.5672574
-2.8417542 2.9942884 -0.56967545
-3.0327079 3.195492 -0.57068533
-3.2360289 3.4097264 -0.56926256
-3.4869649 3.6741319 -0.57073146
-3.7697518 3.9720976 -0.57096809
-4.1111984 4.3318715 -0.57255101
-4.5087528 4.7507653 -0.57302397
-5.0018864 5.2703686 -0.57488883
-5.5959859 5.8963571 -0.57523
-6.3560915 6.6972623 -0.57628465
-7.3693886 7.7649488 -0.57888228
-8.7496891 9.2193384 -0.58140749
-10.769425 11.347486 -0.58536977
-14.005261 14.75701 -0.59197646
-20.024057 21.098871 -0.60447347
-35.067684 36.949982 -0.63510209
-1.4751675 1.5165602 -0.56689209
-1.529668 1.5725899 -0.56833684
-1.5776788 1.6219479 -0.56615001
-1.6336665 1.6795067 -0.56559181
-1.6996278 1.7473186 -0.56703109
-1.7617847 1.8112197 -0.56567389
-1.8363656 1.8878933 -0.56667656
-1.9082363 1.9617807 -0.56509817
-1.9943533 2.0503142 -0.56585687
-2.0933731 2.1521125 -0.56806475
-2.1891165 2.2505422 -0.56706005
-2.3078511 2.3726084 -0.56945229
-2.4228957 2.4908812 -0.56814581
-2.560652 2.6325028 -0.56915206
-2.7082796 2.7842729 -0.56894964
-2.8736587 2.9542925 -0.56874585
-3.0695009 3.1556299 -0.57026392
-3.2841003 3.376251 -0.57037264
-3.5366623 3.6359 -0.57150477
-3.8231602 3.9304366 -0.57169396
-4.1615629 4.2783351 -0.57219535
-4.5570459 4.6849146 -0.57179689
-5.0512681 5.1930051 -0.57318199
-5.6687407 5.8278031 -0.57529891
-6.4452629 6.6261144 -0.57693857
-7.4591985 7.6685009 -0.5784862
-8.8603039 9.1089211 -0.58127099
-10.922877 11.229369 -0.5861609
-14.185737 14.583784 -0.59198022
-20.302965 20.872658 -0.60509938
-35.578228 36.576542 -0.63615477
-1.5006042 1.5052301 -0.56951123
-1.5376812 1.5424213 -0.5642246
-1.6011075 1.6060432 -0.56742769
-1.663312 1.6684394 -0.56870955
-1.7218665 1.7271744 -0.56732202
-1.7916569 1.7971799 -0.56812674
-1.8637625 1.8695079 -0.567994
-1.9381268 1.9441015 -0.56682765
-2.0248697 2.0311117 -0.56738603
-2.1130266 2.1195405 -0.56628269
-2.214896 2.2217238 -0.56661832
-2.3372412 2.3444459 -0.56954777
-2.4596963 2.4672787 -0.56961799
-2.5883873 2.5963664 -0.56817764
-2.7409785 2.749428 -0.56867361
-2.9165359 2.9255266 -0.57006907
-3.1042101 3.1137793 -0.56955588
-3.3197052 3.3299389 -0.56940186
-3.5843527 3.5954022 -0.57202381
-3.8657262 3.8776431 -0.5708859
-4.2058821 4.2188478 -0.57111299
-4.6309886 4.6452641 -0.57386434
-5.1255155 5.1413159 -0.57438982
-5.7382498 5.755939 -0.57512665
-6.5317993 6.5519347 -0.57742941
-7.5592465 7.5825491 -0.57897055
-8.9861832 9.0138845 -0.58221364
-11.056032 11.090115 -0.58594412
-14.395515 14.439892 -0.59327984
-20.586206 20.649668 -0.60592747
-36.089272 36.200523 -0.63728499
-1.5307109 1.4981288 -0.57390261
-1.5577174 1.5245605 -0.56465507
-1.6251101 1.5905187 -0.56895995
-1.6785895 1.6428597 -0.56698316
-1.7438945 1.7067746 -0.56762201
-1.8145202 1.775897 -0.5684092
-1.8811098 1.8410692 -0.5663386
-1.9589987 1.9173002 -0.56599402
-2.063303 2.0193841 -0.57115424
-2.1474016 2.1016927 -0.56852609
-2.2498367 2.2019477 -0.5685873
-2.3635957 2.3132851 -0.56899536
-2.4824464 2.429606 -0.56792492
-2.6375892 2.5814466 -0.57196689
-2.7728972 2.7138743 -0.56832927
-2.941108 2.8785045 -0.56791055
-3.1406045 3.0737548 -0.56925559
-3.378588 3.3066728 -0.57248414
-3.6177111 3.5407059 -0.57035613
-3.9233477 3.8398368 -0.57237923
-4.2732935 4.1823339 -0.57324004
-4.6912541 4.5913978 -0.57429272
-5.1825891 5.0722747 -0.57375282
-5.8112659 5.6875696 -0.57539177
-6.6146326 6.4738359 -0.57767111
-7.6568012 7.4938216 -0.57934088
-9.0951109 8.901516 -0.58213538
-11.208635 10.970052 -0.5868383
-14.572309 14.262128 -0.59329349
-20.84469 20.400997 -0.60610604
-36.586987 35.808212 -0.63825035
-1.5160763 1.4477401 -0.56169879
-1.5877286 1.5161628 -0.5687328
-1.6398879 1.565971 -0.56734926
-1.7039074 1.6271048 -0.56873381
-1.7715895 1.6917362 -0.56982243
-1.8260275 1.7437204 -0.56525445
-1.899032 1.8134344 -0.56497824
-1.9792714 1.890057 -0.5650937
-2.0790589 1.9853467 -0.56871498
-2.1713433 2.0734713 -0.56807154
-2.2629013 2.1609025 -0.56513107
-2.3840787 2.276618 -0.56714422
-2.5109272 2.3977487 -0.56765252
-2.6536193 2.534009 -0.56864309
-2.815372 2.6884708 -0.57021606
-2.9921222 2.8572543 -0.57093376
-3.1869643 3.043314 -0.57083255
-3.4102721 3.2565563 -0.57102442
-3.6551118 3.49036 -0.56944305
-3.9646516 3.7859476 -0.5715701
-4.3252807 4.1303215 -0.57335746
-4.7317734 4.5184917 -0.57240808
-5.2474608 5.0109348 -0.57406974
-5.8955312 5.6297941 -0.57683718
-6.6798868 6.3787951 -0.57647628
-7.7531953 7.4037251 -0.5797022
-9.2106915 8.7955256 -0.58256668
-11.338485 10.82741 -0.58662176
-14.762518 14.097107 -0.59393525
-21.119698 20.16774 -0.60684568
-37.085087 35.413502 -0.63929474
-1.5471065 1.4414222 -0.56658572
-1.6015203 1.492119 -0.56705785
-1.6663688 1.5525377 -0.56986296
-1.7187185 1.6013113 -0.56706232
-1.7915283 1.6691474 -0.56959093
-1.8452845 1.7192314 -0.56462872
-1.9348052 1.8026369 -0.5689835
-2.0109096 1.8735424 -0.56750619
-2.1042259 1.9604844 -0.56896192
-2.2063785 2.0556586 -0.57058126
-2.2975225 2.1405768 -0.56716096
-2.4220164 2.256566 -0.56952518
-2.5490077 2.3748825 -0.5696165
-2.685436 2.5019915 -0.5688253
-2.8429308 2.6487274 -0.56915808
-3.0212433 2.8148594 -0.56984282
-3.2188678 2.9989839 -0.56989861
-3.4510832 3.2153363 -0.57119447
-3.7133639 3.4597006 -0.57184732
-4.020083 3.7454672 -0.57287836
-4.3691549 4.070694 -0.57249486
-4.7934551 4.4660096 -0.57318312
-5.311923 4.9490609 -0.57442087
-5.9540858 5.5473571 -0.5758487
-6.7710514 6.3085146 -0.57760561
-7.8369865 7.3016348 -0.57921028
-9.3191719 8.6825705 -0.58263117
-11.47429 10.690471 -0.58680248
-14.939234 13.918721 -0.59411418
-21.386435 19.925508 -0.60742402
-37.574669 35.007908 -0.64026535
-1.5654635 1.4229734 -0.56685764
-1.6135819 1.4667119 -0.56489998
-1.6796688 1.5267835 -0.56794798
-1.7321738 1.5745094 -0.56507111
-1.8073754 1.6428661 -0.56816357
-1.8681982 1.6981528 -0.5652079
-1.9477634 1.7704759 -0.56634915
-2.0328007 1.8477728 -0.56722903
-2.1374562 1.9429024 -0.57144392
-2.2164812 2.0147345 -0.56674433
-2.3338277 2.1214001 -0.56964058
-2.4496772 2.2267051 -0.56954807
-2.5803397 2.3454742 -0.57013005
-2.7150102 2.4678869 -0.56861877
-2.8846767 2.6221104 -0.5710175
-3.0586467 2.7802453 -0.57040626
-3.2616951 2.964812 -0.57098335
-3.4891367 3.1715515 -0.57099485
-3.7534668 3.4118223 -0.5715192
-4.0690885 3.6987157 -0.57333732
-4.4213367 4.0189018 -0.57281363
-4.8550606 4.4131479 -0.57401741
-5.3773017 4.8878536 -0.57494783
-6.03018 5.4813066 -0.57664585
-6.8523316 6.2286248 -0.57796204
-7.9329882 7.2109189 -0.5797084
-9.4251261 8.5672407 -0.58262509
-11.619365 10.561757 -0.5875355
-15.112773 13.737191 -0.594253
-21.64175 19.671894 -0.60775924
-38.064472 34.5998 -0.64131325
-1.5805392 1.401576 -0.56603312
-1.6210607 1.4375093 -0.56128752
-1.7052481 1.5121642 -0.57026672
-1.7507337 1.5524995 -0.5648554
-1.8255458 1.6188407 -0.56757504
-1.9001794 1.6850237 -0.56857193
-1.9671947 1.7444508 -0.56571919
-2.0720024 1.8373913 -0.5718202
-2.1536577 1.9098006 -0.56945401
-2.2630012 2.0067635 -0.57228649
-2.3555958 2.0888736 -0.56864136
-2.4650514 2.1859355 -0.56683028
-2.6068313 2.3116617 -0.56965971
-2.7345929 2.4249573 -0.56643224
-2.9086878 2.5793393 -0.56944913
-3.0859628 2.7365415 -0.56918204
-3.2859674 2.9138999 -0.56891698
-3.5246766 3.1255803 -0.5704782
-3.7950613 3.3653495 -0.57150835
-4.1041136 3.6394079 -0.57192355
-4.4661531 3.960454 -0.57226729
-4.9116497 4.3555074 -0.57433236
-5.4293895 4.8146243 -0.57414371
-6.0910854 5.4013968 -0.57607514
-6.9322572 6.1473231 -0.57828391
-8.025753 7.1170034 -0.58004826
-9.5498343 8.4685144 -0.58385283
-11.756301 10.425144 -0.58793324
-15.296561 13.564544 -0.59487617
-21.900579 19.420794 -0.60827553
-38.540569 34.176651 -0.6422056
-1.6007456 1.3847117 -0.56712884
-1.6527501 1.4296979 -0.56613004
-1.7112408 1.4802948 -0.56614077
-1.7774361 1.5375565 -0.5673278
-1.8436873 1.5948665 -0.56707525
-1.909724 1.651991 -0.5653069
-1.9868495 1.7187078 -0.56525111
-2.0911171 1.8089038 -0.57091373
-2.1660604 1.8737327 -0.56659847
-2.2733715 1.9665612 -0.56875068
-2.3877876 2.065536 -0.57023811
-2.4888129 2.1529269 -0.56616384
-2.6407309 2.2843425 -0.57088631
-2.7819297 2.4064853 -0.57006484
-2.948374 2.5504668 -0.57103568
-3.1344059 2.7113919 -0.57192439
-3.3430743 2.8918989 -0.57260418
-3.5708964 3.0889745 -0.57176805
-3.8306701 3.3136897 -0.57069147
-4.1485777 3.5886929 -0.57192707
-4.5249395 3.9142616 -0.57358915
-4.9648485 4.2948012 -0.57433432
-5.5004969 4.7581596 -0.57543248
-6.1691232 5.3365493 -0.5772059
-7.011025 6.0648293 -0.57858986
-8.118495 7.0228372 -0.58046591
-9.6568346 8.3535652 -0.58407038
-11.878915 10.275757 -0.58770162
-15.470007 13.382202 -0.59517699
-22.167351 19.175684 -0.60908985
-39.006721 33.742443 -0.64301085
-18.395306 15.912708 3.1507614
-1.6120914 1.3602346 -0.56517994
-1.6832328 1.4202615 -0.57054615
-1.7333696 1.4625655 -0.567469
-1.7924901 1.5124496 -0.56615388
-1.8672394 1.5755208 -0.56831753
-1.9340142 1.6318634 -0.56651443
-2.0069079 1.6933689 -0.564991
-2.0925696 1.7656478 -0.56533998
-2.2002461 1.8565019 -0.56952626
-2.2958252 1.9371488 -0.56836593
-2.4069886 2.0309451 -0.56881654
-2.5323396 2.1367126 -0.57004547
-2.650913 2.2367613 -0.56709862
-2.805563 2.3672502 -0.56889981
-2.9872608 2.5205615 -0.57252103
-3.1547534 2.6618869 -0.56962162
-3.3735352 2.8464882 -0.57178319
-3.5999367 3.0375192 -0.57039422
-3.8819981 3.2755141 -0.57229453
-4.1819 3.5285623 -0.5704962
-4.5652061 3.8519845 -0.57264596
-5.0143352 4.2309461 -0.5739972
-5.561317 4.6924734 -0.57571524
-6.2302723 5.256918 -0.57683551
-7.0831761 5.9765725 -0.5784356
-8.2058525 6.9238534 -0.58058065
-9.7584772 8.2339115 -0.58405012
-12.004637 10.129154 -0.58771509
-15.651967 13.206662 -0.59588462
-22.410557 18.909359 -0.60933745
-39.483398 33.314911 -0.64406693
-20.106068 16.964901 3.1857188
-18.183342 15.342561 3.0819092
-1.6358562 1.3462039 -0.56766516
-1.6905001 1.3911724 -0.56716824
-1.7549465 1.4442075 -0.56867599
-1.8099931 1.4895074 -0.56585443
-1.88696 1.5528462 -0.56846517
-1.9622691 1.6148207 -0.56893146
-2.0422215 1.6806165 -0.56907177
-2.1123078 1.7382928 -0.56485504
-2.2189283 1.8260348 -0.56850708
-2.3244393 1.9128634 -0.56958359
-2.427628 1.9977812 -0.56784582
-2.543741 2.0933344 -0.56677479
-2.6892257 2.2130589 -0.56943011
-2.8398821 2.3370395 -0.56998861
-2.9947472 2.4644835 -0.56810492
-3.1906157 2.6256707 -0.57022417
-3.402019 2.7996418 -0.57073295
-3.639643 2.9951911 -0.5708068
-3.9289873 3.2333028 -0.57331723
-4.2380471 3.487639 -0.57226205
-4.6146746 3.7975788 -0.5729503
-5.0564651 4.1611443 -0.57291937
-5.6091552 4.6159725 -0.57474822
-6.2982235 5.1830311 -0.57718241
-7.1507168 5.8845778 -0.57799834
-8.2915764 6.823432 -0.58066547
-9.8721733 8.1241608 -0.58483166
-12.150553 9.9991198 -0.58879471
-15.811738 13.012039 -0.5958308
-22.664829 18.65169 -0.60996896
-39.949821 32.876122 -0.64503217
-18.043612 14.848727 3.0270507
-1.6526816 1.3263068 -0.56780148
-1.7098755 1.372206 -0.56796473
-1.76151 1.4136436 -0.56512737
-1.8410187 1.4774508 -0.56983113
-1.8961399 1.5216864 -0.56555092
-1.9866453 1.5943187 -0.57027185
-2.0555854 1.6496445 -0.56710035
-2.1426151 1.7194873 -0.56726265
-2.2416391 1.7989559 -0.5686152
-2.3440926 1.8811767 -0.56868821
-2.4574966 1.9721855 -0.56911677
-2.5776441 2.0686059 -0.56861824
-2.711642 2.1761417 -0.56846762
-2.8606265 2.2957044 -0.56844336
-3.0262444 2.4286158 -0.56837189
-3.222492 2.5861082 -0.57019472
-3.4318836 2.7541487 -0.57001853
-3.6753898 2.9495668 -0.57068169
-3.9533734 3.1726537 -0.57113975
-4.2777338 3.4329586 -0.57187766
-4.6744261 3.7513115 -0.57459837
-5.1218557 4.1103816 -0.5745582
-5.6611857 4.5432043 -0.57431185
-6.3664131 5.1091619 -0.5776304
-7.2355847 5.8066878 -0.57904309
-8.3810072 6.7259097 -0.5810926
-9.9428349 7.9793048 -0.58316112
-12.270405 9.8472214 -0.5886904
-15.973366 12.818914 -0.59593654
-22.911894 18.387209 -0.6104871
-40.415871 32.434467 -0.64606869
-17.905474 14.369467 2.9740088
-1.6631299 1.3013989 -0.5658505
-1.7265854 1.3510526 -0.56795394
-1.773232 1.3875537 -0.5633716
-1.8542486 1.4509492 -0.56836081
-1.916299 1.4995035 -0.56602132
-1.9821514 1.551033 -0.56346452
-2.0786569 1.6265485 -0.56790453
-2.1726978 1.7001357 -0.56964928
-2.2528772 1.762876 -0.56592447
-2.3713965 1.8556174 -0.56973362
-2.4821301 1.9422662 -0.56924754
-2.6074767 2.04035 -0.56962156
-2.7496369 2.1515903 -0.57084328
-2.9048569 2.2730501 -0.57163519
-3.0697815 2.4021034 -0.57095808
-3.2647405 2.5546587 -0.57206863
-3.4717264 2.7166252 -0.57104462
-3.7104778 2.9034481 -0.57054323
-3.9998882 3.1299117 -0.57225627
-4.328433 3.3869982 -0.57304436
-4.7170148 3.6910632 -0.574211
-5.1757903 4.050055 -0.57497841
-5.729764 4.4835391 -0.57563239
-6.4198313 5.0235167 -0.5768289
-7.3035626 5.7150364 -0.57881552
-8.4536362 6.6149683 -0.58044463
-10.050994 7.8649006 -0.58378845
-12.393305 9.6977587 -0.58882111
-16.15414 12.640612 -0.59683681
-23.149647 18.114594 -0.6108408
-40.857658 31.971107 -0.64679754
-17.748087 13.887874 2.9192824
-17.154522 13.42341 3.0059247
-1.6739482 1.2769933 -0.56414604
-1.7437543 1.3302457 -0.56817794
-1.8077955 1.3791004 -0.56892198
-1.8791038 1.4334989 -0.57053322
-1.9425305 1.4818848 -0.56834418
-2.0243769 1.5443225 -0.5700267
-2.1075461 1.6077691 -0.57035285
-2.1938524 1.673609 -0.56975693
-2.2873936 1.7449682 -0.56916195
-2.3969607 1.8285528 -0.57043034
-2.499078 1.9064544 -0.56771517
-2.644439 2.0173447 -0.57223386
-2.7774918 2.1188459 -0.57117391
-2.9282618 2.2338626 -0.57079232
-3.0895276 2.3568866 -0.56919736
-3.2881112 2.5083787 -0.57071596
-3.5029433 2.672266 -0.57073134
-3.7396696 2.8528559 -0.56959474
-4.0386386 3.0809281 -0.57233685
-4.3619509 3.3275714 -0.57202148
-4.7649322 3.6349907 -0.57455951
-5.2178159 3.9804788 -0.57416618
-5.767849 4.4000793 -0.57397962
-6.476027 4.9403219 -0.5763762
-7.3709393 5.6230173 -0.57863176
-8.5480757 6.5210114 -0.58137947
-10.156178 7.7477727 -0.58432007
-12.513026 9.5457258 -0.58888787
-16.307901 12.440696 -0.59682059
-23.386612 17.840782 -0.61125863
-41.314457 31.517275 -0.64784485
-17.599136 13.425732 2.8674111
-16.78685 12.806067 2.9136858
-1.7060955 1.2686378 -0.56967974
-1.7604032 1.3090205 -0.56831503
-1.8249454 1.3570136 -0.56902486
-1.8812834 1.398906 -0.56592947
-1.9602274 1.457608 -0.56823486
-2.0244157 1.505338 -0.56478268
-2.1179841 1.5749146 -0.5678938
-2.1968608 1.6335666 -0.56527877
-2.3027205 1.712283 -0.56769371
-2.4224918 1.8013438 -0.57119167
-2.5386684 1.8877318 -0.57139254
-2.6605096 1.9783318 -0.57040429
-2.7859242 2.071589 -0.56762666
-2.9531944 2.1959698 -0.57034576
-3.1309929 2.3281791 -0.57151914
-3.3240705 2.47175 -0.5716387
-3.5367081 2.6298654 -0.57092065
-3.7767708 2.8083739 -0.56994283
-4.0790009 3.0331094 -0.57272804
-4.3995357 3.2714565 -0.57163173
-4.8074226 3.5747578 -0.57433927
-5.2741499 3.9218123 -0.57501513
-5.8406529 4.3430591 -0.57586658
-6.5433221 4.8655572 -0.5769971
-7.4352131 5.52876 -0.57829678
-8.6214542 6.4108386 -0.58096468
-10.26091 7.6299233 -0.5849036
-12.649628 9.4061537 -0.58982873
-16.47835 12.253157 -0.59749925
-23.63154 17.572208 -0.61196649
-41.757961 31.050856 -0.64876306
-17.457367 12.981147 2.8180926
-16.515594 12.280852 2.8401785
-1.722801 1.2484602 -0.57008868
-1.76715 1.2805985 -0.5653668
-1.826328 1.323483 -0.56433892
-1.9118466 1.3854556 -0.56995559
-1.9731785 1.4299009 -0.56684941
-2.0576925 1.4911456 -0.56890804
-2.1461847 1.5552732 -0.57028437
-2.2264802 1.6134608 -0.56775224
-2.3324556 1.6902579 -0.56985736
-2.4368312 1.7658956 -0.56940979
-2.5492249 1.8473438 -0.56861275
-2.6775279 1.940321 -0.56889462
-2.8238883 2.0463836 -0.57019168
-2.9742916 2.1553764 -0.56925857
-3.1497273 2.2825091 -0.56977254
-3.3520684 2.4291394 -0.57127362
-3.5706739 2.5875561 -0.57122421
-3.8140879 2.7639503 -0.5704022
-4.1218648 2.9869866 -0.57354599
-4.4491682 3.2241733 -0.57288593
-4.8369913 3.5052168 -0.57267922
-5.3157501 3.8521583 -0.57434291
-5.8895731 4.2679901 -0.575472
-6.6171827 4.7952662 -0.57826692
-7.5180597 5.4481034 -0.57948607
-8.6946964 6.3007755 -0.58063543
-10.359142 7.506947 -0.58519697
-12.776033 9.2583933 -0.59036976
-16.63586 12.05549 -0.59779024
-23.852526 17.285181 -0.61213875
-42.20174 30.582285 -0.64976615
-17.280178 12.522406 2.7644236
-16.303606 11.814714 2.7785292
-1.7389783 1.2278588 -0.57040262
-1.7786802 1.2558914 -0.56407231
-1.8510039 1.3069578 -0.56695497
-1.9063625 1.3460455 -0.56334376
-1.9887624 1.4042264 -0.5663231
-2.0719278 1.4629478 -0.56782722
-2.1535189 1.5205578 -0.567222
-2.2467296 1.586372 -0.56789869
-2.3518825 1.6606184 -0.56957167
-2.4577484 1.7353684 -0.56926823
-2.5727608 1.8165765 -0.56883711
-2.6998718 1.906327 -0.56861854
-2.8499207 2.0122736 -0.57040876
-2.9960637 2.1154623 -0.56840396
-3.1757805 2.2423568 -0.56945461
-3.3735623 2.3820066 -0.56990182
-3.598901 2.5411139 -0.57069796
-3.8479002 2.7169273 -0.57041949
-4.1487379 2.9293432 -0.57222992
-4.487381 3.1684525 -0.5727464
-4.8927832 3.4546988 -0.57421172
-5.3576722 3.7829483 -0.57380307
-5.9554014 4.2049932 -0.57680821
-6.6757035 4.7135844 -0.57827216
-7.5809579 5.352767 -0.57921702
-8.7871342 6.2044244 -0.58166963
-10.434656 7.3677077 -0.58430082
-12.888644 9.100421 -0.59035784
-16.781193 11.848874 -0.59773183
-24.09479 17.012861 -0.61294097
-42.62619 30.097523 -0.65055388
-16.887718 11.924089 2.6779804
-16.142456 11.397874 2.7269735
-1.7428234 1.1987354 -0.56678605
-1.8095812 1.2446522 -0.56897527
-1.8763534 1.2905788 -0.56981558
-1.9406275 1.3347874 -0.5685761
-2.0163317 1.3868576 -0.56927454
-2.0905089 1.4378777 -0.56803101
-2.1799507 1.4993968 -0.56928462
-2.2749574 1.5647438 -0.57012719
-2.3618639 1.624519 -0.56710839
-2.4746597 1.7021013 -0.56829447
-2.5957744 1.7854055 -0.56902832
-2.7262702 1.8751621 -0.56927902
-2.8720336 1.97542 -0.56992978
-3.0322092 2.0855906 -0.57035291
-3.2057345 2.2049437 -0.5699209
-3.3961642 2.3359234 -0.56882465
-3.6319318 2.4980872 -0.57102162
-3.8807626 2.6692362 -0.57038236
-4.1906791 2.8824008 -0.57308286
-4.5349803 3.1192153 -0.57388282
-4.9370494 3.3957632 -0.57446295
-5.4103732 3.7213211 -0.57450306
-5.9967484 4.1246371 -0.57585698
-6.7156129 4.619081 -0.5767656
-7.6488867 5.2609982 -0.57942057
-8.8557568 6.0910983 -0.5812102
-10.531501 7.2436953 -0.58469182
-12.996731 8.939311 -0.59022915
-16.942537 11.653286 -0.5983296
-24.312834 16.722666 -0.61321044
-43.055546 29.614134 -0.65149981
-17.324312 11.915874 2.546273
-16.999723 11.692618 2.67274
-16.019737 11.018572 2.6831512
-1.7642012 1.1817509 -0.56896961
-1.8109882 1.2130913 -0.56468481
-1.8848221 1.2625489 -0.56762981
-1.9577004 1.3113664 -0.56881076
-2.0266116 1.3575265 -0.56742108
-2.1022103 1.4081665 -0.56646276
-2.1944799 1.4699733 -0.56831563
-2.2861385 1.5313709 -0.56816721
-2.3939579 1.6035937 -0.57003677
-2.5055635 1.6783528 -0.57060885
-2.6166818 1.7527854 -0.56884372
-2.7562125 1.8462502 -0.57074767
-2.8949597 1.9391899 -0.56970429
-3.0567014 2.0475328 -0.57018089
-3.2367811 2.1681592 -0.57065749
-3.4305508 2.297956 -0.5698083
-3.6654141 2.4552791 -0.57149583
-3.9107742 2.6196339 -0.57001579
-4.2369714 2.8381371 -0.57459742
-4.5622234 3.0560071 -0.5725317
-4.9831252 3.3379488 -0.57500488
-5.4507484 3.6511862 -0.57397962
-6.0491524 4.0520277 -0.57606107
-6.7883601 4.5471859 -0.57816756
-7.718647 5.1703391 -0.57984513
-8.9308996 5.9823666 -0.58126998
-10.62223 7.1153054 -0.58482724
-13.11588 8.7856779 -0.5906893
-17.09087 11.448327 -0.59855121
-24.544645 16.441242 -0.61391163
-43.458488 29.110687 -0.6521312
-9.7198744 6.5108619 0.53514636
-9.7252808 6.5144835 0.63297254
-9.7198639 6.5108552 0.73018187
-9.7223377 6.5125122 0.82805568
-9.7345228 6.5206742 0.927019
-9.6987753 6.4967284 1.021309
-9.6804323 6.4844418 1.117029
-9.6825094 6.4858332 1.2150968
-17.926992 12.008404 2.4311714
-17.601576 11.790423 2.5655217
-16.864346 11.29659 2.6294174
-15.872509 10.632207 2.6363952
-15.658734 10.48901 2.7606976
-1.77968 1.1606754 -0.56931573
-1.8367804 1.1979153 -0.56809115
-1.8983915 1.238097 -0.5670886
-1.9806528 1.2917463 -0.57082134
-2.0519612 1.3382523 -0.56986815
-2.1199727 1.3826082 -0.56662506
-2.2061236 1.4387944 -0.56670642
-2.3042095 1.5027641 -0.56802297
-2.4138832 1.5742913 -0.57012868
-2.5193269 1.6430598 -0.56909907
-2.6378314 1.7203463 -0.56879973
-2.7701604 1.8066491 -0.56899267
-2.9154072 1.9013764 -0.56908417
-3.0834324 2.0109594 -0.57051146
-3.2640004 2.1287227 -0.57079834
-3.4676993 2.2615714 -0.5713163
-3.690356 2.4067841 -0.57072723
-3.9529519 2.5780444 -0.57149965
-4.2585602 2.7773566 -0.57285041
-4.6077585 3.0050976 -0.57356548
-5.0174799 3.2723105 -0.57428259
-5.4920549 3.5818198 -0.57364798
-6.0865736 3.9695542 -0.57493287
-6.8387713 4.460124 -0.57774633
-7.7802644 5.0741487 -0.57974297
-9.0146008 5.8791609 -0.58196855
-10.73003 6.9979334 -0.58598047
-13.211251 8.6161413 -0.59016836
-17.24757 11.248556 -0.59914976
-24.74684 16.139446 -0.61395872
-43.880589 28.618134 -0.65313518
-9.7325754 6.3474112 0.24146111
-9.7486029 6.3578639 0.338649
-9.789649 6.3846335 0.43731973
-9.8315964 6.4119911 0.5369159
-9.8800058 6.443563 0.63783777
-9.8981314 6.4553838 0.73755485
-9.9003925 6.4568582 0.8363952
-9.8875427 6.4484782 0.93396938
-9.8599148 6.4304595 1.0298731
-9.8259335 6.4082975 1.1246407
-9.7572336 6.3634925 1.2145628
-9.7173996 6.3375139 1.3071592
-9.6606207 6.3004837 1.3966882
-16.733685 10.913409 2.5879261
-15.744293 10.268147 2.5939307
-15.357987 10.016204 2.6857574
-1.7840626 1.1325138 -0.56622005
-1.8472657 1.1726347 -0.56683159
-1.8955477 1.2032839 -0.5617767
-1.983096 1.2588592 -0.56702149
-2.0646844 1.3106511 -0.56888282
-2.1360824 1.3559742 -0.56643146
-2.2254062 1.4126765 -0.56715459
-2.3274703 1.4774661 -0.56923544
-2.4452531 1.5522342 -0.57298648
-2.5417666 1.6135005 -0.56964326
-2.6697979 1.6947739 -0.57115585
-2.8053646 1.780831 -0.57168251
-2.9387538 1.8655058 -0.56912071
-3.0898407 1.9614149 -0.56719178
-3.300416 2.0950871 -0.57261807
-3.4912057 2.2161994 -0.57065618
-3.733047 2.369719 -0.57277977
-3.9869196 2.5308759 -0.571868
-4.2942119 2.7259436 -0.57309389
-4.6422896 2.9469016 -0.57330984
-5.0724716 3.2199788 -0.57600135
-5.5439348 3.5192614 -0.57450342
-6.1438293 3.9000711 -0.5757677
-6.8884721 4.3727665 -0.57735896
-7.8394785 4.9764605 -0.5795517
-9.0997047 5.7764454 -0.58283305
-10.80363 6.858089 -0.58535022
-13.320521 8.4557981 -0.59036022
-17.386742 11.037014 -0.59922451
-24.98304 15.859105 -0.61493409
-44.300907 28.121988 -0.65419489
-9.7903166 6.2148423 0.04818923
-9.7566185 6.1934509 0.14407672
-9.808959 6.2266765 0.24143831
-9.9077778 6.2894063 0.3414661
-10.008256 6.3531895 0.44356194
-10.102534 6.4130368 0.54736423
-10.175381 6.4592791 0.65172976
-10.206367 6.4789495 0.75452948
-10.229857 6.4938607 0.857418
-10.209093 6.4806795 0.956743
-10.174483 6.4587092 1.0543549
-10.106616 6.415628 1.1476505
-10.017255 6.3589015 1.237103
-9.8888178 6.2773705 1.3197348
-9.7732792 6.2040272 1.4018406
-9.6789961 6.144177 1.4850959
-15.617389 9.9138384 2.5527453
-15.130554 9.6047983 2.6251323
-1.7988081 1.1110823 -0.56652093
-1.854766 1.1456462 -0.56476766
-1.9290409 1.1915241 -0.56731784
-2.0000985 1.2354147 -0.56749642
-2.0772135 1.283047 -0.567945
-2.160902 1.3347393 -0.56861782
-2.2484665 1.3888259 -0.56863624
-2.3542514 1.4541669 -0.57136899
-2.45067 1.5137224 -0.5698511
-2.5473478 1.573438 -0.56651515
-2.6832652 1.6573911 -0.56963396
-2.8295729 1.747762 -0.57219297
-2.9723525 1.8359536 -0.57121217
-3.1258812 1.9307847 -0.56940633
-3.30825 2.0434299 -0.56957471
-3.517417 2.1726274 -0.57053059
-3.756669 2.3204079 -0.57198304
-4.0133324 2.4789429 -0.57124108
-4.3319979 2.6757753 -0.57370228
-4.6776056 2.8892493 -0.57324034
-5.1050844 3.1532929 -0.5752582
-5.5756416 3.4439452 -0.57335728
-6.2016158 3.830595 -0.5767253
-6.9415421 4.2876306 -0.57734442
-7.8952541 4.8767161 -0.57919812
-9.1660566 5.6616621 -0.58257979
-10.902616 6.7342944 -0.58618242
-13.438004 8.3003454 -0.59099883
-17.521873 10.822857 -0.59924978
-25.177397 15.551497 -0.6149646
-44.680737 27.598261 -0.65474302
-9.8246422 6.0684552 -0.047987271
-9.7763844 6.0386472 0.047751557
-9.8440285 6.0804296 0.14425251
-10.007835 6.1816092 0.24444403
-10.207948 6.3052139 0.34911281
-10.367235 6.4036021 0.45594746
-10.463784 6.4632382 0.56258851
-10.511243 6.4925523 0.66807771
-10.896282 6.7303824 0.79935437
-10.888227 6.7254066 0.90559947
-10.874594 6.7169857 1.0112934
-10.501935 6.4868031 1.0799404
-10.445356 6.4518557 1.177018
-10.324035 6.3769183 1.26521
-10.211353 6.3073177 1.3523268
-10.015583 6.1863947 1.4255767
-9.8168783 6.0636592 1.4946984
-9.6855497 5.9825411 1.5710115
-14.9329 9.2237082 2.5709672
-1.8138131 1.08977 -0.56698346
-1.8680925 1.122382 -0.56458038
-1.9511266 1.1722703 -0.56953073
-2.0197814 1.2135192 -0.5688042
-2.0996971 1.2615339 -0.56980795
-2.1621566 1.2990607 -0.56470191
-2.2585337 1.3569658 -0.56691957
-2.3679154 1.4226841 -0.5703963
-2.4679377 1.4827791 -0.56958354
-2.5837409 1.5523559 -0.57032049
-2.7097776 1.6280808 -0.57096916
-2.838048 1.7051479 -0.56962371
-2.9810178 1.7910466 -0.56860209
-3.1559334 1.8961388 -0.57059026
-3.3332319 2.0026629 -0.56959301
-3.5407956 2.1273706 -0.57003653
-3.7819223 2.2722437 -0.57153064
-4.0574288 2.4377725 -0.57320762
-4.3580918 2.6184163 -0.5728507
-4.7167978 2.8339329 -0.57372946
-5.1352487 3.0853455 -0.57433873
-5.6329041 3.3843453 -0.5749228
-6.2552137 3.7582395 -0.57736844
-6.997004 4.2039199 -0.57761419
-7.9679198 4.7872629 -0.58016658
-9.238904 5.5508919 -0.58282757
-10.972628 6.5925426 -0.58554387
-13.533394 8.1310949 -0.59075212
-17.684719 10.625282 -0.60030538
-25.379478 15.248425 -0.61527419
-10.058852 6.0435305 -0.14630045
-9.7802896 5.8761659 -0.047414124
-9.8071537 5.8923059 0.04754436
-10.020075 6.0202327 0.14573647
-10.361823 6.2255607 0.25120145
-11.139251 6.6926527 0.37812036
-11.166801 6.7092056 0.48744696
-11.190022 6.7231569 0.59714496
-11.21827 6.740129 0.70769405
-11.205332 6.7323551 0.81589162
-11.201035 6.729774 0.9246639
-11.180813 6.7176242 1.0320108
-11.123666 6.6832891 1.1353379
-11.067264 6.6494017 1.2377896
-10.991951 6.6041522 1.33701
-10.530286 6.326776 1.3841565
-10.368998 6.2298713 1.4648657
-10.082757 6.0578928 1.5237236
-9.7567425 5.8620181 1.5707486
-9.6587791 5.8031597 1.6505221
-1.820933 1.0637974 -0.56507736
-1.8861985 1.1019258 -0.56591457
-1.960113 1.145107 -0.56800079
-2.0202787 1.1802561 -0.56481451
-2.109946 1.2326401 -0.56843299
-2.1943116 1.2819269 -0.56893998
-2.2784581 1.3310857 -0.56776941
-2.3811946 1.3911048 -0.56943148
-2.4835644 1.4509097 -0.56902951
-2.5928655 1.5147638 -0.56818008
-2.7046952 1.5800953 -0.56576151
-2.8495984 1.6647484 -0.56779045
-3.0086246 1.7576523 -0.56970233
-3.1849961 1.8606894 -0.57166493
-3.3618727 1.9640214 -0.57031715
-3.5728171 2.0872562 -0.57101655
-3.8066316 2.2238517 -0.57108909
-4.0871177 2.387713 -0.57321066
-4.3752508 2.5560417 -0.57093161
-4.7561364 2.7785568 -0.57431519
-5.1677189 3.0190051 -0.57377493
-5.6756334 3.315731 -0.57507914
-6.2958388 3.6780579 -0.57690001
-7.0552874 4.1217313 -0.5781979
-8.0113115 4.6802449 -0.57909185
-9.3128185 5.4405909 -0.58322591
-11.063146 6.4631405 -0.58608896
-13.642062 7.9697552 -0.59117311
-17.808863 10.404019 -0.60013133
-25.598175 14.954572 -0.61607146
-9.9175854 5.7938986 -0.14319877
-9.7744484 5.7102776 -0.047041845
-9.8553886 5.7575636 0.047431391
-10.413404 6.0835581 0.15035781
-11.419336 6.6712284 0.27482924
-11.47476 6.7036076 0.38668182
-11.510926 6.7247357 0.4988212
-11.516245 6.7278433 0.61009264
-11.544171 6.7441578 0.72296697
-11.542196 6.7430038 0.83431923
-11.535298 6.7389741 0.9453457
-11.499776 6.7182221 1.0537469
-11.446013 6.6868134 1.1597584
-11.375689 6.6457291 1.2630495
-11.285671 6.5931411 1.3627726
-11.169317 6.5251665 1.4574974
-11.033985 6.446105 1.547496
-10.42197 6.088563 1.5635538
-9.8852711 5.7750206 1.5798886
-9.6560917 5.6411333 1.6380855
-1.839769 1.0446743 -0.5668934
-1.9058516 1.0821979 -0.56777561
-1.9761876 1.1221367 -0.5686174
-2.0432343 1.1602077 -0.56720084
-2.1241519 1.2061551 -0.56822151
-2.2165916 1.2586451 -0.57066077
-2.3069959 1.3099792 -0.57082361
-2.386209 1.3549588 -0.56660348
-2.4900863 1.4139433 -0.56649739
-2.6105003 1.4823179 -0.56800741
-2.7333391 1.5520693 -0.56771809
-2.8711452 1.6303196 -0.56804633
-3.02513 1.7177566 -0.56878507
-3.2037451 1.8191795 -0.57097197
-3.3917174 1.9259156 -0.57131946
-3.6009104 2.0447013 -0.57144493
-3.8449721 2.1832869 -0.57277012
-4.1168103 2.3376443 -0.5733003
-4.4203887 2.510025 -0.57275087
-4.7831941 2.7160363 -0.57350618
-5.2174587 2.9626245 -0.57520926
-5.7145853 3.2449074 -0.57493955
-6.3455596 3.603193 -0.57735252
-7.1023111 4.0328984 -0.57794386
-8.0848083 4.5907888 -0.58028013
-9.3731556 5.32235 -0.58286196
-11.144448 6.3281412 -0.58622944
-13.760017 7.8133373 -0.59207648
-17.923586 10.177532 -0.59973472
-25.787449 14.642862 -0.61624676
-9.9259253 5.6362281 -0.14230773
-9.7707691 5.5481262 -0.046692271
-9.8378038 5.5861902 0.047012612
-11.687939 6.6367507 0.16756968
-11.765511 6.6807985 0.28116226
-11.833233 6.7192531 0.39594758
-11.865542 6.7375994 0.51055956
-11.876592 6.7438736 0.62474227
-11.868519 6.7392893 0.73803401
-11.873978 6.7423892 0.85224456
-11.869123 6.7396321 0.96583867
-11.811652 6.7069993 1.0746865
-11.747482 6.6705618 1.1819042
-11.661041 6.6214781 1.2855951
-11.564275 6.5665307 1.3865595
-11.42632 6.4881964 1.4805112
-11.300086 6.4165168 1.5736314
-11.126134 6.3177419 1.6574157
-10.181287 5.7812304 1.6157149
-9.6718159 5.4919381 1.6291736
-9.9021816 5.622746 1.7647682
-1.840817 1.015543 -0.56332588
-1.9074476 1.0523018 -0.56435353
-1.9966207 1.1014968 -0.57055634
-2.0459311 1.1287004 -0.56405401
-2.1411679 1.1812407 -0.5688448
-2.2182584 1.2237701 -0.56717294
-2.3251324 1.2827303 -0.57136524
-2.4021063 1.3251953 -0.56646621
-2.5243983 1.3926615 -0.57036436
-2.6274328 1.4495037 -0.56777054
-2.7614541 1.5234406 -0.56962371
-2.8974714 1.5984786 -0.569323
-3.0581996 1.6871493 -0.57105899
-3.2262657 1.779868 -0.57104182
-3.4002218 1.8758363 -0.56882358
-3.637991 2.0070088 -0.57336962
-3.8727393 2.1365151 -0.57294959
-4.1315084 2.2792728 -0.57140088
-4.4565639 2.4585996 -0.57347757
-4.8159785 2.6568818 -0.57347655
-5.2397723 2.8906806 -0.57370716
-5.7608285 3.1781373 -0.57561672
-6.3738208 3.5163131 -0.57594627
-7.1569901 3.9483724 -0.57839882
-8.1419163 4.4917369 -0.58037084
-9.4435778 5.2098379 -0.58321327
-11.236467 6.1989408 -0.58701593
-13.853371 7.6426353 -0.59200484
-18.058273 9.9623985 -0.60009712
-10.546222 5.8181458 -0.25029615
-9.9449701 5.4864464 -0.14160284
-9.8031778 5.4082227 -0.046525829
-9.7853222 5.3983722 0.046441086
-12.035845 6.6399417 0.17137407
-12.11315 6.6825891 0.28748444
-12.16466 6.7110062 0.40424556
-12.20741 6.734591 0.521667
-12.217533 6.7401752 0.63826877
-12.23922 6.75214 0.75586563
-12.229199 6.7466121 0.87172002
-12.192915 6.726594 0.98538178
-12.139862 6.6973262 1.0969728
-12.075593 6.66187 1.2065822
-11.975204 6.6064873 1.3111752
-11.87283 6.5500102 1.4137917
-11.720932 6.4662099 1.5082676
-11.559514 6.3771596 1.598718
-11.364526 6.269588 1.6813165
-9.7027035 5.3527932 1.5292054
-9.6948404 5.3484554 1.6218512
-9.9975843 5.5154729 1.7695501
-1.8689183 1.0012724 -0.56811476
-1.9332032 1.0357131 -0.5681628
-2.0034366 1.0733407 -0.56868953
-2.0842223 1.1166215 -0.57078218
-2.1554301 1.154771 -0.56881845
-2.2412257 1.200736 -0.56922716
-2.322716 1.2443944 -0.56696838
-2.4261651 1.2998172 -0.56832761
-2.5506854 1.366529 -0.57246387
-2.6546183 1.4222109 -0.56982297
-2.7878315 1.49358 -0.57123315
-2.9196982 1.5642275 -0.56986791
-3.0706806 1.6451163 -0.56956911
-3.2403262 1.7360039 -0.56970912
-3.4372096 1.8414841 -0.57118005
-3.6478288 1.9543233 -0.57108951
-3.8973539 2.0880063 -0.57274944
-4.1725645 2.2354503 -0.57323408
-4.4815021 2.4009635 -0.57284421
-4.8617911 2.6047032 -0.57507443
-5.2871742 2.832602 -0.57504004
-5.7967501 3.1056073 -0.57534677
-6.4171262 3.4379735 -0.5759958
-7.19943 3.8570926 -0.57795197
-8.2051401 4.3959017 -0.5809806
-9.5109577 5.0954928 -0.58346087
-11.310005 6.0593319 -0.5869208
-13.953936 7.4758167 -0.5923292
-18.194864 9.7478933 -0.60060751
-10.51411 5.6329312 -0.2478714
-10.044423 5.3812971 -0.142066
-9.8924742 5.29989 -0.046636809
-9.7781363 5.2386336 0.046097778
-9.7811604 5.2402539 0.13834247
-12.463054 6.6770773 0.29381797
-12.52023 6.7077098 0.4132894
-12.551667 6.7245522 0.53280449
-12.571076 6.7349505 0.65236276
-12.584616 6.7422047 0.77201807
-12.559901 6.7289634 0.88932776
-12.534342 6.71527 1.0062251
-12.457799 6.6742625 1.1182015
-12.373589 6.6291461 1.2281199
-12.275086 6.5763741 1.3350546
-12.143889 6.5060854 1.4364337
-12.005384 6.4318814 1.5345782
-11.812459 6.3285213 1.6228158
-9.7324114 5.2141366 1.4302609
-9.6848888 5.1886764 1.5162274
-9.8092718 5.2553148 1.6300607
-10.346117 5.5429292 1.8190383
-10.625624 5.6926746 1.9709073
-1.8842857 0.97988015 -0.56908041
-1.9437343 1.0107951 -0.56756204
-2.0117986 1.0461904 -0.56736857
-2.0953457 1.0896373 -0.57011598
-2.1605597 1.1235502 -0.56648338
-2.248486 1.1692743 -0.56737649
-2.3290172 1.2111527 -0.56482852
-2.4438837 1.2708864 -0.56877446
-2.5517216 1.3269651 -0.56899124
-2.6670339 1.3869307 -0.56878424
-2.8012099 1.4567059 -0.570261
-2.9421105 1.529978 -0.5705272
-3.0924668 1.6081675 -0.56989914
-3.2625716 1.6966265 -0.56990916
-3.45979 1.7991856 -0.57121277
-3.6709237 1.9089808 -0.57098699
-3.9170165 2.0369558 -0.57191485
-4.1952214 2.1816299 -0.57261795
-4.5069823 2.3437543 -0.57237405
-4.8848934 2.5402784 -0.5740689
-5.3143563 2.7636108 -0.57425702
-5.8397622 3.0368364 -0.57586598
-6.4680719 3.3635745 -0.57681262
-7.2605314 3.7756753 -0.57908618
-8.2557068 4.2931933 -0.58077914
-9.5677767 4.9755058 -0.58314919
-11.384352 5.9201746 -0.5869568
-14.044304 7.3034229 -0.59230834
-18.342447 9.5385742 -0.60156196
-10.646081 5.5362539 -0.24935888
-10.183786 5.2958479 -0.14310525
-10.002295 5.2014675 -0.046849474
-9.870513 5.132937 0.04623222
-9.793293 5.0927806 0.13761793
-9.7630301 5.0770431 0.22867551
-12.837385 6.6757917 0.42101702
-12.893263 6.7048497 0.543764
-12.899596 6.7081432 0.66508013
-12.898732 6.7076941 0.78616858
-12.883575 6.6998119 0.90634429
-12.826061 6.6699028 1.0229821
-12.765477 6.6383977 1.1384054
-12.666821 6.5870938 1.2490904
-12.554919 6.5289021 1.3566555
-12.418654 6.4580402 1.4594306
-12.252949 6.3718691 1.55609
-9.700882 5.0447245 1.3241017
-9.7104549 5.0497026 1.4178019
-9.8256998 5.109633 1.5283202
-10.016877 5.2090502 1.6537905
-10.656141 5.5414853 1.8614252
-10.793865 5.6131058 1.989161
-1.8935502 0.95530528 -0.56828773
-1.9631586 0.99042308 -0.56963468
-2.0245359 1.0213882 -0.56737584
-2.1001699 1.0595459 -0.5678407
-2.1832249 1.1014476 -0.56883192
-2.2642581 1.1423293 -0.56776899
-2.3536525 1.1874291 -0.56721908
-2.4602432 1.2412046 -0.56898677
-2.5848341 1.3040613 -0.57275587
-2.6806276 1.3523896 -0.56809384
-2.8177149 1.4215509 -0.57001942
-2.9564795 1.4915583 -0.56971389
-3.1176598 1.5728745 -0.57093441
-3.2925642 1.6611147 -0.57153708
-3.4753206 1.7533162 -0.57017422
-3.6952748 1.8642842 -0.5711658
-3.9432836 1.9894058 -0.57213503
-4.2233224 2.1306868 -0.57283419
-4.5253611 2.2830667 -0.57109964
-4.9223285 2.4833386 -0.57483613
-5.3450875 2.6966226 -0.5739513
-5.8677087 2.9602876 -0.57498878
-6.5120406 3.2853563 -0.5770874
-7.307611 3.6867254 -0.57918161
-8.3058615 4.1903477 -0.58063883
-9.6358337 4.8613248 -0.58360976
-11.450885 5.7770271 -0.58668029
-14.13061 7.1289611 -0.59220636
-18.445093 9.3056393 -0.60113019
-10.847045 5.4723868 -0.25247076
-10.354874 5.2240844 -0.1445958
-10.140075 5.1157169 -0.047196604
-10.01844 5.0543518 0.046630461
-9.9216156 5.0055032 0.13854577
-9.8528347 4.9708028 0.22932997
-9.7946291 4.9414382 0.3192094
-9.7667837 4.9273896 0.40932074
-9.7421646 4.9149694 0.49913487
-9.7680693 4.9280381 0.59161878
-13.203234 6.6610956 0.92299992
-13.145266 6.6318502 1.0418584
-13.064236 6.5909705 1.1577332
-9.7730608 4.9305568 0.95768219
-9.7206821 4.9041314 1.0437992
-9.7107372 4.8991141 1.134033
-9.7325668 4.9101272 1.228248
-9.7997971 4.9440455 1.3292043
-9.9099636 4.9996247 1.4378467
-10.029434 5.0598979 1.5502146
-10.319072 5.2060218 1.6929859
-10.963283 5.5310292 1.9030524
-11.064322 5.5820045 2.0262001
-1.9007491 0.92979652 -0.56697404
-1.9731261 0.96520144 -0.56904
-2.0396955 0.99776548 -0.56814295
-2.112565 1.0334113 -0.56771338
-2.1916845 1.0721146 -0.56755829
-2.2882655 1.1193594 -0.57029438
-2.369005 1.158855 -0.56744188
-2.4707465 1.2086244 -0.56793588
-2.5851912 1.2646077 -0.56934631
-2.7059724 1.3236907 -0.56997252
-2.8402109 1.3893566 -0.57107103
-2.9646049 1.4502069 -0.56780046
-3.1377952 1.534927 -0.57112223
-3.3101969 1.6192614 -0.57109839
-3.494072 1.7092083 -0.56975943
-3.711895 1.8157616 -0.5702405
-3.9773161 1.9455986 -0.57355833
-4.2562633 2.0820522 -0.5737862
-4.577836 2.2393572 -0.57420355
-4.9368806 2.4149926 -0.57302439
-5.3806462 2.632071 -0.57425082
-5.9069972 2.8895478 -0.57531345
-6.5610709 3.2095037 -0.57789129
-7.3509583 3.5958958 -0.57906896
-8.3553934 4.0872388 -0.58054411
-9.6907501 4.7404604 -0.58336127
-11.538703 5.6444306 -0.58757919
-14.237209 6.964469 -0.59304005
-18.573639 9.0857363 -0.60163295
-11.112264 5.4358277 -0.25706866
-10.564257 5.167757 -0.14662121
-10.345819 5.0609026 -0.047860961
-10.20668 4.9928403 0.047217295
-10.098254 4.9398007 0.14015356
-10.015725 4.8994298 0.23170157
-9.9528809 4.8686881 0.32239139
-9.8890877 4.837482 0.41192237
-9.8626423 4.8245459 0.50223005
-9.8250151 4.8061395 0.59144372
-9.8163223 4.8018875 0.68205148
-9.8117476 4.7996492 0.77291667
-9.7977543 4.7928042 0.86297458
-9.8121653 4.7998538 0.95565832
-9.8334942 4.810287 1.049482
