# .PCD v0.7 - Point Cloud Data file format
VERSION 0.7
FIELDS x y z
SIZE 4 4 4
TYPE F F F
COUNT 1 1 1
WIDTH 1441
HEIGHT 1
VIEWPOINT 0 0 0 1 0 0 0
POINTS 1441
DATA ascii
-2.8363748 -1.38748 -0.57029969
-2.9777207 -1.4566227 -0.57031244
-3.1304514 -1.5313346 -0.56978554
-3.3158069 -1.6220056 -0.57206625
-3.4931202 -1.7087426 -0.56960422
-3.7221417 -1.820774 -0.57181466
-3.970242 -1.9421382 -0.5725382
-4.2363768 -2.0723243 -0.5711053
-4.5639753 -2.2325768 -0.57246494
-4.9466882 -2.4197898 -0.57416272
-5.3988786 -2.6409898 -0.57619667
-5.9166722 -2.8942807 -0.5762558
-6.5625176 -3.2102113 -0.57801872
-7.3383946 -3.5897498 -0.57807922
-8.3617105 -4.0903292 -0.58098304
-9.6961794 -4.7431164 -0.58368808
-11.544796 -5.6474113 -0.58788943
-14.26601 -6.9785576 -0.59423971
-18.613075 -9.1050282 -0.6029104
-26.826847 -13.12299 -0.62060636
-47.900276 -23.431557 -0.66480738
-15.821204 -7.7393179 1.9844729
-12.549641 -6.1389546 1.6918151
-12.017192 -5.8784947 1.7329677
-11.661166 -5.7043366 1.7914487
-11.357417 -5.5557499 1.8519925
-11.085727 -5.4228468 1.9125875
-10.945599 -5.3542995 1.9922507
-10.939291 -5.3512139 2.0951643
-1.906715 -0.96194702 -0.57223874
-1.9436507 -0.98058128 -0.5639742
-2.0190151 -1.0186028 -0.56582856
-2.1022635 -1.0606022 -0.56840676
-2.1881824 -1.1039486 -0.57012355
-2.2596667 -1.1400129 -0.56661761
-2.3584728 -1.1898609 -0.56838071
-2.4654953 -1.2438544 -0.57020146
-2.5645254 -1.2938155 -0.56825578
-2.6865425 -1.3553737 -0.56934738
-2.8031452 -1.4142003 -0.56707197
-2.960983 -1.4938303 -0.57058173
-3.1040227 -1.5659946 -0.5684371
-3.2915092 -1.6605823 -0.57135397
-3.48014 -1.7557474 -0.57096493
-3.6996434 -1.8664881 -0.571841
-3.9385417 -1.9870135 -0.57144701
-4.2232323 -2.1306412 -0.57282192
-4.538054 -2.2894702 -0.57270151
-4.914782 -2.4795313 -0.57395488
-5.3610816 -2.7046916 -0.57566875
-5.8683271 -2.9605997 -0.5750494
-6.5174723 -3.2880964 -0.57756877
-7.3153381 -3.6906235 -0.57979405
-8.3076601 -4.1912546 -0.58076447
-9.6364088 -4.8616152 -0.58364457
-11.47428 -5.7888303 -0.58787894
-14.164815 -7.1462183 -0.59363991
-18.486313 -9.3264351 -0.60247356
-26.621597 -13.430725 -0.61963183
-47.542027 -23.985184 -0.66387844
-15.661186 -7.9011445 1.6816858
-15.581737 -7.8610616 1.8196563
-15.523747 -7.8318062 1.9590938
-12.674853 -6.3945251 1.7191652
-12.128974 -6.1191263 1.7598052
-11.731512 -5.9186049 1.8132989
-11.399617 -5.7511621 1.8702642
-11.139828 -5.6200976 1.9336981
-11.006653 -5.5529103 2.0156393
-11.002144 -5.5506349 2.1201143
-1.8861105 -0.98082918 -0.56963158
-1.9388945 -1.0082783 -0.56614882
-1.999671 -1.0398837 -0.56394833
-2.0885508 -1.0861037 -0.56826717
-2.1707864 -1.1288683 -0.56916469
-2.2508469 -1.1705021 -0.56797224
-2.3381927 -1.2159243 -0.56705374
-2.449652 -1.2738861 -0.57011694
-2.5528359 -1.3275447 -0.56923974
-2.6683702 -1.3876257 -0.56906927
-2.7976842 -1.4548724 -0.56954324
-2.9359851 -1.5267928 -0.56933939
-3.0945356 -1.6092433 -0.57028037
-3.2788794 -1.7051071 -0.57275784
-3.4680645 -1.8034885 -0.57257885
-3.6665113 -1.9066863 -0.5703007
-3.9095473 -2.0330718 -0.57082427
-4.1971006 -2.1826072 -0.57287449
-4.5248756 -2.3530593 -0.57464647
-4.894774 -2.5454164 -0.57523
-5.3204241 -2.7667663 -0.57491273
-5.8472986 -3.0407555 -0.57660913
-6.480814 -3.3702009 -0.57794893
-7.2567821 -3.7737255 -0.57878709
-8.257575 -4.2941651 -0.58091062
-9.5803328 -4.9820356 -0.58391452
-11.398577 -5.9275718 -0.58769023
-14.067294 -7.3153787 -0.59327793
-18.372257 -9.5540771 -0.60253966
-26.45854 -13.759166 -0.61972773
-47.194019 -24.542183 -0.6631828
-15.099859 -7.8523402 1.6316558
-14.806561 -7.6998177 1.7400557
-14.749347 -7.6700644 1.8731254
-12.850133 -6.6824207 1.753952
-12.246049 -6.3682814 1.7880183
-11.820803 -6.147141 1.8386447
-11.454052 -5.9564209 1.8910687
-11.203724 -5.8262434 1.9570774
-11.057945 -5.7504349 2.0378273
-11.077374 -5.7605381 2.1480987
-1.8764377 -1.0053009 -0.57040048
-1.9391561 -1.0389023 -0.56991231
-1.9931623 -1.0678362 -0.56577307
-2.0755939 -1.1119989 -0.56841922
-2.159904 -1.1571679 -0.5699991
-2.2418935 -1.2010938 -0.56939673
-2.3409357 -1.2541556 -0.57141578
-2.4233925 -1.298332 -0.56767821
-2.5410359 -1.3613592 -0.57029814
-2.6615369 -1.4259176 -0.57130808
-2.7851713 -1.4921547 -0.57068801
-2.9194312 -1.5640844 -0.56981575
-3.080214 -1.6502239 -0.57133746
-3.2444208 -1.7381976 -0.57042903
-3.4336295 -1.8395661 -0.57058507
-3.6565082 -1.9589733 -0.57244831
-3.8945131 -2.0864842 -0.57233196
-4.1661263 -2.2320011 -0.57234961
-4.4874444 -2.4041471 -0.57360381
-4.8553081 -2.6012299 -0.57430762
-5.2854605 -2.8316839 -0.57485366
-5.8072495 -3.1112323 -0.57638884
-6.4366646 -3.448441 -0.57774955
-7.2100782 -3.8627975 -0.57880676
-8.2187948 -4.4032168 -0.58194745
-9.5075855 -5.0936861 -0.58325404
-11.312387 -6.0606079 -0.58704442
-13.97716 -7.4882593 -0.59331506
-18.250734 -9.7778263 -0.6024518
-26.263498 -14.070662 -0.61916512
-46.838562 -25.093746 -0.6624738
-14.356443 -7.6914601 1.6981444
-14.099166 -7.5536242 1.802214
-13.038089 -6.9851522 1.791195
-12.353641 -6.6184592 1.8154728
-11.901164 -6.3760452 1.8631985
-11.531973 -6.1782513 1.9163314
-11.248832 -6.0265584 1.9777521
-11.097551 -5.9455099 2.0584433
-11.149437 -5.9733076 2.1761518
-1.8562965 -1.0240828 -0.56806296
-1.92457 -1.0617479 -0.5694195
-1.9857779 -1.095515 -0.56745785
-2.0662525 -1.1399113 -0.56965655
-2.135931 -1.1783516 -0.56745356
-2.2289546 -1.2296709 -0.56990772
-2.3117526 -1.275349 -0.56807733
-2.415442 -1.3325523 -0.56961101
-2.5110121 -1.3852766 -0.56733984
-2.6372442 -1.4549164 -0.56989068
-2.7657635 -1.525818 -0.57051265
-2.8971627 -1.5983084 -0.56926239
-3.054589 -1.6851574 -0.5703848
-3.2201862 -1.7765142 -0.56996578
-3.4093874 -1.8808928 -0.57035691
-3.630939 -2.0031185 -0.57225817
-3.8673213 -2.1335261 -0.57214803
-4.1185665 -2.2721331 -0.56961101
-4.4516659 -2.4558976 -0.57284725
-4.8119559 -2.6546626 -0.57299757
-5.2451577 -2.8936515 -0.57429677
-5.7580643 -3.1766121 -0.57534051
-6.3661165 -3.5120628 -0.57525009
-7.1601243 -3.9501016 -0.57865214
-8.1489859 -4.4956374 -0.58087486
-9.4495354 -5.2131248 -0.58358121
-11.244391 -6.2033124 -0.58742988
-13.885836 -7.6605453 -0.59339219
-18.131409 -10.002746 -0.6025275
-26.06234 -14.378086 -0.61854404
-46.478451 -25.641258 -0.66178989
-13.781237 -7.6028404 1.7733909
-13.250902 -7.3102651 1.8326424
-12.472455 -6.8808112 1.8452283
-11.97788 -6.6079636 1.8877871
-11.592744 -6.3954916 1.9393517
-11.307069 -6.2378898 2.0013258
-11.149522 -6.1509743 2.0819552
-11.226156 -6.1932526 2.2058232
-1.840853 -1.0452898 -0.56722742
-1.9125918 -1.0860252 -0.56978363
-1.9823771 -1.1256512 -0.57039833
-2.0366702 -1.1564804 -0.56537867
-2.1164067 -1.2017572 -0.56614965
-2.2072904 -1.2533635 -0.56826615
-2.2979257 -1.304829 -0.56857938
-2.3903859 -1.3573304 -0.56759524
-2.4979055 -1.4183832 -0.56827623
-2.6282091 -1.4923735 -0.57186055
-2.7357342 -1.5534294 -0.56821555
-2.8869956 -1.6393199 -0.57118225
-3.0513408 -1.7326399 -0.57371324
-3.2121267 -1.8239388 -0.57246572
-3.3985114 -1.9297734 -0.57246387
-3.6087856 -2.0491734 -0.57269466
-3.8436162 -2.1825168 -0.57256818
-4.1130605 -2.335515 -0.57277805
-4.4234252 -2.511749 -0.57314426
-4.7928371 -2.7215121 -0.57466239
-5.2165346 -2.9620998 -0.57510734
-5.7181783 -3.2469475 -0.57530099
-6.334672 -3.5970106 -0.57636184
-7.1120062 -4.0384035 -0.57873285
-8.1040373 -4.6017079 -0.58166033
-9.3745689 -5.3231525 -0.58294982
-11.166583 -6.3407097 -0.58739382
-13.77593 -7.8223734 -0.59276116
-17.98632 -10.213155 -0.60183388
-25.879726 -14.69526 -0.61845189
-46.105042 -26.179781 -0.66100681
-15.533666 -8.820466 2.0127008
-13.275658 -7.5383039 1.8487464
-12.564154 -7.1342912 1.8716317
-12.082532 -6.8608127 1.9174322
-11.660601 -6.6212277 1.9641755
-11.351116 -6.4454932 2.0229976
-11.197859 -6.3584695 2.1054218
-11.339997 -6.4391794 2.2435799
-1.8299962 -1.0690922 -0.56788987
-1.8969346 -1.1081979 -0.56913573
-1.9638333 -1.1472805 -0.56907886
-2.0323708 -1.1873204 -0.5681951
-2.1072552 -1.2310681 -0.56770808
-2.1948674 -1.2822516 -0.56908411
-2.2844052 -1.3345599 -0.56925136
-2.3664691 -1.3825021 -0.5659101
-2.4946001 -1.4573568 -0.571558
-2.596359 -1.5168048 -0.56894565
-2.7192976 -1.5886261 -0.56881601
-2.8570423 -1.6690972 -0.56927365
-3.0126648 -1.7600126 -0.57046735
-3.1840341 -1.8601273 -0.57149225
-3.3603432 -1.963128 -0.57005769
-3.5747385 -2.0883787 -0.57132363
-3.820102 -2.2317212 -0.57310998
-4.0817785 -2.384594 -0.5724619
-4.3941808 -2.5671008 -0.57340181
-4.7487717 -2.7742541 -0.57342583
-5.1813331 -3.0269585 -0.57528651
-5.6791334 -3.317776 -0.57543379
-6.3012733 -3.6812327 -0.577398
-7.0644584 -4.127089 -0.57894951
-8.0346365 -4.6938715 -0.58077782
-9.3114519 -5.4397931 -0.58314037
-11.075583 -6.4704065 -0.58674788
-13.673142 -7.9879127 -0.59252
-17.843086 -10.424013 -0.60128462
-25.667244 -14.994922 -0.61773378
-45.709251 -26.703554 -0.65999013
-13.430088 -7.8459191 0.45257339
-13.28682 -7.7622213 0.57577884
-13.225409 -7.7263446 0.70063853
-13.357449 -7.803483 0.83652556
-14.805305 -8.6493273 1.9319615
-14.791016 -8.6409788 2.0744126
-12.688984 -7.4129624 1.903662
-12.157681 -7.1025729 1.9430709
-11.72926 -6.8522878 1.9897834
-11.403934 -6.66223 2.0468562
-11.259424 -6.5778074 2.1320441
-1.8280369 -1.0983158 -0.57142967
-1.8795584 -1.1292709 -0.56804568
-1.9427625 -1.167245 -0.56708926
-2.0196307 -1.2134286 -0.56876183
-2.0866485 -1.2536942 -0.56626689
-2.1710966 -1.3044319 -0.56703675
-2.2594562 -1.35752 -0.56715113
-2.3473275 -1.4103144 -0.56543696
-2.4689336 -1.4833776 -0.56981343
-2.5895247 -1.5558308 -0.57159716
-2.6987019 -1.6214262 -0.56863534
-2.8416114 -1.7072887 -0.57033896
-2.9905155 -1.7967529 -0.57041371
-3.1468189 -1.8906627 -0.56894237
-3.3322854 -2.0020943 -0.56943125
-3.5349686 -2.1238697 -0.56909841
-3.7783282 -2.2700844 -0.57098752
-4.0616426 -2.4403045 -0.57380289
-4.3405623 -2.6078842 -0.57054651
-4.7195845 -2.8356071 -0.57406837
-5.1419406 -3.089366 -0.57508713
-5.6399684 -3.3885896 -0.57564384
-6.2560363 -3.7587337 -0.57744437
-7.0039682 -4.2081041 -0.57818907
-7.9758234 -4.7920113 -0.58074206
-9.238759 -5.5508046 -0.58281839
-10.990541 -6.6033053 -0.58649987
-13.569343 -8.1526937 -0.59232134
-17.719885 -10.646411 -0.60149908
-25.460728 -15.297241 -0.61724395
-45.332912 -27.236792 -0.65934223
-13.261298 -7.9676147 0.19287826
-12.615721 -7.579741 0.30584267
-12.188796 -7.3232369 0.41374698
-12.01281 -7.2175021 0.52437645
-11.929882 -7.1676769 0.63662684
-11.920154 -7.1618328 0.75197166
-12.010338 -7.2160163 0.87450629
-12.264445 -7.3686891 1.0124501
-14.433225 -8.6717281 1.614247
-14.318974 -8.6030846 1.7416937
-14.214437 -8.5402765 1.8684208
-14.092604 -8.4670773 1.990913
-12.791453 -7.6853242 1.9330665
-12.237594 -7.3525558 1.9701433
-11.801302 -7.0904245 2.016643
-11.473828 -6.8936729 2.0744593
-11.31843 -6.8003068 2.1588879
-1.8004832 -1.1121171 -0.56704849
-1.868578 -1.1541775 -0.5689733
-1.9200701 -1.1859829 -0.56467956
-2.0040739 -1.2378702 -0.56862438
-2.075772 -1.2821565 -0.56755084
-2.1523359 -1.3294483 -0.56636375
-2.2557657 -1.3933345 -0.57048225
-2.3440032 -1.4478368 -0.56888175
-2.4492958 -1.5128735 -0.56953156
-2.5629866 -1.5830977 -0.56999308
-2.6796358 -1.6551492 -0.56886345
-2.8067348 -1.7336553 -0.56757462
-2.9743071 -1.8371608 -0.5715878
-3.1341372 -1.9358842 -0.57091022
-3.3121278 -2.045825 -0.57024235
-3.525327 -2.1775134 -0.57181364
-3.7451179 -2.313273 -0.57022429
-4.0107608 -2.4773545 -0.57087511
-4.3275485 -2.6730268 -0.57311302
-4.6887393 -2.8961263 -0.57460481
-5.0931296 -3.1459088 -0.57391107
-5.6005712 -3.4593437 -0.57592082
-6.2093115 -3.8353486 -0.57744098
-6.9587684 -4.2982707 -0.57877719
-7.9199948 -4.8919983 -0.58101308
-9.1749458 -5.6671524 -0.58314478
-10.913228 -6.740849 -0.58675301
-13.460843 -8.3144531 -0.59200329
-17.572586 -10.854181 -0.60098416
-25.271162 -15.609414 -0.61725485
-44.939621 -27.758167 -0.65853661
-13.277771 -8.2013731 0.064853653
-11.725112 -7.2423315 0.17181756
-11.470087 -7.0848088 0.28015992
-11.338467 -7.0035095 0.38777664
-11.256299 -6.9527569 0.4950482
-11.195185 -6.9150071 0.6019125
-11.173034 -6.9013257 0.71014005
-11.1789 -6.9049487 0.82008731
-11.231979 -6.9377346 0.93419021
-11.371387 -7.0238442 1.0574933
-11.61081 -7.1717296 1.1939689
-13.557775 -8.3743248 1.5277359
-13.446742 -8.3057423 1.6478976
-13.373148 -8.2602854 1.7710546
-13.340654 -8.2402143 1.8988535
-12.902022 -7.9692817 1.9644364
-12.321334 -7.6106043 1.9985399
-11.866597 -7.3297234 2.0430479
-11.529473 -7.12149 2.1001935
-11.365361 -7.0201216 2.1841397
-1.7896268 -1.1360459 -0.56798595
-1.8625764 -1.1823539 -0.57152969
-1.9112931 -1.213279 -0.56644309
-1.9777344 -1.2554556 -0.56548846
-2.0571773 -1.3058854 -0.56681436
-2.1465125 -1.3625951 -0.56919724
-2.2434232 -1.4241135 -0.57174629
-2.3245378 -1.4756045 -0.56851822
-2.4316666 -1.5436094 -0.56980276
-2.540812 -1.6128943 -0.56942922
-2.6713562 -1.6957631 -0.57148921
-2.791213 -1.7718476 -0.56879866
-2.9414406 -1.8672113 -0.56964099
-3.1007078 -1.9683133 -0.56918663
-3.2924511 -2.0900311 -0.57123619
-3.4939733 -2.2179561 -0.57110852
-3.7270598 -2.3659184 -0.57186109
-3.9861848 -2.5304096 -0.57176262
-4.2948847 -2.7263708 -0.57318372
-4.6481023 -2.9505913 -0.57402766
-5.0548387 -3.2087853 -0.57399905
-5.5566654 -3.5273426 -0.57582265
-6.1566434 -3.9082055 -0.57696855
-6.9110756 -4.387115 -0.57925344
-7.8508601 -4.9836855 -0.58039314
-9.1071377 -5.7811637 -0.58330917
-10.840995 -6.8818078 -0.58737469
-13.360267 -8.4810286 -0.59212166
-17.425306 -11.061494 -0.60055357
-25.042048 -15.896563 -0.61638653
-44.543274 -28.275841 -0.65777391
-11.232644 -7.1304245 0.055288561
-10.998893 -6.9820399 0.16242148
-10.86312 -6.8958521 0.26738548
-10.7718 -6.8378835 0.37124416
-10.719328 -6.804574 0.47507632
-10.680243 -6.7797627 0.57866496
-10.66303 -6.768836 0.68296349
-10.658727 -6.7661047 0.7879712
-10.671255 -6.7740579 0.89441383
-10.71193 -6.7998781 1.0038663
-10.808565 -6.8612213 1.1200632
-10.979727 -6.9698739 1.246796
-12.759651 -8.099761 1.5757813
-12.73763 -8.0857821 1.6999296
-12.754194 -8.0962963 1.8294111
-12.746618 -8.0914879 1.9557763
-12.407836 -7.8764305 2.028127
-11.919474 -7.5664201 2.0680139
-11.570464 -7.344871 2.1239517
-11.433867 -7.2581601 2.2142892
-1.7672484 -1.1525677 -0.56533885
-1.8379738 -1.1986936 -0.56846029
-1.8954716 -1.2361926 -0.56621635
-1.9628956 -1.2801653 -0.56570375
-2.0368185 -1.3283764 -0.56566274
-2.1276901 -1.3876414 -0.56868774
-2.225316 -1.4513113 -0.57163656
-2.3051705 -1.5033909 -0.56825984
-2.4087703 -1.5709568 -0.56892109
-2.5171597 -1.6416465 -0.56860954
-2.6376376 -1.72022 -0.56875795
-2.7745578 -1.8095169 -0.56989586
-2.9197817 -1.9042293 -0.56993806
-3.0923774 -2.0167933 -0.57216656
-3.2684102 -2.1315985 -0.5715695
-3.4739454 -2.2656448 -0.57234538
-3.7058754 -2.4169054 -0.57312733
-3.9614906 -2.5836132 -0.57273412
-4.2488513 -2.7710247 -0.57154441
-4.5989342 -2.9993424 -0.57246697
-5.0145431 -3.270395 -0.57394642
-5.5105033 -3.5938513 -0.57557487
-6.0967479 -3.9761896 -0.57589394
-6.8372731 -4.459147 -0.57761973
-7.7789693 -5.0733047 -0.57964647
-9.0319271 -5.890461 -0.58308715
-10.727389 -6.9962111 -0.58583629
-13.247786 -8.6399679 -0.59180039
-17.280941 -11.27032 -0.60030895
-24.833954 -16.19626 -0.61611992
-44.122841 -28.776127 -0.65674096
-10.891832 -7.1034579 -0.054036889
-10.646758 -6.943625 0.052821018
-10.491413 -6.8423119 0.15615815
-10.377476 -6.7680039 0.25746083
-10.303352 -6.7196617 0.35792002
-10.265411 -6.6949172 0.45857283
-10.228414 -6.6707878 0.55858654
-10.213908 -6.6613278 0.65939397
-10.211469 -6.6597371 0.76090312
-10.201928 -6.6535149 0.86186922
-10.224846 -6.6684613 0.9658308
-10.29841 -6.7164388 1.0756743
-10.391168 -6.7769332 1.1893353
-10.533723 -6.869905 1.3112187
-10.890072 -7.1023097 1.4649041
-12.209918 -7.9630895 1.7652539
-12.206873 -7.9611039 1.887838
-12.132698 -7.9127278 1.998907
-11.85415 -7.7310643 2.0730174
-11.615342 -7.5753179 2.1491263
-11.495499 -7.4971581 2.2439082
-1.7613584 -1.1798468 -0.56805277
-1.8264772 -1.2234665 -0.56951445
-1.8722616 -1.2541353 -0.56384712
-1.9542029 -1.3090236 -0.56779456
-2.0310469 -1.3604977 -0.56866294
-2.1150863 -1.4167916 -0.56993234
-2.1960011 -1.4709923 -0.56870955
-2.2992609 -1.5401609 -0.57142848
-2.3963692 -1.6052089 -0.57061094
-2.5103288 -1.6815448 -0.57169408
-2.6155241 -1.75201 -0.56859207
-2.748636 -1.841175 -0.5691787
-2.8962729 -1.9400697 -0.5699628
-3.0591059 -2.0491436 -0.57062948
-3.2396619 -2.170089 -0.57116538
-3.4510989 -2.3117201 -0.57322133
-3.6653099 -2.4552095 -0.57147962
-3.9245155 -2.6288383 -0.57201868
-4.2360339 -2.8375092 -0.57447028
-4.578155 -3.0666792 -0.57453102
-4.9666996 -3.326946 -0.57310951
-5.474895 -3.6673608 -0.57652229
-6.0474925 -4.0509152 -0.57590294
-6.7900991 -4.5483508 -0.57831568
-7.7266688 -5.1757126 -0.58044773
-8.9484215 -5.9941044 -0.58241045
-10.651025 -7.1345935 -0.58641261
-13.131131 -8.7958937 -0.59137613
-17.120327 -11.468059 -0.59958285
-24.627472 -16.496723 -0.61598331
-10.760385 -7.2078485 -0.16146863
-10.403071 -6.968502 -0.052033219
-10.21975 -6.8457041 0.051116295
-10.078737 -6.7512465 0.15123993
-9.9794464 -6.6847367 0.24960633
-9.9110537 -6.6389236 0.3471019
-9.8464985 -6.5956817 0.44344881
-9.8226843 -6.5797296 0.54080677
-9.8005247 -6.5648856 0.63786983
-9.790287 -6.5580277 0.7354722
-9.7758999 -6.5483904 0.83261752
-9.801899 -6.5658064 0.93343526
-9.8296022 -6.5843635 1.0350856
-9.9125013 -6.6398931 1.1438075
-10.009683 -6.7049904 1.2561551
-10.195121 -6.8292065 1.3826127
-10.536737 -7.0580382 1.5357846
-11.704556 -7.8403015 1.8249246
-11.64458 -7.800127 1.9341438
-11.499992 -7.7032747 2.0274947
-11.420749 -7.6501937 2.1303661
-11.549666 -7.7365489 2.2728796
-1.7463495 -1.2011607 -0.56793278
-1.7951217 -1.2347068 -0.56442893
-1.8819572 -1.2944332 -0.57151735
-1.9434284 -1.3367139 -0.56939673
-2.0117214 -1.3836867 -0.56797296
-2.0901206 -1.4376106 -0.56792551
-2.1775191 -1.4977244 -0.56864965
-2.2614667 -1.5554645 -0.56674623
-2.3625562 -1.6249952 -0.56727463
-2.4760504 -1.7030579 -0.56861383
-2.6026523 -1.7901363 -0.57053602
-2.745194 -1.8881781 -0.5732305
-2.8764961 -1.9784893 -0.57081532
-3.0325196 -2.0858042 -0.57041132
-3.2092865 -2.2073867 -0.57055241
-3.4012713 -2.3394363 -0.56968009
-3.6343069 -2.4997211 -0.57139504
-3.9080837 -2.6880279 -0.57439792
-4.1845417 -2.8781791 -0.57224351
-4.5179524 -3.1075029 -0.57172799
-4.9365439 -3.3954155 -0.57440412
-5.4161658 -3.7253056 -0.57511818
-5.9935837 -4.1224604 -0.57555306
-6.7513061 -4.643631 -0.57983106
-7.6554165 -5.2654896 -0.57991523
-8.8747768 -6.1041803 -0.5824585
-10.554441 -7.2594743 -0.58596545
-13.028106 -8.9608908 -0.59165394
-16.968941 -11.671446 -0.599262
-24.399677 -16.782398 -0.61540079
-10.280476 -7.0710373 -0.15556017
-10.007013 -6.8829465 -0.050471757
-9.8280582 -6.7598591 0.049569171
-9.6955519 -6.6687198 0.14670934
-9.588891 -6.5953569 0.2418479
-9.521306 -6.5488715 0.33624709
-9.4704523 -6.5138936 0.43008792
-9.4380779 -6.4916258 0.52398676
-9.418807 -6.4783711 0.61816365
-9.3993244 -6.4649711 0.71202022
-9.3898659 -6.4584656 0.8064419
-9.4036436 -6.4679413 0.90301502
-9.4159679 -6.4764185 0.99983913
-9.4699945 -6.5135784 1.1019052
-9.537611 -6.5600863 1.2069448
-9.6738119 -6.6537662 1.3229109
-9.8778944 -6.794137 1.451822
-10.339236 -7.111454 1.6255612
-11.224067 -7.7200508 1.8799227
-11.227201 -7.7222071 1.9959909
-11.19855 -7.7024999 2.1064265
-11.653685 -8.0155478 2.312571
-1.7366158 -1.2261906 -0.5696277
-1.7891096 -1.2632555 -0.56737977
-1.8551985 -1.3099196 -0.56823975
-1.9199859 -1.3556647 -0.56736958
-1.9838997 -1.4007931 -0.56493843
-2.0774927 -1.4668771 -0.56935233
-2.1608887 -1.5257614 -0.56916314
-2.2437153 -1.5842438 -0.56713676
-2.3419917 -1.6536347 -0.56717634
-2.4516783 -1.7310823 -0.56786221
-2.5810149 -1.8224044 -0.57066208
-2.7068632 -1.9112635 -0.57009101
-2.8401062 -2.0053437 -0.56844437
-3.0011635 -2.1190631 -0.56937152
-3.1915698 -2.2535052 -0.57228577
-3.3778384 -2.385026 -0.57062423
-3.6081362 -2.5476348 -0.57216245
-3.8658757 -2.7296197 -0.57308424
-4.1388803 -2.9223826 -0.57087022
-4.4869871 -3.1681743 -0.57269609
-4.8949065 -3.4561982 -0.57446092
-5.3808055 -3.7992821 -0.57628065
-5.9533243 -4.2035265 -0.57660705
-6.6747456 -4.7129083 -0.57818919
-7.5823698 -5.3537641 -0.57932496
-8.7990808 -6.2128596 -0.5824604
-10.459782 -7.3854485 -0.58570772
-12.900693 -9.1089287 -0.59090972
-16.823263 -11.878579 -0.59923035
-10.487429 -7.4049697 -0.26678693
-9.9064035 -6.9947186 -0.15118989
-9.643836 -6.8093247 -0.04905862
-9.4674339 -6.6847706 0.048161253
-9.3382568 -6.5935616 0.14251894
-9.2543926 -6.5343466 0.23542005
-9.1857014 -6.4858451 0.32718691
-9.1387959 -6.4527259 0.41859791
-9.0941048 -6.4211707 0.50923508
-9.0894804 -6.4179053 0.60168362
-9.0561829 -6.3943944 0.69193041
-9.0484858 -6.3889599 0.78381068
-9.0431786 -6.3852124 0.87587374
-9.0690727 -6.4034958 0.97129154
-9.0970478 -6.4232488 1.0676197
-9.1488447 -6.4598207 1.1677117
-9.2338772 -6.5198607 1.2736164
-9.3574657 -6.6071243 1.3871672
-9.6077805 -6.7838664 1.5235597
-10.800227 -7.6258302 1.8245015
-10.785796 -7.6156406 1.9340193
-10.819828 -7.6396699 2.0527043
-11.729336 -8.2818556 2.3476148
-1.7121987 -1.240777 -0.56658036
-1.7708606 -1.2832874 -0.56655389
-1.8373922 -1.3315008 -0.56775773
-1.9006016 -1.3773067 -0.56660324
-1.9831791 -1.4371481 -0.56972235
-2.0600529 -1.4928561 -0.56956065
-2.1409714 -1.5514951 -0.56889904
-2.2272336 -1.6140066 -0.56794435
-2.3277192 -1.6868255 -0.56870013
-2.4188368 -1.7528555 -0.56520504
-2.5602427 -1.855328 -0.57107031
-2.6824019 -1.943853 -0.5699302
-2.8281236 -2.0494528 -0.57104683
-2.9829762 -2.1616697 -0.57092071
-3.1596034 -2.2896659 -0.57155913
-3.3422129 -2.4219973 -0.56959403
-3.5652103 -2.5835967 -0.57035017
-3.8205307 -2.7686193 -0.57136577
-4.1070747 -2.976269 -0.57148802
-4.450264 -3.2249675 -0.57302701
-4.85291 -3.5167527 -0.57456392
-5.324367 -3.8584027 -0.57527393
-5.8989887 -4.2748132 -0.57639199
-6.6130948 -4.7923036 -0.57790965
-7.5159521 -5.4465761 -0.57932359
-8.7225962 -6.3209929 -0.58249855
-10.366898 -7.512567 -0.58563513
-12.774475 -9.2572641 -0.59029776
-16.671547 -12.08135 -0.59907258
-10.068966 -7.2966657 -0.25840467
-9.5687809 -6.9341969 -0.14732733
-9.3164034 -6.751307 -0.047811657
-9.1626358 -6.6398764 0.047022521
-9.0640163 -6.5684099 0.13955565
-8.9736519 -6.5029254 0.23029509
-8.9220486 -6.4655304 0.3206034
-8.8621302 -6.4221091 0.40951157
-8.8250675 -6.3952508 0.49853578
-8.8156195 -6.3884044 0.58871073
-8.7844658 -6.365828 0.67709965
-8.7761784 -6.3598228 0.76693869
-8.7764769 -6.3600388 0.85755217
-8.7812548 -6.3635015 0.94877511
-8.819664 -6.3913355 1.0442107
-8.8443155 -6.4091992 1.138816
-8.899334 -6.44907 1.2383176
-9.0051317 -6.5257382 1.3467302
-9.1410742 -6.6242509 1.4623578
-9.3992558 -6.8113475 1.6018608
-10.377386 -7.5201683 1.877226
-10.403717 -7.5392489 1.9911985
-10.530614 -7.631207 2.1263123
-1.700963 -1.2648213 -0.56796598
-1.7462581 -1.2985023 -0.56374854
-1.8163071 -1.3505902 -0.56633133
-1.8879975 -1.4038986 -0.56794918
-1.9582649 -1.4561487 -0.56766599
-2.0434985 -1.5195277 -0.57010651
-2.1147659 -1.5725216 -0.56703097
-2.2111752 -1.6442106 -0.56896198
-2.3171346 -1.7230012 -0.57124728
-2.4043586 -1.7878602 -0.56691611
-2.5303669 -1.8815589 -0.56952405
-2.6529243 -1.9726915 -0.56877804
-2.8015985 -2.0832443 -0.57082027
-2.949743 -2.1934032 -0.56967914
-3.1243775 -2.3232601 -0.57031161
-3.320143 -2.4688294 -0.57096326
-3.5311594 -2.6257396 -0.57002491
-3.7907574 -2.8187742 -0.57205349
-4.0745416 -3.0297937 -0.57210189
-4.4142523 -3.2823999 -0.57354391
-4.8121486 -3.5782719 -0.57490385
-5.2735391 -3.9213579 -0.57494855
-5.8469229 -4.3477211 -0.5764848
-6.5540524 -4.8735361 -0.57794327
-7.456265 -5.544414 -0.57993412
-8.643446 -6.4271913 -0.58244663
-10.271694 -7.6379428 -0.58551836
-12.670488 -9.4216652 -0.59080142
-16.510704 -12.277216 -0.59867239
-9.7439222 -7.2454958 -0.2523303
-9.2715044 -6.8942103 -0.14404462
-9.0666447 -6.741878 -0.046951793
-8.9202404 -6.6330132 0.046193637
-8.8278799 -6.5643344 0.13715234
-8.7476454 -6.504673 0.22653055
-8.691246 -6.4627352 0.31514159
-8.6568813 -6.4371815 0.40365434
-8.6188726 -6.4089189 0.49130237
-8.6018591 -6.3962674 0.57964426
-8.5681295 -6.3711867 0.66641289
-8.5526752 -6.3596954 0.75418401
-8.5514822 -6.358808 0.84314424
-8.5694313 -6.3721547 0.93428373
-8.5875769 -6.3856478 1.0259515
-8.6202841 -6.4099679 1.1200335
-8.6473627 -6.4301038 1.2141666
-8.7210684 -6.4849105 1.316074
-8.8171082 -6.556325 1.4233204
-8.9756193 -6.6741929 1.5435327
-9.3509216 -6.9532638 1.7068805
-9.9988861 -7.4350848 1.9310689
-10.069848 -7.4878516 2.051712
-1.6848204 -1.2852873 -0.56781018
-1.7504579 -1.3353597 -0.57036221
-1.8015492 -1.3743353 -0.56695622
-1.8741746 -1.4297385 -0.5690366
-1.9414629 -1.4810704 -0.56803179
-2.0210359 -1.5417737 -0.5690859
-2.103353 -1.6045704 -0.56921816
-2.1842518 -1.666285 -0.5672636
-2.272145 -1.7333355 -0.5653677
-2.3995929 -1.8305607 -0.57105666
-2.5081778 -1.9133962 -0.56978232
-2.6248229 -2.0023804 -0.56798911
-2.7604187 -2.1058214 -0.56766289
-2.9297884 -2.2350273 -0.57108992
-3.1027656 -2.3669853 -0.57163626
-3.2854373 -2.5063388 -0.57025182
-3.5037906 -2.6729124 -0.57086939
-3.7588737 -2.867506 -0.57251978
-4.0381351 -3.0805442 -0.57226551
-4.3818293 -3.3427358 -0.57462829
-4.758327 -3.629952 -0.57376307
-5.2247767 -3.9857893 -0.57493222
-5.7913551 -4.4180112 -0.5763188
-6.4931016 -4.9533472 -0.57789588
-7.3866868 -5.6350307 -0.57986796
-8.5433064 -6.5173731 -0.5810551
-10.171735 -7.7596407 -0.58521509
-12.542328 -9.568079 -0.59026688
-16.347286 -12.47074 -0.59826195
-9.4537582 -7.2119226 -0.24709399
-9.0305548 -6.8890767 -0.14160655
-8.8494473 -6.7509165 -0.046253417
-8.7399931 -6.6674175 0.045681331
-8.6449671 -6.5949259 0.13556023
-8.5760403 -6.5423446 0.22415298
-8.5496235 -6.522192 0.31289077
-8.5213947 -6.5006576 0.40103376
-8.5240898 -6.5027127 0.49042037
-11.741542 -8.9571886 0.79857635
-11.690879 -8.918539 0.91775459
-11.650725 -8.887908 1.0369322
-11.592784 -8.8437071 1.15364
-11.486896 -8.762928 1.2640131
-8.5050507 -6.4881892 1.0255462
-8.4657679 -6.4582214 1.1101916
-8.472043 -6.4630089 1.2006181
-8.5009165 -6.4850354 1.2947875
-8.5762825 -6.5425296 1.3973259
-8.6982012 -6.6355367 1.5097429
-8.8966646 -6.7869372 1.6390719
-9.6306305 -7.3468523 1.8772537
-9.670577 -7.3773265 1.9886941
-1.6677853 -1.3050416 -0.56743437
-1.7277472 -1.3519617 -0.56833607
-1.7983536 -1.4072113 -0.5713529
-1.8567947 -1.4529414 -0.56914121
-1.9224088 -1.5042845 -0.56782597
-1.9966348 -1.5623664 -0.56758171
-2.080682 -1.6281333 -0.56845784
-2.163394 -1.6928554 -0.5672099
-2.2652304 -1.7725424 -0.56902754
-2.373369 -1.8571608 -0.57020748
-2.4807911 -1.9412185 -0.56894046
-2.6043923 -2.0379364 -0.56894779
-2.7374778 -2.1420758 -0.56831896
-2.9002984 -2.2694829 -0.57073814
-3.0701387 -2.4023829 -0.57102454
-3.2566071 -2.5482943 -0.57064342
-3.4714527 -2.7164111 -0.57099962
-3.7254434 -2.9151585 -0.57284439
-4.0047593 -3.1337235 -0.57295316
-4.3197751 -3.380223 -0.5718981
-4.716495 -3.6906562 -0.5741477
-5.1624265 -4.0395975 -0.57349384
-5.7363725 -4.4887104 -0.57629633
-6.428102 -5.0299883 -0.57757205
-7.3001771 -5.7123871 -0.57854724
-8.4675837 -6.6258821 -0.5814023
-10.077237 -7.8854356 -0.58531266
-12.435731 -9.730957 -0.59083676
-16.186146 -12.665656 -0.59801924
-9.2005234 -7.1994076 -0.24277067
-8.8545542 -6.9286866 -0.14017211
-8.6808319 -6.7927494 -0.045805227
-8.5825539 -6.7158465 0.045286648
-8.5082226 -6.6576819 0.13468949
-8.4900551 -6.6434665 0.22402382
-11.360648 -8.8897047 0.41973466
-11.385846 -8.9094219 0.54095548
-11.409848 -8.9282036 0.6627143
-11.395815 -8.917223 0.78246093
-11.36913 -8.8963423 0.90101629
-11.328162 -8.8642845 1.0178478
-11.268242 -8.8173971 1.1320475
-11.18685 -8.7537069 1.2427467
-11.078427 -8.6688671 1.3485975
-10.953702 -8.57127 1.4501685
-10.823079 -8.4690571 1.548437
-8.4601879 -6.6200957 1.3008845
-8.4269876 -6.5941162 1.3861076
-8.4798746 -6.6355004 1.4858978
-8.6254511 -6.7494135 1.604274
-8.9641972 -7.0144825 1.7640287
-9.3724613 -7.3339491 1.9457866
-1.6531672 -1.3266966 -0.56796837
-1.7071121 -1.3699883 -0.56704682
-1.7593408 -1.4119028 -0.56443143
-1.8391794 -1.4759747 -0.56926185
-1.8899907 -1.5167518 -0.56371689
-1.9706396 -1.5814738 -0.56567734
-2.0581501 -1.6517025 -0.56780785
-2.1405113 -1.7177989 -0.56670564
-2.2399938 -1.7976356 -0.56819785
-2.3424373 -1.8798481 -0.5682866
-2.4468668 -1.9636549 -0.5666551
-2.5796552 -2.07022 -0.56906188
-2.7124305 -2.1767745 -0.56863296
-2.8735895 -2.3061075 -0.57101929
-3.0425179 -2.4416757 -0.5714283
-3.2270474 -2.5897639 -0.5710007
-3.4420969 -2.7623451 -0.57171494
-3.6909857 -2.9620826 -0.57310331
-3.9663644 -3.1830792 -0.57301652
-4.2714996 -3.4279556 -0.57104427
-4.6602631 -3.7399452 -0.57285738
-5.1075902 -4.0989332 -0.57295793
-5.6833143 -4.5609627 -0.57655674
-6.3569164 -5.1015401 -0.57676876
-7.243999 -5.8134403 -0.57971644
-8.374464 -6.7206588 -0.58063889
-9.9785891 -8.0079985 -0.58525813
-12.293744 -9.8659525 -0.58981013
-16.010914 -12.849048 -0.59733731
-9.0509701 -7.2635674 -0.24116299
-8.7092514 -6.9893317 -0.13922191
-8.5585117 -6.86836 -0.045601983
-8.4768906 -6.8028574 0.045167085
-8.4723539 -6.7992172 0.13543499
-10.957994 -8.7939882 0.29197562
-11.012794 -8.837966 0.4108668
-11.037062 -8.8574409 0.52951896
-11.062901 -8.8781786 0.64885461
-11.074245 -8.8872824 0.7678268
-11.055173 -8.8719759 0.88471371
-11.014115 -8.8390265 0.99932057
-10.959983 -8.7955847 1.1118604
-10.88124 -8.7323914 1.2206329
-10.797453 -8.6651506 1.3272643
-10.664162 -8.5581827 1.4256605
-10.541138 -8.4594536 1.5228672
-10.385903 -8.3348751 1.6126302
-10.189835 -8.1775265 1.6924801
-8.3621883 -6.7108073 1.4796236
-8.4421244 -6.7749572 1.5855514
-8.6587095 -6.948771 1.7205973
-9.1338577 -7.3300858 1.9148185
-1.6254917 -1.3376746 -0.56406856
-1.6981755 -1.3974887 -0.56974334
-1.7561021 -1.4451586 -0.56905043
-1.8173431 -1.495556 -0.56815225
-1.8839948 -1.5504061 -0.56757188
-1.9577413 -1.6110946 -0.56761867
-2.0384479 -1.677511 -0.56802022
-2.1267703 -1.7501945 -0.56872249
-2.2090526 -1.8179076 -0.5659768
-2.3246057 -1.9130002 -0.56962436
-2.4368968 -2.0054088 -0.57001382
-2.5533557 -2.1012468 -0.5689171
-2.696847 -2.2193308 -0.57104385
-2.8406119 -2.3376403 -0.57013512
-3.0044472 -2.472466 -0.56994504
-3.1914475 -2.6263552 -0.57037282
-3.4066486 -2.8034518 -0.57150966
-3.6479936 -3.002063 -0.57211637
-3.9325325 -3.2362204 -0.57383454
-4.2493715 -3.4969583 -0.57379121
-4.6168876 -3.7994003 -0.57322508
-5.069644 -4.1719894 -0.57441258
-5.6145916 -4.6204462 -0.57530522
-6.2962775 -5.1814299 -0.57700408
-7.1522708 -5.8858566 -0.57812399
-8.3070831 -6.8361931 -0.58175147
-9.8748426 -8.1263571 -0.58498979
-12.164892 -10.01092 -0.58948952
-15.858915 -13.050862 -0.59760857
-9.0047903 -7.4103603 -0.24234211
-8.5968428 -7.0746465 -0.13880514
-8.4534578 -6.9566498 -0.045494583
-8.4289246 -6.93646 0.045362551
-10.544625 -8.6775455 0.17025416
-10.616299 -8.7365274 0.28571197
-10.661095 -8.7733927 0.40174007
-10.707422 -8.8115168 0.51886314
-10.740743 -8.8389368 0.63628608
-10.733874 -8.8332853 0.75170153
-10.725239 -8.8261786 0.86692995
-10.691215 -8.7981796 0.97976536
-10.638786 -8.7550335 1.0901148
-10.565864 -8.6950226 1.197158
-10.48434 -8.6279345 1.3017182
-10.394367 -8.5538921 1.4035479
-10.26924 -8.4509211 1.4984859
-10.120145 -8.3282261 1.5871468
-9.9414597 -8.181179 1.6678091
-9.7372046 -8.0130901 1.740225
-8.3331976 -6.8576827 1.5808114
-8.468379 -6.9689293 1.699676
-9.0002661 -7.4066377 1.9057615
-1.6199089 -1.3668308 -0.56792068
-1.6643938 -1.4043658 -0.56416053
-1.7364819 -1.4651916 -0.56848788
-1.8048495 -1.5228782 -0.57005757
-1.8645694 -1.5732681 -0.56750494
-1.9352654 -1.6329192 -0.56688094
-2.019022 -1.7035905 -0.5684014
-2.101383 -1.7730842 -0.56772101
-2.1901145 -1.8479532 -0.56690371
-2.2953699 -1.9367645 -0.56825316
-2.4101574 -2.0336189 -0.56956542
-2.5237124 -2.1294332 -0.56810343
-2.6632624 -2.2471812 -0.56974047
-2.798764 -2.3615134 -0.56752115
-2.9817274 -2.5158925 -0.57146055
-3.1622856 -2.6682422 -0.57098162
-3.3726041 -2.8457026 -0.57162541
-3.5995681 -3.0372081 -0.57033587
-3.8818917 -3.2754242 -0.57227886
-4.2046838 -3.5477867 -0.5736044
-4.5700817 -3.8560984 -0.57325757
-5.0257754 -4.2405996 -0.57530683
-5.5570493 -4.6888723 -0.57527345
-6.2262659 -5.2535372 -0.57646459
-7.0882168 -5.9808259 -0.57884723
-8.2148266 -6.9314251 -0.58121556
-9.761323 -8.2363129 -0.58422041
-12.02928 -10.149947 -0.58892155
-15.671376 -13.22304 -0.5966236
-22.477427 -18.96578 -0.61115563
-8.5242376 -7.1924973 -0.13905033
-8.4028854 -7.0901041 -0.04568816
-8.4473829 -7.1276498 0.045930102
-10.202984 -8.6089735 0.16643463
-10.268665 -8.6643934 0.27920246
-10.318405 -8.7063627 0.39283109
-10.350172 -8.7331667 0.50671685
-10.384654 -8.7622604 0.62152708
-10.378447 -8.7570229 0.73429602
-10.374578 -8.7537594 0.84722239
-10.350119 -8.7331209 0.95827526
-10.316276 -8.704565 1.0679551
-10.259789 -8.6569042 1.174451
-10.184989 -8.5937901 1.277575
-10.096601 -8.5192099 1.3773816
-9.9770765 -8.4183588 1.4708471
-9.8381739 -8.301157 1.5588156
-9.6927624 -8.1784639 1.6428342
-9.0425653 -7.629847 1.6327237
-8.3367491 -7.0342999 1.5977728
-8.3736296 -7.0654182 1.697968
-1.6048485 -1.388261 -0.56858248
-1.6506701 -1.4278985 -0.56541753
-1.718488 -1.4865639 -0.56853837
-1.7686815 -1.5299834 -0.56453347
-1.8461957 -1.5970364 -0.56784678
-1.9317561 -1.6710497 -0.57182872
-2.0124855 -1.7408839 -0.5725444
-2.0829291 -1.8018206 -0.5686782
-2.1672537 -1.8747649 -0.56691062
-2.2754707 -1.9683772 -0.56927592
-2.3860838 -2.0640624 -0.56983125
-2.4981706 -2.1610219 -0.56829262
-2.6305957 -2.2755752 -0.56869519
-2.7843187 -2.4085519 -0.57055438
-2.9494414 -2.5513899 -0.57124239
-3.128376 -2.7061758 -0.57082415
-3.3334432 -2.8835676 -0.57095456
-3.5637071 -3.0827556 -0.5706169
-3.8440666 -3.3252783 -0.57268727
-4.1542554 -3.5936043 -0.57270986
-4.525147 -3.9144411 -0.57361543
-4.9609351 -4.2914162 -0.57388163
-5.4936085 -4.7522011 -0.57471186
-6.1575317 -5.3265219 -0.57612133
-7.010901 -6.0647221 -0.5785796
-8.1226416 -7.0264244 -0.58076239
-9.6559629 -8.3528118 -0.58401769
-11.906148 -10.299315 -0.58904898
-15.50459 -13.412118 -0.59650755
-22.229204 -19.229189 -0.61078936
-8.4796867 -7.3352828 -0.13978437
-8.3553247 -7.2277045 -0.045909323
-8.4415197 -7.3022671 0.046382934
-8.9955912 -7.7815623 0.14828888
-9.9253836 -8.5858707 0.27271867
-9.9722052 -8.6263733 0.38366026
-10.004111 -8.6539736 0.49494693
-10.02036 -8.6680298 0.60605735
-10.02634 -8.6732025 0.71687526
-10.023371 -8.6706343 0.82718587
-10.017784 -8.665802 0.9373008
-9.9883022 -8.6402988 1.0449226
-9.9286861 -8.588728 1.1485517
-9.8736629 -8.541131 1.2516026
-9.7848368 -8.4642925 1.3489475
-9.6946278 -8.3862581 1.4443011
-9.5601902 -8.2699633 1.5307671
-9.0380507 -7.8182912 1.5480438
-8.7189331 -7.5422411 1.5909141
-8.3018084 -7.1814108 1.6078789
-8.3105221 -7.1889486 1.7029678
-1.5884596 -1.4085995 -0.56886959
-1.6433083 -1.4572377 -0.56899071
-1.7019268 -1.5092191 -0.56915605
-1.7517654 -1.5534143 -0.56518829
-1.8343593 -1.6266563 -0.57031524
-1.9060265 -1.6902086 -0.5703215
-1.9744549 -1.7508888 -0.56780708
-2.0549173 -1.8222406 -0.56710511
-2.1580982 -1.9137385 -0.57062817
-2.2443867 -1.9902565 -0.56757909
-2.3590209 -2.0919108 -0.5694682
-2.4778626 -2.1972961 -0.56977618
-2.610043 -2.3145099 -0.57036161
-2.7523806 -2.4407306 -0.5701167
-2.9208333 -2.5901096 -0.57182688
-3.0908036 -2.7408345 -0.57007492
-3.292093 -2.9193318 -0.56997752
-3.5329516 -3.1329184 -0.57181752
-3.8053749 -3.3744953 -0.57306147
-4.1034484 -3.6388183 -0.57183087
-4.489481 -3.9811406 -0.57525641
-4.9155817 -4.3589945 -0.57479221
-5.4494829 -4.8324423 -0.57626849
-6.0934281 -5.4034739 -0.57629669
-6.9358649 -6.1505222 -0.57858485
-8.0349379 -7.1251478 -0.58071208
-9.5477905 -8.4667015 -0.58372784
-11.773285 -10.440205 -0.58878255
-15.333117 -13.59696 -0.5962978
-21.974333 -19.486197 -0.61032397
-8.5012674 -7.5386753 -0.14165753
-8.3333769 -7.3897953 -0.046284519
-8.3660555 -7.4187732 0.046466019
-8.5924168 -7.6195045 0.14317636
-8.9179716 -7.9081964 0.24769133
-9.6257277 -8.5358143 0.37434012
-9.6661596 -8.5716677 0.48340511
-9.6888895 -8.5918245 0.5923543
-9.7021751 -8.6036053 0.70120895
-9.6991415 -8.600915 0.80909544
-9.6907482 -8.5934725 0.91651964
-9.6626997 -8.5685997 1.0218052
-9.6202459 -8.5309534 1.1249212
-9.568944 -8.4854603 1.2261097
-9.4940033 -8.4190044 1.3230247
-9.4080791 -8.3428097 1.4167875
-8.9670372 -7.9517069 1.4513385
-8.7490692 -7.758419 1.5147728
-8.4289865 -7.4745789 1.5546616
-8.2508268 -7.3165922 1.6153078
-8.3798237 -7.4309826 1.7357619
-1.5661862 -1.4236302 -0.5671193
-1.6182553 -1.4709599 -0.56653613
-1.6673574 -1.5155927 -0.56378514
-1.7311763 -1.5736027 -0.56474566
-1.8068738 -1.6424102 -0.56800592
-1.8703412 -1.7001007 -0.56585622
-1.9547426 -1.7768197 -0.56837845
-2.033463 -1.848375 -0.56741393
-2.1265922 -1.9330274 -0.5685395
-2.2232418 -2.02088 -0.56847298
-2.3193381 -2.1082294 -0.56610399
-2.4517186 -2.2285604 -0.57002264
-2.574461 -2.3401306 -0.56883115
-2.7183852 -2.4709547 -0.56932563
-2.8725851 -2.6111193 -0.56862396
-3.0544817 -2.7764595 -0.56962955
-3.2603414 -2.9635816 -0.57074636
-3.493973 -3.1759477 -0.57178628
-3.7625184 -3.4200499 -0.57289743
-4.0712647 -3.7006938 -0.57364392
-4.4199653 -4.0176554 -0.57263601
-4.861063 -4.4186034 -0.574727
-5.3850422 -4.8948898 -0.57577544
-6.0242906 -5.4759531 -0.57608271
-6.8471394 -6.2239051 -0.57752407
-7.9427533 -7.2197948 -0.58042198
-9.454566 -8.5940008 -0.58444494
-11.645471 -10.585486 -0.58885556
-15.157002 -13.777395 -0.59599215
-21.715452 -19.738888 -0.60982895
-38.273396 -34.789707 -0.64483321
-8.3156624 -7.5587611 -0.046698831
-8.2941685 -7.5392246 0.046578132
-8.3747168 -7.6124411 0.1410979
-8.540206 -7.7628665 0.23983221
-8.7468386 -7.9506912 0.34393653
-8.8783722 -8.0702534 0.44893667
-9.3576717 -8.5059261 0.57845527
-9.3607187 -8.5086956 0.68404078
-9.362957 -8.5107307 0.78972149
-9.3587036 -8.5068636 0.89494139
-9.3555517 -8.5039988 1.0003073
-9.3282442 -8.4791775 1.1028851
-9.2595863 -8.416769 1.1996412
-8.8952284 -8.0855742 1.2533436
-8.7974987 -7.9967403 1.3395454
-8.6211681 -7.8364601 1.4108484
-8.423048 -7.656373 1.4745156
-8.2489128 -7.4980879 1.5383378
-8.1995134 -7.4531851 1.6230816
-1.549677 -1.4438171 -0.56752706
-1.6049228 -1.495289 -0.56826258
-1.6579094 -1.544656 -0.56696999
-1.721433 -1.6038404 -0.56795794
-1.7889996 -1.6667913 -0.56878698
-1.8542333 -1.7275689 -0.5673669
-1.9376693 -1.8053052 -0.56982571
-2.0136473 -1.8760931 -0.56827879
-2.1145115 -1.9700674 -0.57174301
-2.1946249 -2.044708 -0.56754178
-2.3014069 -2.1441956 -0.56811976
-2.4106357 -2.2459629 -0.56684911
-2.5365527 -2.3632786 -0.56683326
-2.6875319 -2.5039442 -0.56926924
-2.8459344 -2.651526 -0.56975943
-3.0299394 -2.8229613 -0.57148296
-3.219281 -2.9993689 -0.5699718
-3.4637148 -3.2271054 -0.57328522
-3.7136552 -3.4599719 -0.5718922
-4.0132456 -3.7390971 -0.57190406
-4.3866572 -4.0870008 -0.57478821
-4.7917261 -4.4643989 -0.57297641
-5.3172545 -4.9540281 -0.57499737
-5.9633508 -5.5559888 -0.57674474
-6.7734942 -6.310791 -0.57781398
-7.8474197 -7.3113556 -0.57998139
-9.332056 -8.6945753 -0.58343667
-11.481223 -10.69693 -0.58715707
-14.984838 -13.961209 -0.59592777
-21.452555 -19.98711 -0.60930192
-37.794979 -35.213169 -0.64401937
-8.2567501 -7.6927238 0.04689566
-8.262742 -7.6983061 0.14079557
-8.3148594 -7.7468638 0.23616116
-8.4189434 -7.8438377 0.33481058
-8.5389738 -7.9556689 0.43668854
-8.623044 -8.0339956 0.53910947
-8.6860085 -8.092659 0.64195919
-8.7325926 -8.1360617 0.74493521
-8.7495041 -8.1518173 0.8462072
-8.7423267 -8.1451302 0.94537795
-8.7060785 -8.1113577 1.0410397
-8.6491203 -8.0582914 1.1333032
-8.5741463 -7.9884381 1.2218511
-8.461339 -7.883337 1.3030218
-8.3472185 -7.7770119 1.3815619
-8.2351999 -7.672646 1.4580373
-8.1732988 -7.6149735 1.5415823
-12.692139 -11.825128 2.5409813
-1.5304129 -1.4614305 -0.5670104
-1.5924836 -1.5207034 -0.57043606
-1.6349956 -1.5612992 -0.56565666
-1.7045909 -1.6277575 -0.56896198
-1.7506391 -1.6717302 -0.56308383
-1.831512 -1.7489578 -0.56695223
-1.9085742 -1.8225465 -0.56781715
-1.9852674 -1.8957827 -0.5668056
-2.0669286 -1.973763 -0.56539673
-2.1633751 -2.0658624 -0.56598693
-2.2824697 -2.1795888 -0.57001805
-2.3888919 -2.281214 -0.56828922
-2.5196106 -2.4060409 -0.56961566
-2.6523623 -2.5328088 -0.56837374
-2.8007329 -2.6744916 -0.56725109
-2.9891639 -2.8544292 -0.5703693
-3.1802948 -3.0369451 -0.56963789
-3.413666 -3.2597973 -0.57159269
-3.6603928 -3.4954028 -0.57026577
-3.9687896 -3.7898991 -0.57216668
-4.322227 -4.1274052 -0.57295269
-4.7433763 -4.5295715 -0.57381165
-5.2480354 -5.0114832 -0.57413256
-5.896667 -5.6308784 -0.57694829
-6.687923 -6.3864689 -0.57716978
-7.764287 -7.4143167 -0.58053148
-9.2183666 -8.8028545 -0.5830521
-11.35708 -10.845167 -0.58758384
-14.796474 -14.129532 -0.59530133
-21.179909 -20.225239 -0.60857582
-37.290611 -35.60976 -0.6428377
-8.2476788 -7.8759203 0.14217839
-8.2064209 -7.8365211 0.23580031
-8.2343006 -7.8631449 0.33128774
-8.2799988 -7.9067826 0.42838416
-8.3180094 -7.9430804 0.52610546
-8.3692255 -7.9919882 0.6257624
-8.394393 -8.0160208 0.72443867
-8.4113808 -8.0322428 0.82299578
-8.4078236 -8.0288458 0.9198119
-8.3793974 -8.0017014 1.0136652
-8.3225889 -7.9474535 1.1032391
-8.2748518 -7.9018683 1.1929567
-8.218524 -7.8480787 1.2803934
-8.15973 -7.791935 1.3662853
-8.1299086 -7.7634583 1.456187
-13.332037 -12.731104 2.5439169
-12.767899 -12.192393 2.5859678
-1.5136926 -1.4814728 -0.56752205
-1.562789 -1.529524 -0.56649345
-1.6117169 -1.5774105 -0.56427085
-1.6687475 -1.6332272 -0.56365877
-1.7438282 -1.7067097 -0.56760043
-1.8055037 -1.7670724 -0.56558472
-1.8904992 -1.8502588 -0.56916547
-1.9647859 -1.9229642 -0.56766605
-2.0605764 -2.0167158 -0.57039952
-2.1567037 -2.1107969 -0.57098883
-2.2543972 -2.2064109 -0.56973982
-2.3525925 -2.3025162 -0.56634653
-2.4893301 -2.4363432 -0.56949979
-2.6248691 -2.5689971 -0.5692085
-2.7779274 -2.7187974 -0.56936026
-2.9563415 -2.893414 -0.57085204
-3.1409793 -3.0741215 -0.56932354
-3.3628359 -3.291256 -0.56981504
-3.6216965 -3.5446064 -0.57098442
-3.9114382 -3.828181 -0.57064176
-4.2650676 -4.174283 -0.57213658
-4.678504 -4.5789189 -0.57273191
-5.1987815 -5.0881224 -0.57554543
-5.8239393 -5.6999731 -0.57664663
-6.6161175 -6.4752893 -0.57780075
-7.6635537 -7.5004301 -0.57985181
-9.118556 -8.9244623 -0.58363599
-11.233303 -10.994196 -0.58812988
-14.611309 -14.300298 -0.59488136
-20.912163 -20.467033 -0.60806799
-36.785419 -36.002419 -0.64171195
-8.1560841 -7.9824772 0.42701924
-8.1610804 -7.9873667 0.52235246
-8.1669426 -7.993104 0.61793995
-8.1752386 -8.0012236 0.71396244
-8.1942244 -8.0198059 0.81133604
-8.1764936 -8.0024519 0.90520126
-8.1558971 -7.9822941 0.99842656
-8.1323414 -7.9592395 1.0909111
-8.1195879 -7.9467578 1.1845709
-8.1081696 -7.9355822 1.2783066
-15.33593 -15.009495 2.5985935
-14.256587 -13.953127 2.5841022
-13.380457 -13.095646 2.5836873
-12.860441 -12.586699 2.6358588
-1.4945041 -1.4991112 -0.56719613
-1.5401623 -1.5449101 -0.565135
-1.6109101 -1.615876 -0.57090169
-1.6505191 -1.6556072 -0.56433553
-1.7195897 -1.7248906 -0.56657189
-1.798153 -1.8036962 -0.57018667
-1.8608445 -1.866581 -0.56710476
-1.9518646 -1.9578816 -0.57084543
-2.0254922 -2.0317361 -0.56756055
-2.1162233 -2.1227469 -0.56713933
-2.2239823 -2.2308383 -0.56894284
-2.3286216 -2.3358002 -0.56744736
-2.4661529 -2.4737551 -0.57111323
-2.5895836 -2.5975666 -0.56844026
-2.7394664 -2.7479115 -0.56835985
-2.9239161 -2.9329298 -0.57151163
-3.1026168 -3.1121812 -0.56926352
-3.3215923 -3.3318317 -0.56972551
-3.5750632 -3.5860839 -0.57054132
-3.8654847 -3.8774009 -0.57085019
-4.2133417 -4.2263298 -0.57212585
-4.634479 -4.6487656 -0.57429689
-5.1229043 -5.1386967 -0.57409722
-5.7442436 -5.7619514 -0.5757274
-6.5315242 -6.5516591 -0.5774051
-7.5682755 -7.5916061 -0.57966208
-8.9908514 -9.0185671 -0.58251613
-11.081468 -11.115628 -0.58729213
-14.416348 -14.46079 -0.59413844
-20.633423 -20.697031 -0.60731727
-36.28191 -36.393757 -0.64068675
-15.098458 -15.145001 2.4095502
-14.865765 -14.911592 2.549803
-14.291632 -14.335688 2.6222074
-13.424689 -13.466074 2.6240034
-12.969423 -13.009404 2.6907794
-1.4773591 -1.5188133 -0.5677343
-1.5332164 -1.5762378 -0.56965518
-1.5783272 -1.6226144 -0.56638271
-1.6328547 -1.6786721 -0.56531078
-1.6962167 -1.7438118 -0.56589311
-1.7672061 -1.8167932 -0.56741458
-1.8516122 -1.9035678 -0.57138139
-1.9082034 -1.9617469 -0.56508845
-2.0017738 -2.0579429 -0.56796229
-2.100426 -2.159363 -0.56997859
-2.1943991 -2.2559731 -0.56842846
-2.2988288 -2.3633332 -0.56722611
-2.4227581 -2.4907398 -0.56811357
-2.5698307 -2.6419392 -0.57119226
-2.7172227 -2.7934668 -0.57082832
-2.8811829 -2.962028 -0.57023501
-3.0758798 -3.1621881 -0.57144904
-3.2894928 -3.3817949 -0.57130921
-3.5271893 -3.6261609 -0.56997395
-3.8305559 -3.93804 -0.57279986
-4.1625805 -4.2793813 -0.57233524
-4.5801492 -4.7086663 -0.57469583
-5.0595675 -5.2015367 -0.57412368
-5.6744075 -5.8336291 -0.57587397
-6.453207 -6.6342816 -0.57764971
-7.4741435 -7.6838651 -0.57964522
-8.8780689 -9.1271839 -0.58243644
-10.940726 -11.247719 -0.58711874
-14.238565 -14.638094 -0.59418476
-20.379835 -20.951687 -0.6073904
-35.764175 -36.767704 -0.63947958
-14.502449 -14.909383 2.5187416
-14.336354 -14.738627 2.6634643
-13.452023 -13.829482 2.6623836
-13.11626 -13.484298 2.7554359
-1.4628595 -1.5413803 -0.56940287
-1.5022458 -1.5828806 -0.56533724
-1.5594018 -1.6431044 -0.56679881
-1.60269 -1.6887162 -0.56201404
-1.6715949 -1.7613196 -0.5648616
-1.7477661 -1.8415794 -0.56840068
-1.8192506 -1.916901 -0.56862581
-1.889653 -1.9910823 -0.5668025
-1.9813223 -2.087672 -0.56940013
-2.0713186 -2.1824992 -0.56931955
-2.1661489 -2.2824194 -0.56833768
-2.2786605 -2.4009702 -0.56949139
-2.4053502 -2.5344603 -0.57129627
-2.5248911 -2.6604178 -0.56843185
-2.681644 -2.8255842 -0.57060999
-2.8523908 -3.005496 -0.57180768
-3.0291302 -3.1917224 -0.57001209
-3.247956 -3.4222939 -0.57136071
-3.4880483 -3.6752734 -0.57090878
-3.7797501 -3.9826326 -0.57248241
-4.1171646 -4.3381581 -0.5733819
-4.5188079 -4.7613602 -0.5743019
-4.9990492 -5.2673788 -0.57456273
-5.6034341 -5.9042048 -0.57599562
-6.3544464 -6.695529 -0.57613552
-7.3761201 -7.7720418 -0.57941103
-8.7538862 -9.2237606 -0.58168638
-10.792698 -11.372008 -0.58663476
-14.043234 -14.797021 -0.59358156
-20.093046 -21.171564 -0.60655612
-35.271107 -37.164322 -0.6387862
-14.085875 -14.841949 2.650635
-13.495724 -14.220122 2.7054353
-13.333761 -14.049466 2.8372066
-1.4294238 -1.543728 -0.56373447
-1.4775063 -1.5956553 -0.56336838
-1.5318288 -1.6543217 -0.56412798
-1.5993975 -1.7272937 -0.56826466
-1.652218 -1.7843379 -0.56568533
-1.7149678 -1.8521055 -0.56509805
-1.7963194 -1.9399624 -0.56887144
-1.8720058 -2.0217011 -0.56892294
-1.9559927 -2.1124041 -0.56954259
-2.0498252 -2.2137399 -0.57085067
-2.143543 -2.3149519 -0.56983209
-2.232295 -2.4108009 -0.56526965
-2.3675053 -2.5568233 -0.56973195
-2.5007627 -2.7007368 -0.5704332
-2.6359756 -2.8467619 -0.5682981
-2.8182364 -3.0435972 -0.57242024
-2.9905949 -3.2297385 -0.57019085
-3.1999714 -3.4558578 -0.5703519
-3.4471791 -3.7228334 -0.57166898
-3.7321713 -4.0306149 -0.57273954
-4.04985 -4.3736968 -0.57145393
-4.4539909 -4.8101554 -0.57353806
-4.9377885 -5.3326397 -0.57501489
-5.5376706 -5.9804916 -0.57675129
-6.2835078 -6.7859697 -0.57722563
-7.2726703 -7.8542309 -0.57882762
-8.6549864 -9.347084 -0.58270794
-10.650173 -11.501817 -0.58653098
-13.847404 -14.954715 -0.593032
-19.808416 -21.392401 -0.60585892
-34.747593 -37.526188 -0.63761377
-14.431049 -15.585031 2.7514431
-13.559596 -14.643891 2.7541289
-1.4222087 -1.5743308 -0.56848067
-1.4591579 -1.6152322 -0.5639028
-1.5195278 -1.6820593 -0.56717217
-1.5753938 -1.7439009 -0.56731224
-1.6336275 -1.8083633 -0.56689078
-1.7078826 -1.890561 -0.57038045
-1.7696621 -1.9589485 -0.56801492
-1.8347415 -2.0309889 -0.56514508
-1.9194244 -2.1247296 -0.56645942
-2.0108078 -2.2258875 -0.56756425
-2.1092196 -2.3348255 -0.56829685
-2.2189236 -2.4562638 -0.56948882
-2.3266499 -2.5755126 -0.56747854
-2.4611316 -2.7243786 -0.56899166
-2.61376 -2.8933325 -0.5711357
-2.7683182 -3.0644226 -0.56989169
-2.950521 -3.2661142 -0.57016444
