# .PCD v0.7 - Point Cloud Data file format
VERSION 0.7
FIELDS x y z
SIZE 4 4 4
TYPE F F F
COUNT 1 1 1
WIDTH 1469
HEIGHT 1
VIEWPOINT 0 0 0 1 0 0 0
POINTS 1469
DATA ascii
2.472518 -0.29013708 -0.55733347
2.5794501 -0.30268502 -0.55881184
2.686944 -0.31529889 -0.55861521
2.8039787 -0.32903227 -0.55852365
2.9324019 -0.34410205 -0.55864644
3.0496826 -0.35786435 -0.55459666
3.2270453 -0.37867692 -0.55900669
3.3785384 -0.39645386 -0.55618125
3.5678985 -0.41867429 -0.55674028
3.7677228 -0.44212264 -0.55567604
3.9981365 -0.46916047 -0.55552429
4.2656054 -0.50054657 -0.55635399
4.5365143 -0.53233629 -0.55312961
4.8879905 -0.57358021 -0.55452228
5.2693858 -0.61833495 -0.55317616
5.7160921 -0.6707536 -0.551759
6.2562938 -0.73414344 -0.55110955
6.9078064 -0.8105951 -0.5502938
7.6942978 -0.90288568 -0.54819912
8.6833162 -1.0189419 -0.54567868
9.9864168 -1.1718539 -0.54371703
11.711028 -1.3742281 -0.53937083
14.192452 -1.6654103 -0.53468698
17.991867 -2.1112518 -0.52710104
24.555515 -2.8814616 -0.51378173
38.653698 -4.53581 -0.48521242
2.0834866 -0.2185514 -0.56133068
2.1457496 -0.22508261 -0.55892909
2.2099063 -0.23181245 -0.55597574
2.3073044 -0.24202922 -0.56003302
2.383564 -0.25002861 -0.55750519
2.4753797 -0.2596598 -0.5572167
2.5925505 -0.27195063 -0.56088305
2.6973054 -0.28293914 -0.5600037
2.8094325 -0.29470092 -0.55884594
2.9250844 -0.30683243 -0.55649155
3.0650036 -0.32150954 -0.55662179
3.2251236 -0.33830565 -0.55791104
3.3988757 -0.35653171 -0.55876529
3.5789113 -0.3754169 -0.55769628
3.7771065 -0.39620697 -0.55629933
4.0144639 -0.42110506 -0.55703133
4.2687736 -0.44778132 -0.55600697
4.5620313 -0.47854319 -0.55548143
4.8806257 -0.51196277 -0.55293077
5.2805285 -0.55391139 -0.55358911
5.7293191 -0.60098815 -0.55228066
6.2620964 -0.65687484 -0.55086756
6.9096613 -0.72480243 -0.54969001
7.7008462 -0.80779535 -0.54791653
8.7109966 -0.91375709 -0.54667073
9.988059 -1.047717 -0.54306394
11.739142 -1.2314003 -0.53992748
14.228277 -1.492503 -0.53530478
18.014915 -1.8897098 -0.52705574
24.573875 -2.5777247 -0.51346385
38.693951 -4.0588775 -0.48505452
2.0864997 -0.19296198 -0.56146073
2.1369467 -0.1976274 -0.55596101
2.2232971 -0.20561317 -0.55866629
2.3054733 -0.21321294 -0.55890995
2.3994679 -0.22190566 -0.56054443
2.4812386 -0.22946791 -0.55785829
2.5911608 -0.23963365 -0.55990261
2.6856389 -0.24837109 -0.55690533
2.8239586 -0.26116309 -0.56105423
2.9392402 -0.27182445 -0.55850661
3.0718119 -0.28408483 -0.55718172
3.2270644 -0.29844278 -0.5575698
3.3805497 -0.31263727 -0.55507857
3.5670843 -0.32988822 -0.55517918
3.7989984 -0.35133591 -0.5588451
4.000958 -0.37001339 -0.55448407
4.2596154 -0.39393434 -0.55414134
4.5720215 -0.42282602 -0.55602276
4.9059477 -0.4537079 -0.55512553
5.2822967 -0.48851311 -0.55310285
5.7159839 -0.52862108 -0.55032706
6.2689738 -0.57976216 -0.55080378
6.9163461 -0.63963193 -0.54955459
7.7090473 -0.71294188 -0.54783487
8.7062597 -0.80516529 -0.54571086
9.999691 -0.92478341 -0.54303706
11.754017 -1.0870255 -0.53995597
14.247865 -1.3176596 -0.53539163
18.027517 -1.6672064 -0.52678478
24.610044 -2.2759664 -0.513596
38.735874 -3.5823402 -0.48499122
2.0838299 -0.16690153 -0.56014776
2.1574597 -0.1727988 -0.56070256
2.2301574 -0.17862144 -0.55979592
2.2943635 -0.18376394 -0.55562681
2.4014232 -0.19233873 -0.56040633
2.4921644 -0.19960652 -0.55972052
2.5809636 -0.20671879 -0.55710781
2.6982772 -0.21611485 -0.55893278
2.8093033 -0.22500733 -0.55755073
2.9453456 -0.23590346 -0.55907327
3.0723932 -0.24607918 -0.55669618
3.2286913 -0.25859764 -0.55725932
3.4058559 -0.27278739 -0.55864078
3.5854003 -0.28716779 -0.55743819
3.7954774 -0.30399361 -0.55773515
4.0162692 -0.32167765 -0.55601579
4.2688794 -0.34191009 -0.5547576
4.5647326 -0.36560607 -0.55454767
4.9081645 -0.39311281 -0.55478746
5.2898159 -0.42368063 -0.55330288
5.7220578 -0.45830044 -0.5503276
6.2769594 -0.50274456 -0.55092061
6.9211307 -0.55433857 -0.54935163
7.7137561 -0.61782283 -0.54758823
8.7213001 -0.69852066 -0.54607391
10.007721 -0.8015548 -0.54289681
11.761564 -0.9420265 -0.53972977
14.259035 -1.1420581 -0.53524321
18.04525 -1.4453099 -0.52674383
24.63143 -1.972821 -0.51349723
38.762764 -3.104651 -0.48481324
2.0770917 -0.1406824 -0.55782932
2.1460116 -0.14535037 -0.5572207
2.2376144 -0.15155467 -0.56115752
2.3160043 -0.15686405 -0.56035805
2.3896747 -0.16185378 -0.55715805
2.4989002 -0.16925168 -0.5607236
2.5843117 -0.17503664 -0.55732375
2.6931407 -0.18240769 -0.55736208
2.8111868 -0.190403 -0.55741775
2.9373271 -0.19894654 -0.55704474
3.0761695 -0.20835041 -0.5568741
3.2355793 -0.21914729 -0.5579409
3.4088316 -0.23088175 -0.55862093
3.5847983 -0.24280007 -0.55683827
3.7793665 -0.25597826 -0.55486315
4.0181551 -0.2721515 -0.55577153
4.2766914 -0.2896623 -0.55526799
4.563314 -0.30907539 -0.55387175
4.8890381 -0.33113682 -0.55212349
5.294733 -0.35861474 -0.55331409
5.7439976 -0.38904363 -0.55193591
6.2885957 -0.42592955 -0.55144054
6.9465499 -0.47049308 -0.55086839
7.7314582 -0.5236553 -0.54834634
8.7248173 -0.59093595 -0.54579788
10.028155 -0.67921162 -0.54351115
11.785292 -0.79822332 -0.54032731
14.246869 -0.9649471 -0.53430074
18.083603 -1.2248108 -0.5273838
24.654001 -1.669827 -0.51350093
38.788128 -2.6271379 -0.48468977
2.0813029 -0.11527893 -0.55853736
2.154022 -0.11930668 -0.55887747
2.2526634 -0.12477022 -0.56450415
2.3032649 -0.12757294 -0.55685413
2.4020092 -0.13304217 -0.55961019
2.4746387 -0.13706495 -0.5548594
2.5995636 -0.14398427 -0.56018877
2.7008772 -0.14959583 -0.55854023
2.8065574 -0.15544923 -0.55607873
2.9407811 -0.16288358 -0.5572778
3.0854418 -0.17089604 -0.55813009
3.236151 -0.17924351 -0.55761725
3.3972094 -0.18816417 -0.55629516
3.578047 -0.19818039 -0.55536908
3.7955353 -0.2102266 -0.55681539
4.0201888 -0.22266969 -0.55563211
4.2818618 -0.23716319 -0.55551863
4.5684247 -0.25303531 -0.5540725
4.9130154 -0.27212143 -0.55441153
5.3010993 -0.29361659 -0.55356026
5.7574015 -0.31889018 -0.55280524
6.2802448 -0.34784937 -0.5502916
6.9365654 -0.38420156 -0.54966038
7.7371612 -0.42854485 -0.54833561
8.7370491 -0.4839265 -0.54614955
10.029626 -0.55551958 -0.54317957
11.786094 -0.65280658 -0.53995526
14.259223 -0.78978795 -0.53435946
18.083879 -1.0016276 -0.52699292
24.678062 -1.3668653 -0.51361316
38.823063 -2.1503267 -0.4847593
2.0983629 -0.090359844 -0.56277484
2.1600602 -0.093016654 -0.56010503
2.2253487 -0.095828116 -0.55732179
2.3179405 -0.099815309 -0.56006312
2.3900673 -0.10292124 -0.55649108
2.493948 -0.10739456 -0.55885059
2.6125228 -0.11250063 -0.56264073
2.7083244 -0.11662605 -0.55974144
2.8376853 -0.1221966 -0.5619061
2.9383893 -0.12653312 -0.55648768
3.071975 -0.13228559 -0.55535781
3.2355838 -0.13933092 -0.55718219
3.4037204 -0.14657123 -0.55702412
3.5951848 -0.15481609 -0.55769145
3.7995453 -0.16361627 -0.55706638
4.0169783 -0.1729794 -0.55485249
4.2719316 -0.1839582 -0.553895
4.5698476 -0.19678707 -0.55390972
4.9164042 -0.21171053 -0.55445826
5.3033414 -0.22837284 -0.55345929
5.7594585 -0.24801418 -0.55266821
6.2869992 -0.27073118 -0.55055004
6.9377327 -0.29875311 -0.54942024
7.7464566 -0.33357844 -0.54866219
8.7512474 -0.37684682 -0.54670614
10.028369 -0.43184233 -0.5427829
11.796134 -0.50796592 -0.5400883
14.272392 -0.61459869 -0.53452939
18.101484 -0.77948737 -0.52718675
24.67981 -1.0627636 -0.51333874
38.823879 -1.6718365 -0.48447615
2.0956986 -0.064441293 -0.56180525
2.1616745 -0.066470012 -0.56026936
2.2286923 -0.068530761 -0.55790597
2.3105335 -0.071047321 -0.55802017
2.4027314 -0.073882341 -0.55918592
2.4880898 -0.076507054 -0.55728495
2.5923381 -0.079712622 -0.55804044
2.7087266 -0.083291486 -0.55957055
2.833385 -0.087124646 -0.56080002
2.9313936 -0.090138339 -0.5549109
3.0817819 -0.094762675 -0.55687791
3.2441738 -0.099756122 -0.55840796
3.4003201 -0.10455751 -0.55621517
3.5948477 -0.1105391 -0.55738622
3.7946243 -0.1166821 -0.5560925
4.0254588 -0.12378009 -0.55577159
4.2856007 -0.13177928 -0.55541521
4.5709429 -0.14055337 -0.55379117
4.9196024 -0.1512744 -0.55456722
5.3133922 -0.16338316 -0.55425662
5.7522612 -0.17687809 -0.55172718
6.2974315 -0.19364171 -0.55121344
6.9617205 -0.21406813 -0.5510698
7.7418771 -0.23805742 -0.54808909
8.7559605 -0.26923978 -0.54675239
10.041553 -0.30877087 -0.54324991
11.790101 -0.3625375 -0.53956711
14.290498 -0.43942302 -0.53496462
18.086256 -0.55613995 -0.52650428
24.698704 -0.7594682 -0.51349866
38.850895 -1.1946384 -0.48459333
2.0976174 -0.038692374 -0.56214964
2.1477711 -0.039617505 -0.55649745
2.2386541 -0.041293919 -0.5602302
2.3261213 -0.042907331 -0.56161493
2.3985939 -0.044244148 -0.55805421
2.4934485 -0.045993824 -0.55831629
2.5959065 -0.047883749 -0.55863959
2.7110379 -0.050007448 -0.55987865
2.8183 -0.05198599 -0.55764562
2.9510467 -0.054434624 -0.55846232
3.0746288 -0.056714196 -0.55541736
3.2477334 -0.059907265 -0.55885166
3.4112439 -0.062923357 -0.55783337
3.5760682 -0.065963686 -0.55430675
3.7900636 -0.069911018 -0.55525619
4.0248332 -0.074241541 -0.5555172
4.2916021 -0.079162329 -0.55602479
4.588377 -0.084636599 -0.55573529
4.8919325 -0.090235941 -0.55128133
5.3158255 -0.098055013 -0.55434275
5.7690973 -0.10641601 -0.55317461
6.2841921 -0.11591738 -0.54988831
6.9392891 -0.12800121 -0.54912806
7.7358541 -0.14269455 -0.54749709
8.7299385 -0.16103129 -0.54496264
10.038648 -0.18517157 -0.54292846
11.781275 -0.21731584 -0.53900015
14.279475 -0.26339734 -0.53439039
18.098461 -0.33384183 -0.5267002
24.719 -0.45596343 -0.51376522
38.87101 -0.71700954 -0.48469761
2.0935409 -0.012871096 -0.56097233
2.1749959 -0.013371882 -0.56346637
2.2480457 -0.013820992 -0.56249541
2.3108916 -0.014207369 -0.55785358
2.4007864 -0.014760043 -0.55847991
2.5035439 -0.015391795 -0.56049204
2.6077499 -0.016032455 -0.56110346
2.6981299 -0.01658811 -0.55712867
2.8271337 -0.017381227 -0.55930895
2.9570224 -0.018179784 -0.55950856
3.0881524 -0.01898597 -0.55777603
3.2276645 -0.019843692 -0.5553143
3.4091718 -0.020959599 -0.55741018
3.5948477 -0.022101136 -0.55713344
3.7925384 -0.023316538 -0.55553472
4.0231528 -0.024734357 -0.55520135
4.291337 -0.026383152 -0.55590641
4.5868731 -0.02820011 -0.5554691
4.9350271 -0.030340564 -0.5560537
5.3165216 -0.032685991 -0.5543316
5.7501645 -0.035352029 -0.55127591
6.2868204 -0.038651392 -0.55003506
6.9550056 -0.042759396 -0.55028862
7.747694 -0.047632847 -0.54825217
8.7447767 -0.053762913 -0.54580635
10.054633 -0.061815917 -0.54371083
11.807824 -0.072594538 -0.54013312
14.27926 -0.087788932 -0.53430152
18.107769 -0.11132662 -0.52689147
24.709782 -0.1519158 -0.51349598
38.867043 -0.23895471 -0.48457488
2.0770483 0.012769699 -0.55655307
2.1607926 0.013284558 -0.55978674
2.226382 0.013687802 -0.55707484
2.3144073 0.014228984 -0.55870229
2.3969629 0.014736535 -0.55759043
2.4814651 0.015256055 -0.55554903
2.5938482 0.015946986 -0.55811226
2.7078815 0.016648063 -0.55914229
2.8275423 0.017383739 -0.55938977
2.9564416 0.018176213 -0.55939865
3.1021984 0.019072324 -0.56031299
3.2349341 0.019888386 -0.55656505
3.409121 0.020959286 -0.5574019
3.5955698 0.022105575 -0.55724531
3.7903817 0.023303278 -0.55521882
4.0358114 0.024812182 -0.55694824
4.2826891 0.026329987 -0.55478615
4.5739226 0.02812049 -0.55390078
4.900681 0.030129403 -0.55218375
5.2925467 0.032538593 -0.55183178
5.7524633 0.035366163 -0.55149633
6.2964768 0.038710758 -0.5508799
6.9268904 0.042586543 -0.54806405
7.7421989 0.047599066 -0.5478633
8.7406454 0.053737517 -0.54554856
10.049116 0.061781999 -0.54341251
11.80256 0.072562173 -0.53989232
14.300459 0.087919265 -0.53509474
18.130884 0.11146873 -0.52756405
24.704401 0.15188272 -0.51338416
38.872555 0.23898859 -0.48464361
2.0946624 0.038637869 -0.56135774
2.1597722 0.039838873 -0.55960703
2.2421095 0.041357655 -0.56109494
2.3208122 0.042809401 -0.56033313
2.3963687 0.044203103 -0.55753648
2.4938545 0.046001315 -0.55840725
2.5801318 0.047592774 -0.55524486
2.7155626 0.050090909 -0.56081307
2.8240283 0.052091654 -0.55877906
2.9549353 0.054506347 -0.55919814
3.0928047 0.057049472 -0.5587008
3.2498431 0.059946179 -0.55921465
3.4038196 0.062786408 -0.55661929
3.589572 0.066212773 -0.55639988
3.7953703 0.070008904 -0.55603361
4.0232201 0.074211784 -0.55529451
4.2898355 0.079129741 -0.55579591
4.5818319 0.08451587 -0.55494249
4.9141655 0.090646051 -0.55378681
5.2878194 0.097538419 -0.55142224
5.7498951 0.10606182 -0.55133343
6.2966542 0.11614725 -0.55097872
6.9424257 0.12805907 -0.54937631
7.7418032 0.14280428 -0.54791814
8.7426338 0.16126548 -0.54575515
10.049253 0.18536718 -0.54350203
11.80762 0.21780181 -0.54020548
14.299387 0.26376459 -0.53513551
18.112787 0.33410609 -0.52711713
24.702991 0.45566815 -0.5134325
38.867744 0.71694928 -0.48465687
2.0808394 0.063984379 -0.55782187
2.1557274 0.066287138 -0.55872792
2.2317445 0.068624608 -0.55866998
2.3130097 0.071123466 -0.55861825
2.4077365 0.074036248 -0.56035078
2.4870934 0.076476417 -0.55706179
2.5973749 0.079867497 -0.55912471
2.7010324 0.0830549 -0.55798113
2.8182762 0.086660057 -0.55780953
2.9300094 0.090095781 -0.55464888
3.0841281 0.094834827 -0.55730194
3.2429256 0.099717736 -0.55819315
3.4114232 0.10489892 -0.55803138
3.5845327 0.11022192 -0.55578685
3.8035727 0.11695725 -0.55740386
4.0334635 0.12402624 -0.55687678
4.2879338 0.13185103 -0.55571759
4.5832295 0.14093116 -0.55527967
4.9213309 0.15132755 -0.55476207
5.3038669 0.16309027 -0.55326307
5.7706165 0.17744249 -0.55348766
6.3023009 0.19379143 -0.55163968
6.9460735 0.213587 -0.54983121
7.7438903 0.2381193 -0.5482316
8.7489891 0.26902542 -0.54631704
10.037568 0.30864835 -0.54303432
11.801822 0.3628979 -0.5401035
14.27067 0.4388133 -0.53422236
18.094282 0.55638677 -0.52673787
24.697275 0.75942427 -0.51346898
38.86816 1.1951692 -0.48480868
2.0853176 0.089798085 -0.5592761
2.1539977 0.092755586 -0.55853301
2.2308433 0.096064717 -0.55869788
2.3090894 0.099434167 -0.55792457
2.3860612 0.10274873 -0.55555832
2.4910994 0.10727189 -0.55821228
2.593919 0.11169951 -0.55863416
2.6926036 0.11594908 -0.55649233
2.8255091 0.12167227 -0.55949497
2.9561112 0.12729625 -0.5598439
3.0732448 0.13234027 -0.55558735
3.2237244 0.13882023 -0.5551399
3.4005415 0.14643435 -0.55650389
3.5883827 0.15452318 -0.55663633
3.7990298 0.16359408 -0.5569908
4.0251141 0.17332974 -0.55597621
4.2768884 0.18417166 -0.55453771
4.5722847 0.19689204 -0.55420512
4.9134293 0.21158242 -0.55412275
5.3091207 0.22862172 -0.55406243
5.7621984 0.24813217 -0.55293113
6.2976761 0.27119094 -0.55148506
6.9414024 0.29891115 -0.54971087
7.7273235 0.33275452 -0.54730707
8.7372789 0.37624529 -0.54583347
10.02976 0.4319022 -0.54285818
11.794129 0.50787961 -0.5399965
14.292176 0.61545068 -0.53527033
18.103584 0.77957779 -0.52724791
24.685152 1.0629936 -0.51344985
38.831665 1.6721718 -0.48457333
2.090095 0.1157659 -0.56089675
2.1498094 0.11907336 -0.5577845
2.2374387 0.12392695 -0.56068885
2.3235233 0.128695 -0.56175196
2.3870084 0.13221131 -0.55611539
2.5007198 0.13850953 -0.56070727
2.5988834 0.14394662 -0.5600422
2.7146332 0.15035774 -0.56138498
2.816292 0.15598841 -0.55800754
2.9480922 0.16328855 -0.55866331
3.0879016 0.17103229 -0.55857503
3.2344847 0.17915119 -0.55733013
3.4055262 0.18862483 -0.55765706
3.5912278 0.19891044 -0.55741489
3.7929876 0.2100855 -0.55644161
4.0149326 0.22237854 -0.55490565
4.2806668 0.237097 -0.5553636
4.5694585 0.25309256 -0.55419791
4.9090724 0.27190304 -0.55396658
5.302969 0.29372013 -0.55375546
5.7521262 0.318598 -0.55229878
6.2841945 0.34806812 -0.55063766
6.9405389 0.38442165 -0.54997528
7.7270021 0.42798215 -0.54761565
8.7268658 0.48336247 -0.54551297
10.042252 0.55621886 -0.54386336
11.780788 0.65251273 -0.53971225
14.264452 0.79007757 -0.53455544
18.07309 1.00103 -0.52667844
24.669416 1.3663863 -0.51343322
38.832504 2.1508496 -0.48487717
2.0850227 0.14121957 -0.55995929
2.1587422 0.14621261 -0.56052625
2.2279561 0.1509005 -0.55873531
2.3033051 0.15600394 -0.55728555
2.4013777 0.16264643 -0.55988669
2.4775114 0.167803 -0.55592418
2.6018105 0.17622183 -0.56109744
2.7012661 0.18295802 -0.55904365
2.8144836 0.19062629 -0.55807143
2.9431176 0.19933873 -0.5581429
3.07303 0.20813777 -0.55630577
3.2148132 0.2177408 -0.55435997
3.392998 0.22980934 -0.55602622
3.5850928 0.24282001 -0.55688405
3.7904761 0.25673071 -0.55649418
4.0194426 0.27223873 -0.55594963
4.2858667 0.29028377 -0.55645931
4.5747495 0.30984992 -0.5552597
4.9047399 0.33220032 -0.55389673
5.2847939 0.35794154 -0.55227542
5.7388015 0.38869169 -0.5514366
6.2858486 0.42574346 -0.55119962
6.9207602 0.4687463 -0.54882324
7.7281375 0.52343035 -0.54811078
8.7398682 0.59195536 -0.54673946
10.033087 0.6795457 -0.54377848
11.764258 0.79679871 -0.53936303
14.2622 0.96598548 -0.53487575
18.076702 1.2243434 -0.52718258
24.667313 1.6707286 -0.51377815
38.78352 2.626826 -0.48463222
2.0763724 0.16630423 -0.55814308
2.1439996 0.17172074 -0.55720448
2.2362132 0.17910646 -0.56131595
2.3159664 0.18549418 -0.56085837
2.3987513 0.19212472 -0.5597828
2.4860578 0.19911742 -0.55834907
2.5846789 0.20701636 -0.55790979
2.6893432 0.21539931 -0.55708218
2.8215668 0.22598957 -0.55998456
2.9486008 0.23616417 -0.55969113
3.0780327 0.24653085 -0.55771804
3.2274983 0.2585021 -0.55705345
3.3877809 0.27133971 -0.55567604
3.5726521 0.28614673 -0.55545616
3.7851694 0.303168 -0.55622041
4.0109525 0.32125181 -0.55527973
4.2748895 0.34239146 -0.55553865
4.570056 0.36603245 -0.55519438
4.9098024 0.39324397 -0.55497259
5.2811999 0.42299056 -0.55240166
5.7471132 0.46030724 -0.55273736
6.2726588 0.5024001 -0.55054313
6.9185791 0.55413419 -0.5491491
7.7217712 0.61846477 -0.54815722
8.7139568 0.6979326 -0.54561418
10.001304 0.80104089 -0.54254872
11.764043 0.9422251 -0.53984356
14.247484 1.141133 -0.53480965
18.057566 1.4462962 -0.5271033
24.643848 1.9738156 -0.5137561
38.763157 3.1046824 -0.48481813
2.0734901 0.19175886 -0.55796003
2.1557138 0.19936298 -0.56084353
2.2281711 0.20606394 -0.55989105
2.3339968 0.2158508 -0.56582481
2.3874331 0.22079268 -0.557733
2.5003784 0.23123798 -0.56216145
2.5870054 0.23924935 -0.55900466
2.6994169 0.24964531 -0.55976242
2.8102031 0.25989094 -0.55832136
2.9441326 0.27227691 -0.55943626
3.0686178 0.28378946 -0.55660236
3.2211177 0.29789284 -0.55654234
3.3899648 0.313508 -0.55662453
3.5685146 0.33002049 -0.5554018
3.7701793 0.34867069 -0.55460572
4.0101438 0.37086287 -0.55575705
4.2638817 0.39432889 -0.55469638
4.5604696 0.42175767 -0.55461782
4.9061327 0.45372501 -0.55514646
5.268199 0.48720932 -0.55162668
5.7306538 0.52997768 -0.55173939
6.2688026 0.57974637 -0.55078876
6.921998 0.64015466 -0.55000365
7.7181125 0.71378028 -0.54847908
8.7155247 0.80602217 -0.54629165
10.022303 0.92687458 -0.54426497
11.756313 1.0872378 -0.54006147
14.226244 1.3156601 -0.53457922
18.048834 1.6691778 -0.52740771
24.600727 2.2751048 -0.51340157
38.735714 3.5823252 -0.4849892
2.0669515 0.21681692 -0.55687582
2.141917 0.22468057 -0.55793071
2.2168362 0.23253937 -0.55771917
2.3163257 0.2429755 -0.5622226
2.3998966 0.25174186 -0.56132531
2.472831 0.25939244 -0.55664301
2.5745118 0.27005845 -0.55698049
2.6877625 0.28193811 -0.55802244
2.8080406 0.29455492 -0.55856907
2.9226594 0.30657807 -0.55603027
3.0663104 0.32164663 -0.55685914
3.2182667 0.3375864 -0.55672485
3.3871889 0.35530582 -0.556844
3.5770135 0.37521783 -0.55740052
3.7678952 0.39524072 -0.55494273
4.0050974 0.4201225 -0.55573159
4.2618079 0.44705066 -0.55509973
4.543653 0.47661537 -0.55324364
4.8845782 0.51237738 -0.55337858
5.2772236 0.55356473 -0.55324262
5.7401805 0.60212743 -0.55332768
6.2626538 0.65693331 -0.55091655
6.9114208 0.72498703 -0.54983002
7.7031369 0.80803561 -0.54807949
8.6908531 0.9116441 -0.54540664
9.9897957 1.0478991 -0.54315835
11.738479 1.2313306 -0.53989691
14.21559 1.4911721 -0.53482741
18.02154 1.8904046 -0.52724952
24.589783 2.5793934 -0.51379627
38.686691 4.058116 -0.48496354
2.0680258 0.24267204 -0.55792701
2.1454654 0.25175917 -0.55961907
2.2166462 0.26011187 -0.55843383
2.294595 0.26925877 -0.55770963
2.3801105 0.27929357 -0.55745858
2.4853861 0.29164711 -0.56023413
2.5932918 0.30430925 -0.56181049
2.6956832 0.31632438 -0.56043214
2.7957997 0.32807252 -0.55689448
2.9352458 0.34443578 -0.55918825
3.0540726 0.35837951 -0.55539495
3.2135661 0.37709522 -0.55667174
3.382458 0.3969138 -0.55682647
3.5714266 0.4190883 -0.55729085
3.7634335 0.44161928 -0.5550434
4.0018935 0.46960133 -0.55604631
4.2519965 0.49894962 -0.55457902
4.5508218 0.53401518 -0.55487412
4.8856974 0.57331109 -0.5542621
5.2744355 0.61892748 -0.55370629
5.7309527 0.67249739 -0.55319345
6.2542486 0.73390347 -0.55092943
6.9183564 0.81183308 -0.55113429
7.6921611 0.90263498 -0.54804689
8.6981335 1.0206805 -0.54660982
9.983079 1.1714623 -0.54353529
11.713435 1.3745105 -0.5394817
14.192959 1.6654698 -0.53470606
17.992304 2.1113031 -0.52711391
24.559053 2.8818767 -0.51385576
38.639408 4.534133 -0.48503307
2.0672364 0.26838636 -0.55856216
2.1408091 0.27793822 -0.55925369
2.2097218 0.28688508 -0.55753595
2.287667 0.29700458 -0.55687129
2.3799686 0.30898798 -0.55827302
2.480505 0.32204044 -0.55998415
2.5777612 0.33466709 -0.55929518
2.6844552 0.34851903 -0.55894649
2.7895772 0.36216688 -0.55650002
2.9211779 0.3792524 -0.55735451
3.0480366 0.39572227 -0.5551402
3.2095687 0.41669378 -0.5568248
3.365345 0.43691799 -0.55485183
3.562597 0.46252695 -0.55675846
3.7525983 0.48719454 -0.55428702
4.0058603 0.5200752 -0.55744392
4.2515154 0.55196822 -0.55535954
4.5540395 0.59124452 -0.55611086
4.8695383 0.63220525 -0.55326903
5.2577882 0.68261123 -0.55279803
5.7038202 0.74051893 -0.55141169
6.2488241 0.81127602 -0.55128866
6.8801589 0.89324135 -0.54892486
7.6897526 0.99834973 -0.54870844
8.683238 1.1273324 -0.54650354
9.9637785 1.2935833 -0.54330939
11.708494 1.5200974 -0.54007417
14.17834 1.8407539 -0.53496766
17.97896 2.3341832 -0.52752393
24.515646 3.1828318 -0.51372761
38.602932 5.011764 -0.48531204
2.0619388 0.29352176 -0.55806381
2.1330292 0.30364168 -0.55815458
2.207088 0.3141841 -0.55780405
2.3105061 0.32890588 -0.56337273
2.3726597 0.33775359 -0.55749059
2.4792912 0.35293284 -0.56064749
2.5718818 0.36611331 -0.55895406
2.6843951 0.38212985 -0.55987
2.7894824 0.39708927 -0.55741304
2.9207485 0.41577533 -0.55820584
3.0583358 0.43536118 -0.55794889
3.2134316 0.45743942 -0.55842859
3.3748331 0.48041531 -0.55734801
3.5524881 0.50570494 -0.55610842
3.7546358 0.53448111 -0.55551678
3.990329 0.56803256 -0.55621254
4.2451591 0.60430825 -0.55545789
4.5419536 0.64655757 -0.55556387
4.8579264 0.69153702 -0.55287403
5.2582378 0.74852234 -0.5537712
5.6945648 0.81063449 -0.55143887
6.239902 0.88826454 -0.55142343
6.8696208 0.97790641 -0.54900193
7.6801014 1.0932802 -0.54893756
8.6585522 1.2325649 -0.5458625
9.9534435 1.4168957 -0.5436548
11.673002 1.6616789 -0.53933877
14.174162 2.0177248 -0.53570563
17.946243 2.5546892 -0.52744579
24.483946 3.4853463 -0.51392257
38.527134 5.484427 -0.4851703
2.0673113 0.3202678 -0.56054139
2.1429138 0.33198014 -0.5617668
2.2064133 0.34181747 -0.55865353
2.2950602 0.35555062 -0.5606302
2.3835356 0.36925727 -0.56107056
2.4636977 0.38167593 -0.5581404
2.5797684 0.39965761 -0.56169367
2.676079 0.41457805 -0.55915654
2.7991445 0.43364337 -0.56036699
2.9178774 0.45203745 -0.5586772
3.0363369 0.47038922 -0.55494875
3.2071764 0.49685568 -0.55836111
3.371779 0.52235585 -0.55786222
3.5453842 0.54925078 -0.55601156
3.7561855 0.58190811 -0.55676264
3.9745214 0.61573273 -0.55502254
4.238657 0.65665263 -0.55562162
4.526238 0.70120466 -0.5546543
4.8559117 0.75227767 -0.55365568
5.2467346 0.81282395 -0.55357045
5.6809783 0.88009697 -0.55112952
6.2231712 0.96409345 -0.55095088
6.8694296 1.0642118 -0.54999089
7.6582441 1.186415 -0.54837656
8.6526566 1.3404694 -0.5464887
9.9342232 1.5390095 -0.54359752
11.661273 1.806564 -0.5397824
14.138089 2.1902723 -0.53531969
17.91362 2.7751775 -0.52745008
24.435627 3.7855666 -0.51384658
38.464664 5.9589443 -0.48526967
2.0813148 0.34869429 -0.56545824
2.1208241 0.35531348 -0.5570792
2.2090244 0.37009022 -0.56042457
2.2808738 0.38212752 -0.55827039
2.3806758 0.39884791 -0.56150937
2.4602735 0.41218337 -0.55847067
2.549732 0.42717084 -0.55625546
2.6680527 0.44699377 -0.5585857
2.7923567 0.46781912 -0.56011736
2.9066029 0.4869594 -0.55762285
3.0625436 0.51308507 -0.56084925
3.1943204 0.53516233 -0.55722648
3.3536742 0.56185979 -0.55596781
3.5426128 0.59351373 -0.55667937
3.731864 0.62522 -0.55425525
3.9694638 0.66502649 -0.55541623
4.2192712 0.70687813 -0.554178
4.5128751 0.75606716 -0.55411416
4.847343 0.8121025 -0.55377543
5.2321019 0.87656325 -0.55312204
5.6851692 0.95246816 -0.55263054
6.213347 1.0409567 -0.55117273
6.8606238 1.1493987 -0.55037588
7.6455107 1.2808951 -0.54855114
8.6147451 1.4432764 -0.54517394
9.9300375 1.6636347 -0.54444671
11.651536 1.9520469 -0.54040194
14.10735 2.3634832 -0.5352158
17.873621 2.9944675 -0.52731663
24.406593 4.088973 -0.51425445
38.410519 6.4351287 -0.48554817
2.060149 0.37124562 -0.56090564
2.1358218 0.38488212 -0.56221932
2.2113481 0.39849222 -0.56221467
2.2807813 0.41100428 -0.55944246
2.3607619 0.42541704 -0.55800408
2.4703293 0.44516146 -0.56195337
2.5530035 0.46005964 -0.55816114
2.6744754 0.48194927 -0.56112868
2.781523 0.5012396 -0.5591383
2.8929284 0.52131522 -0.55618715
3.0443568 0.54860312 -0.55871183
3.1806071 0.57315588 -0.55602163
3.3527844 0.60418278 -0.55700982
3.523174 0.63488752 -0.55480963
3.7219098 0.67070043 -0.55395985
3.9547973 0.71266747 -0.55454826
4.2087278 0.75842667 -0.55397618
4.4979043 0.8105371 -0.55345786
4.8387852 0.87196505 -0.55398083
5.2227869 0.94116342 -0.55331892
5.672523 1.0222073 -0.55258131
6.2020683 1.1176331 -0.55134958
6.8345671 1.2316115 -0.54945886
7.6307187 1.3750807 -0.54866153
8.6144476 1.5523517 -0.54632175
9.8947887 1.7830735 -0.54367518
11.628551 2.0955031 -0.54049009
14.066494 2.5348287 -0.53480786
17.834724 3.213876 -0.52729517
24.348375 4.3876572 -0.5141257
38.34251 6.9094467 -0.48572576
2.0463634 0.39479929 -0.55843186
2.1199224 0.40899083 -0.55931562
2.185936 0.42172664 -0.5570302
2.281796 0.44022065 -0.56097674
2.3527718 0.45391384 -0.55739266
2.4511912 0.47290161 -0.55888039
2.534637 0.48900056 -0.55541831
2.665555 0.51425827 -0.56054145
2.7651062 0.53346437 -0.55711472
2.9031823 0.560103 -0.55944043
3.0210838 0.58284944 -0.55571395
3.1833227 0.61414975 -0.55777436
3.3411849 0.64460564 -0.5563575
3.5289037 0.68082172 -0.55698812
3.7210641 0.71789467 -0.55510587
3.9696746 0.76585847 -0.55791277
4.2161322 0.81340688 -0.55622524
4.4851274 0.86530334 -0.55315316
4.8194003 0.92979372 -0.55302858
5.2093701 1.0050296 -0.55316496
5.6655927 1.0930473 -0.55317366
6.187469 1.1937315 -0.55131501
6.8196354 1.3156936 -0.54951757
7.6091619 1.4680147 -0.54836798
8.5994625 1.6590707 -0.54662389
9.8688297 1.9039664 -0.54349416
11.59204 2.2364206 -0.54003048
14.034451 2.7076283 -0.53481501
17.813532 3.4367161 -0.52787817
24.294394 4.6870508 -0.51416397
38.261383 7.3816638 -0.48581114
2.0564423 0.42303437 -0.56255931
2.1064034 0.43331191 -0.5571124
2.1802976 0.44851282 -0.55695665
2.2501607 0.46288449 -0.55455667
2.367599 0.48704293 -0.56228167
2.4417439 0.50229537 -0.55809236
2.5321274 0.52088839 -0.55622989
2.6406434 0.5432114 -0.55666536
2.7575583 0.56726211 -0.55695724
2.8957322 0.59568614 -0.55937397
3.0274942 0.62279117 -0.55825961
3.1740711 0.65294373 -0.55751801
3.342782 0.68764955 -0.5579893
3.5237134 0.72486925 -0.55753356
3.7109902 0.7633943 -0.55496144
3.9348428 0.80944341 -0.55437434
4.1865153 0.86121541 -0.55367327
4.4836998 0.92234969 -0.55433393
4.818296 0.99118012 -0.55425858
5.2095642 1.0716685 -0.55454296
5.662416 1.1648256 -0.55422014
6.1690836 1.269053 -0.55102557
6.8185334 1.4026525 -0.55077696
7.5966983 1.5627301 -0.54881316
8.5749874 1.7639756 -0.54640561
9.8648167 2.0293088 -0.54460615
11.572863 2.3806739 -0.54045993
14.015229 2.8830974 -0.535393
17.756721 3.6527662 -0.52748579
24.246923 4.9878769 -0.51441848
38.179886 7.8540506 -0.48596588
2.0435472 0.44663984 -0.56049168
2.1111293 0.4614107 -0.55982065
2.1900411 0.47865775 -0.56090677
2.2673695 0.49555874 -0.56025726
2.3462317 0.51279491 -0.55866235
2.4414108 0.53359735 -0.55947363
2.5469408 0.55666214 -0.56094515
2.6410358 0.57722765 -0.55820215
2.7422071 0.59933972 -0.55530322
2.8806088 0.62958896 -0.55790591
3.010762 0.6580354 -0.55662417
3.1707449 0.69300139 -0.55838829
3.3369951 0.72933728 -0.55847812
3.5048106 0.76601517 -0.55599105
3.6957071 0.80773771 -0.55411935
3.9483726 0.86296058 -0.55773342
4.1862459 0.91495043 -0.55508351
4.4717484 0.97735012 -0.55430025
4.7913275 1.0471977 -0.55259579
5.1720471 1.1304082 -0.55198723
5.6412506 1.2329577 -0.55359054
6.1533713 1.3448875 -0.55105764
6.7983918 1.4858638 -0.5505842
7.569736 1.6544497 -0.54829359
8.5575151 1.8703398 -0.54671645
9.8278227 2.1479795 -0.54398084
11.533294 2.5207291 -0.5400188
13.976294 3.0546739 -0.53530002
17.724787 3.8739486 -0.52791232
24.193674 5.2877955 -0.5146293
38.091003 8.3252106 -0.48610082
2.0374978 0.47163928 -0.56038082
2.1013048 0.48640934 -0.55875927
2.1823282 0.50516456 -0.56047994
2.2511499 0.5210954 -0.55779058
2.3358607 0.54070425 -0.55773395
2.4350634 0.5636676 -0.55956513
2.5349894 0.58679849 -0.55985981
2.6341043 0.60974151 -0.55827957
2.7438943 0.63515574 -0.55718434
2.8772352 0.66602141 -0.55879641
3.0092227 0.69657385 -0.557881
3.1579342 0.73099756 -0.5576731
3.3236642 0.7693606 -0.55778813
3.5118001 0.81291032 -0.55864334
3.6994534 0.85634822 -0.55621785
3.9282892 0.90931898 -0.55643386
4.1726213 0.96587694 -0.55480981
4.4568701 1.0316747 -0.55398667
4.7839193 1.10738 -0.55327004
5.180068 1.1990805 -0.55437499
5.6129599 1.299286 -0.55234039
6.138196 1.4208676 -0.55122161
6.7793503 1.5692817 -0.55056322
7.5603433 1.7500657 -0.54913044
8.529973 1.9745152 -0.54646665
9.791666 2.2665715 -0.54348117
11.508151 2.663903 -0.54033446
13.944124 3.2277813 -0.53554761
17.681913 4.0930033 -0.52809441
24.113052 5.5816808 -0.51433545
38.002911 8.7969007 -0.48632032
2.0180948 0.49336767 -0.55667084
2.0931416 0.51171446 -0.55821955
2.1694329 0.53036559 -0.55880076
2.2615373 0.55288255 -0.56200641
2.3330789 0.57037246 -0.55870211
2.4251356 0.59287769 -0.55891681
2.5194237 0.61592853 -0.55805254
2.6308837 0.64317733 -0.55923092
2.7295969 0.66730994 -0.55590528
2.8677363 0.70108122 -0.55858368
2.9972594 0.73274595 -0.55729139
3.144372 0.76871085 -0.55690521
3.3051763 0.80802298 -0.55631089
3.4860425 0.85223973 -0.55617088
3.6731493 0.89798212 -0.55388135
3.9090476 0.95565259 -0.55533087
4.1533384 1.0153749 -0.55386412
4.4725361 1.0934098 -0.55756301
4.7751184 1.1673826 -0.5538705
5.1532583 1.2598274 -0.55312186
5.5925422 1.3672199 -0.5519439
6.1112165 1.4940213 -0.55040693
6.7601037 1.652656 -0.55060893
7.5260701 1.8399132 -0.54824293
8.497571 2.0774181 -0.54598612
9.7600021 2.3860471 -0.54331112
11.457012 2.8009183 -0.53950965
13.893244 3.3965089 -0.53515708
17.636778 4.3116984 -0.52828997
24.061377 5.8823328 -0.51473719
37.903294 9.2662935 -0.48646685
2.015758 0.5191437 -0.55774492
2.0884302 0.53785986 -0.55868465
2.1692638 0.55867803 -0.56048435
2.2427118 0.57759398 -0.55905086
2.3182814 0.59705639 -0.55687457
2.4199319 0.6232357 -0.55944139
2.5361698 0.6531719 -0.56349826
2.6102891 0.67226082 -0.55656838
2.7320166 0.70361084 -0.55811793
2.8441095 0.73247951 -0.55569392
2.9909897 0.77030748 -0.55784464
3.1278393 0.80555212 -0.55568945
3.2966805 0.84903586 -0.55659604
3.4815848 0.89665663 -0.55717665
3.6844618 0.94890612 -0.5573045
3.9020233 1.0049375 -0.55604643
4.1470041 1.0680305 -0.55472887
4.438663 1.1431451 -0.55505061
4.7577124 1.225314 -0.55355734
5.1553726 1.3277285 -0.55505925
5.5939713 1.4406863 -0.5537914
6.1038933 1.572013 -0.55144668
6.7573628 1.7403094 -0.55208701
7.5052457 1.9329211 -0.5484159
8.4844894 2.185118 -0.54683065
9.7440472 2.5095079 -0.54409957
11.454162 2.9499352 -0.54104263
13.863591 3.5704663 -0.53566551
17.563637 4.523386 -0.52772528
24.006624 6.1827302 -0.51515329
37.818546 9.7398891 -0.48687947
2.0277622 0.54890794 -0.56289142
2.0899982 0.56575501 -0.5609228
2.157146 0.58393168 -0.55916631
2.2403615 0.60645783 -0.56028157
2.3269973 0.62990981 -0.56078643
2.4112089 0.65270555 -0.55923802
2.5218127 0.68264556 -0.56213087
2.6204743 0.70935297 -0.56055754
2.7376354 0.74106801 -0.56108493
2.8491862 0.77126443 -0.55849665
2.9835858 0.80764598 -0.55827385
3.1396222 0.84988445 -0.55959713
3.2785852 0.88750118 -0.55534148
3.464664 0.93787211 -0.55627233
3.6649535 0.99208975 -0.55615687
3.8865697 1.0520804 -0.55564576
4.1326776 1.118701 -0.55461061
4.4163022 1.1954771 -0.5540508
4.744133 1.2842197 -0.55377281
5.1307187 1.3888671 -0.55420166
5.5679903 1.5072349 -0.55301237
6.0822158 1.6464339 -0.55127561
6.6939898 1.8120389 -0.54868823
7.4815392 2.0252256 -0.54846185
8.4604254 2.2902067 -0.54705334
9.7027826 2.6265082 -0.5435577
11.397662 3.0853062 -0.54012507
13.813749 3.7393322 -0.53547585
17.519997 4.7426 -0.52812636
23.920372 6.4751587 -0.51497209
37.707108 10.207178 -0.48702386
2.0183947 0.57309896 -0.56220478
2.0767379 0.58966482 -0.55926764
2.148381 0.61000699 -0.55879641
2.2408657 0.63626689 -0.56232178
2.3100121 0.65590018 -0.55859452
2.4121218 0.68489301 -0.5613606
2.5026367 0.71059364 -0.55976176
2.6011193 0.73855656 -0.55831766
2.7183654 0.77184719 -0.55903846
2.835814 0.80519527 -0.55777401
2.9740436 0.84444398 -0.55838907
3.1086435 0.882662 -0.55596805
3.2824252 0.93200517 -0.55789095
3.4624083 0.98310924 -0.55780888
3.6450515 1.0349686 -0.55502605
3.874912 1.1002347 -0.55587131
4.1252251 1.1713082 -0.5555014
4.4053855 1.2508563 -0.55456895
4.7339845 1.3441579 -0.55447561
5.1059389 1.44977 -0.5534088
5.5361867 1.5719337 -0.55173171
6.066514 1.7225138 -0.55173051
6.6809144 1.8969654 -0.54948694
7.4633622 2.119132 -0.54899812
8.4190893 2.3904991 -0.54623991
9.6722069 2.7463071 -0.54369557
11.368201 3.227864 -0.54056901
13.770203 3.9098837 -0.53561103
17.470068 4.9604158 -0.52841997
23.856045 6.7736373 -0.5153414
37.601242 10.676421 -0.4873153
1.987776 0.59091085 -0.55565816
2.0803757 0.61843824 -0.5622527
2.1454103 0.63777125 -0.56002122
2.2240617 0.66115206 -0.5601027
2.3001852 0.6837815 -0.55820924
2.3944788 0.71181238 -0.55924934
2.4958706 0.74195331 -0.56024671
2.5948029 0.7713632 -0.55895555
2.7212589 0.80895507 -0.56163675
2.82353 0.83935744 -0.55734587
2.9558644 0.8786968 -0.55696237
3.0971572 0.92069924 -0.55589658
3.2714074 0.97249901 -0.55800861
3.4385085 1.0221735 -0.5559414
3.6401029 1.0821019 -0.55625653
3.8707342 1.1506623 -0.55725956
4.1046762 1.2202069 -0.55471289
4.3848891 1.3035064 -0.55396461
4.7100682 1.4001732 -0.55364919
5.0842285 1.5114007 -0.55302829
5.5212569 1.641317 -0.55221337
6.031765 1.7930771 -0.55053383
6.6634226 1.9808514 -0.55001003
7.425766 2.2074752 -0.54818779
8.391923 2.4946868 -0.54642636
9.6324158 2.863451 -0.54339701
11.32613 3.3669455 -0.54049635
13.709881 4.0755687 -0.53517354
17.403412 5.1735535 -0.52828813
23.769072 7.0658884 -0.51530057
37.478554 11.141339 -0.48746392
1.995623 0.62004924 -0.55994064
2.0661049 0.64194828 -0.56048685
2.1256065 0.66043574 -0.55692953
2.2073007 0.68581849 -0.55796331
2.3035343 0.71571869 -0.56111538
2.3792162 0.73923343 -0.55776554
2.4755428 0.76916254 -0.55776459
2.5819919 0.80223674 -0.55827868
2.6976354 0.83816773 -0.558846
2.8197613 0.87611276 -0.5586862
2.9416404 0.91398114 -0.5563578
3.0894849 0.95991719 -0.55659598
3.2510216 1.0101074 -0.55660796
3.434773 1.0671997 -0.55741704
3.6242497 1.126071 -0.55590791
3.8463824 1.1950886 -0.55582738
4.1071644 1.2761148 -0.55712759
4.3681879 1.357216 -0.55392122
4.7043409 1.4616603 -0.55504662
5.0642023 1.5734708 -0.55291271
5.487155 1.7048842 -0.55085772
6.0176735 1.8697187 -0.5513044
6.6441131 2.0643563 -0.55046982
7.4070597 2.3014073 -0.54885447
8.3427296 2.5921245 -0.54525739
9.5911264 2.9800069 -0.5430938
11.290977 3.5081587 -0.54083651
13.691195 4.2539172 -0.53644544
17.340755 5.3878527 -0.52835733
23.686972 7.3596506 -0.51544362
37.355469 11.606515 -0.48768237
1.9751878 0.64043456 -0.55637443
2.0529974 0.66566348 -0.55910927
2.1419303 0.69449914 -0.56340146
2.2103789 0.71669292 -0.56092668
2.2790856 0.73897034 -0.55733126
2.3711512 0.76882172 -0.5580489
2.4591761 0.7973628 -0.55624408
2.5788729 0.83617336 -0.55978519
2.6761155 0.86770326 -0.55655622
2.8028724 0.90880287 -0.55751199
2.9351387 0.95168889 -0.55729932
3.0918207 1.0024915 -0.55919534
3.2335458 1.0484444 -0.55578113
3.4245808 1.1103855 -0.55793667
3.6124821 1.1713105 -0.55627006
3.8350091 1.2434628 -0.5563513
4.0681505 1.3190565 -0.5539937
4.3514652 1.4109184 -0.55395877
4.6838288 1.5186839 -0.55478787
5.0553002 1.6391298 -0.55409944
5.4861856 1.7788399 -0.5529145
6.0109425 1.9489871 -0.5528416
6.604135 2.1413238 -0.54929763
7.3643961 2.3878305 -0.54782742
8.3366241 2.7030656 -0.54698938
9.574296 3.1043684 -0.54426122
11.255486 3.649477 -0.5412451
13.633911 4.4206572 -0.53629029
17.281017 5.6031947 -0.52859652
23.605633 7.6538868 -0.5156827
37.237938 12.074022 -0.48804939
1.985387 0.67082942 -0.56152838
2.0454304 0.69111711 -0.55932069
2.1302018 0.71976 -0.56260192
2.1926026 0.74084419 -0.55868518
2.2755795 0.76888067 -0.55874366
2.3743351 0.80224854 -0.56107748
2.4604266 0.83133745 -0.55879694
2.5705736 0.86855429 -0.56025958
2.6637788 0.90004677 -0.55625015
2.7952812 0.94447929 -0.55826992
2.9138558 0.98454362 -0.55551493
3.0716226 1.0378505 -0.55780828
3.2273805 1.0904785 -0.55698413
3.4026616 1.149703 -0.55662674
3.5999243 1.2163548 -0.55659747
3.8199115 1.2906849 -0.5564214
4.0583615 1.3712533 -0.55491489
4.3447328 1.4680133 -0.55535775
4.6610155 1.57488 -0.55433756
5.028172 1.6989362 -0.55337399
5.4642329 1.8462739 -0.5529483
5.9777131 2.0197704 -0.55202788
6.5906892 2.2268848 -0.55041522
7.3449326 2.4817312 -0.54860818
8.313674 2.8090527 -0.54770845
9.529686 3.2199233 -0.54393494
11.203247 3.7853918 -0.54093051
13.584408 4.5899467 -0.53652263
17.211699 5.8155479 -0.52862358
23.511366 7.9441013 -0.51571834
37.09446 12.533605 -0.48815197
1.9634761 0.69043851 -0.55769038
2.0344992 0.71541309 -0.55869478
2.1059206 0.74052787 -0.55855179
2.1773348 0.76563996 -0.55715162
2.263586 0.79596949 -0.55815989
2.361908 0.83054352 -0.56051183
2.4456382 0.85998642 -0.55779779
2.5579724 0.89948773 -0.55988145
2.6672025 0.9378975 -0.55933106
2.7821026 0.97830105 -0.55799824
2.9078736 1.0225273 -0.5567295
3.0370612 1.067955 -0.55387479
3.2019553 1.1259385 -0.55494362
3.394691 1.1937122 -0.55768186
3.5856981 1.2608782 -0.55675298
3.7893934 1.3325057 -0.55432087
4.0511222 1.4245403 -0.55627811
4.3237638 1.5204123 -0.55502528
4.6437273 1.6329246 -0.5546276
5.0161462 1.7638823 -0.55439562
5.4427056 1.913878 -0.55310953
5.9414639 2.0892618 -0.55101115
6.5609789 2.3071086 -0.55026162
7.3143296 2.5720174 -0.54864317
8.2618427 2.9052019 -0.546606
9.5054893 3.342519 -0.54485863
11.156801 3.9231877 -0.54097629
13.523911 4.7555604 -0.53640229
17.142853 6.0281281 -0.52874571
23.428915 8.2385654 -0.5160929
36.964687 12.998297 -0.48851064
1.9681976 0.71941137 -0.56150162
2.0224047 0.73922503 -0.55782753
2.1102862 0.77134728 -0.56218278
2.17313 0.79431784 -0.55853277
2.2572861 0.82507837 -0.55906582
2.3520756 0.85972559 -0.56064487
2.4441388 0.89337635 -0.559919
2.5462918 0.9307152 -0.55978751
2.644824 0.96673042 -0.55708891
2.7756283 1.0145417 -0.55915958
2.8951285 1.0582212 -0.55673856
3.0480943 1.1141329 -0.55834317
3.203985 1.1711137 -0.55774909
3.377835 1.2346591 -0.5573647
3.568804 1.3044616 -0.55657828
3.7692578 1.3777311 -0.55381173
4.0169349 1.4682614 -0.55402094
4.2919164 1.5687721 -0.55337149
4.6313205 1.6928303 -0.55558991
4.9798326 1.8202177 -0.55281407
5.4142194 1.9789939 -0.55264586
5.929143 2.1672077 -0.55229819
6.5380044 2.3897574 -0.55075765
7.276391 2.6596508 -0.54820907
8.2405682 3.0120747 -0.54760748
9.4585714 3.4572771 -0.54456496
11.113039 4.0620141 -0.54123533
13.457325 4.9188924 -0.5361197
17.07711 6.2419887 -0.52904534
23.346382 8.5335197 -0.51654726
36.821968 13.459087 -0.48877475
1.9530777 0.74123228 -0.55974609
2.022325 0.7675131 -0.56036639
2.1023638 0.79788935 -0.56264347
2.1653264 0.82178491 -0.55908203
2.2409954 0.85050285 -0.55757916
2.3284209 0.88368255 -0.55755442
2.4324298 0.92315608 -0.55979484
2.5351331 0.962134 -0.55989295
2.6470871 1.0046228 -0.56012529
2.7583587 1.0468526 -0.55823159
2.8843272 1.0946602 -0.55720776
3.0289788 1.1495584 -0.55738884
3.1891692 1.2103539 -0.55771863
3.3627586 1.2762345 -0.55742437
3.5548656 1.349143 -0.55694973
3.7633669 1.4282734 -0.55548465
4.0109253 1.5222268 -0.55573171
4.2887902 1.6276821 -0.555507
4.5905714 1.7422142 -0.55322969
4.957808 1.8815879 -0.55289578
5.3706484 2.038269 -0.55071515
5.9010544 2.2395689 -0.55220526
6.5148926 2.4725327 -0.55133027
7.2523942 2.7524295 -0.5489096
8.1984739 3.1114857 -0.54731131
9.4242916 3.5767083 -0.54508221
11.051211 4.1941571 -0.54069507
13.404596 5.0873137 -0.53647065
16.996914 6.4506707 -0.52897823
23.227837 8.8154316 -0.51628375
36.681461 13.921352 -0.48914492
1.9334275 0.76110083 -0.55675447
2.0104172 0.79140812 -0.55972099
2.0818043 0.81950992 -0.5597958
2.1587732 0.84980899 -0.56004578
2.2381771 0.88106662 -0.55953121
2.3269701 0.91602033 -0.5598619
2.4305866 0.95680934 -0.5620358
2.5261106 0.99441278 -0.56055844
2.6237607 1.032853 -0.55783463
2.7420022 1.0793992 -0.55756539
2.8838291 1.1352299 -0.55976599
3.0208325 1.1891618 -0.55853832
3.1657207 1.2461976 -0.5562557
3.3366783 1.3134956 -0.55573648
3.5381653 1.3928118 -0.55697435
3.7515011 1.4767922 -0.55637151
3.9830368 1.5679371 -0.55449706
4.2645307 1.6787481 -0.55499655
4.5812464 1.8034245 -0.55473644
4.9324813 1.9416894 -0.55269217
5.3694096 2.1136878 -0.55321139
5.8631902 2.3080664 -0.55127615
6.4821243 2.551712 -0.55117083
7.2264018 2.8446996 -0.54954827
8.1690416 3.2157731 -0.54794484
9.3665352 3.687171 -0.54432291
11.011374 4.3346682 -0.54131287
13.349344 5.2550182 -0.53680491
16.934124 6.6661801 -0.52953517
23.129217 9.1049013 -0.51654118
36.527168 14.379054 -0.48940822
1.9293685 0.78703713 -0.5583303
2.0014687 0.81644851 -0.55998236
2.0675778 0.84341609 -0.55871683
2.1462755 0.87551886 -0.55955416
2.2234592 0.90700394 -0.55859774
2.3023374 0.93918031 -0.5566718
2.4037924 0.98056638 -0.55858594
2.5149858 1.0259249 -0.56084675
2.610482 1.0648801 -0.55775332
2.7306051 1.1138813 -0.55799079
2.8692 1.1704177 -0.55967766
3.0053141 1.2259419 -0.5584141
3.1563187 1.2875404 -0.55734342
3.327455 1.3573512 -0.55693811
3.5202274 1.4359878 -0.55688816
3.7293282 1.5212852 -0.5558154
3.9627082 1.6164867 -0.55439228
4.2555475 1.7359431 -0.55656344
4.5560684 1.858533 -0.55441308
4.9216223 2.0076513 -0.55419976
5.334178 2.1759431 -0.55229646
5.8310347 2.3786232 -0.5509612
6.4397068 2.6269157 -0.55026913
7.189425 2.9327443 -0.54943717
8.1074886 3.307245 -0.54650259
9.3199406 3.8018343 -0.54429072
10.96534 4.4730334 -0.54171276
13.278377 5.4165783 -0.53658897
16.851955 6.8743291 -0.52956897
23.036039 9.3969698 -0.51700169
36.396824 14.847165 -0.49007091
1.9237354 0.81246978 -0.55954897
1.9968021 0.84332871 -0.56153566
2.0491433 0.86543447 -0.55656892
2.124718 0.89735264 -0.55676854
2.2253118 0.93983746 -0.5619241
2.291014 0.96758604 -0.5567686
2.3858161 1.0076249 -0.55724573
2.5006077 1.0561057 -0.56049407
2.5946164 1.0958095 -0.55720031
2.7266934 1.1515908 -0.56004274
2.8350911 1.1973715 -0.5558542
2.9751027 1.2565038 -0.55562937
3.1393445 1.3258697 -0.55718291
3.3177526 1.4012185 -0.55815583
3.4984944 1.4775529 -0.55628222
3.7114582 1.5674959 -0.55598271
3.9490612 1.6678452 -0.55531025
4.2249389 1.7843593 -0.55538785
4.5480752 1.9208326 -0.55627251
4.8877006 2.0642698 -0.55319649
5.3151059 2.2447801 -0.5531379
5.7944455 2.4472241 -0.55030566
6.4006486 2.7032478 -0.54973042
7.1478701 3.0188291 -0.54905683
8.075984 3.4108083 -0.54716474
9.2858334 3.9217756 -0.54507393
10.915252 4.6099439 -0.54199779
13.215434 5.5814018 -0.53677827
16.76972 7.0825176 -0.52968144
22.917196 9.6788416 -0.51696652
36.211002 15.293344 -0.49006394
1.9150289 0.83668596 -0.55996674
1.9852771 0.8673777 -0.56125158
2.0502193 0.8957513 -0.55981058
2.1150148 0.92406076 -0.55716127
2.2051706 0.96345025 -0.55978733
2.2864182 0.9989478 -0.5585947
2.3754735 1.0378565 -0.55776864
2.4827361 1.0847201 -0.55943567
2.5829771 1.128516 -0.55763865
2.7062905 1.1823921 -0.55879617
2.830744 1.2367666 -0.55794144
2.9620986 1.294156 -0.55613071
3.1319065 1.368346 -0.55880684
3.2962365 1.4401426 -0.55747318
3.4772635 1.5192342 -0.55583483
3.7190461 1.6248703 -0.56007016
3.9305997 1.7172991 -0.55564159
4.2201838 1.84382 -0.55770105
4.5158324 1.9729903 -0.55525428
4.8687162 2.127167 -0.55396634
5.290709 2.3115377 -0.55351514
5.7952056 2.531955 -0.55329287
6.3789673 2.7870033 -0.55076998
7.1247392 3.1128349 -0.55017865
8.0415802 3.5134075 -0.54771948
9.2353506 4.0349722 -0.5449819
10.846175 4.7387495 -0.54142022
13.158195 5.7488828 -0.53728408
16.69051 7.2921696 -0.52997178
22.817228 9.9689636 -0.51743752
36.045078 15.748279 -0.49040201
1.9036411 0.85973746 -0.55968577
1.9767317 0.89274716 -0.56189668
2.0424106 0.92240959 -0.56073302
2.0973172 0.94720703 -0.55552548
2.187717 0.98803407 -0.55839866
2.2808855 1.0301114 -0.56029522
2.3594389 1.0655885 -0.55703819
2.4678566 1.1145529 -0.5591287
2.5794637 1.1649578 -0.55993038
2.6879914 1.213972 -0.55805784
2.8079376 1.2681429 -0.55647773
2.954987 1.3345546 -0.55783439
3.1031191 1.4014552 -0.55670315
3.2856421 1.4838877 -0.55872512
3.4592803 1.5623075 -0.55598903
3.6743536 1.6594406 -0.55637056
3.9013381 1.7619531 -0.55452597
4.182519 1.8889422 -0.55575109
4.4872785 2.0265801 -0.55476546
4.8384933 2.1851988 -0.55354303
5.2508707 2.3714397 -0.55235624
5.7560868 2.5996094 -0.55256826
6.3669019 2.8754706 -0.55273938
7.0735135 3.1945961 -0.54921484
8.0109062 3.617949 -0.54861891
9.1759701 4.144124 -0.54444367
10.799042 4.8771486 -0.54202008
13.077874 5.9063325 -0.53692925
16.590969 7.4929447 -0.52969658
22.698929 10.25147 -0.51757431
35.870537 16.200136 -0.49070051
1.8690453 0.87193793 -0.55262482
1.9653401 0.91686094 -0.56182086
2.0241404 0.94429207 -0.55886263
2.0910187 0.97549188 -0.55699223
2.1989307 1.0258346 -0.56443793
2.2596755 1.0541728 -0.55822706
2.3657579 1.1036619 -0.56169158
2.4574087 1.1464183 -0.5599131
2.558111 1.1933975 -0.55843854
2.6760201 1.2484039 -0.55871725
2.7942586 1.303564 -0.5569014
2.9403219 1.3717047 -0.55820787
3.0752463 1.4346489 -0.55482566
3.265023 1.5231826 -0.55836159
3.4370673 1.6034439 -0.55554581
3.6542394 1.7047579 -0.55645692
3.8914168 1.8154049 -0.55624664
4.1652608 1.9431573 -0.5565908
4.4632039 2.0821521 -0.55491251
4.8067632 2.2424278 -0.55302572
5.2243829 2.4372537 -0.55268073
5.7244315 2.6705341 -0.55264002
6.3170147 2.9469831 -0.55151266
7.039475 3.2840216 -0.54966581
7.9444494 3.7062061 -0.54714733
9.1373539 4.2627139 -0.54522133
10.740973 5.0108266 -0.54215711
13.014724 6.0715656 -0.53736115
16.504946 7.6998076 -0.52993298
22.576593 10.532322 -0.51769876
35.680565 16.645523 -0.4908646
1.8836095 0.90709764 -0.56018668
1.948192 0.93819892 -0.56017435
2.005728 0.96590674 -0.55701619
2.0806727 1.0019982 -0.55747616
2.1750429 1.0474445 -0.56156981
2.2553191 1.0861033 -0.56040776
2.343281 1.1284635 -0.55960721
2.4421785 1.1760901 -0.55969578
2.5593927 1.2325374 -0.56198442
2.6668942 1.2843074 -0.56006682
2.785172 1.3412668 -0.55833524
2.9244499 1.4083395 -0.55844009
3.058497 1.4728931 -0.55502945
3.2438943 1.5621756 -0.55799115
3.4386003 1.655941 -0.55904257
3.6397374 1.7528034 -0.5574885
3.8595138 1.8586421 -0.55491132
4.1165752 1.9824363 -0.55330068
4.4368191 2.1366575 -0.55485672
4.7986135 2.3108881 -0.55531538
5.1961212 2.5023177 -0.55290425
5.6879773 2.7391829 -0.55233061
6.2691889 3.0190794 -0.55053675
6.9938817 3.3680727 -0.54929811
7.9017901 3.8052979 -0.54739052
9.0776014 4.3715382 -0.54482222
10.6684 5.1376257 -0.54164183
12.931804 6.2276225 -0.53705865
16.418657 7.9068012 -0.53024405
22.468975 10.820478 -0.5182429
35.510445 17.100912 -0.49137995
1.8764292 0.93223363 -0.561418
1.9364673 0.96206129 -0.56016225
2.0104654 0.99882448 -0.56170022
2.0763896 1.0315764 -0.55968493
2.1696649 1.0779167 -0.56356078
2.245702 1.115693 -0.56138462
2.3234341 1.1543113 -0.55821502
2.4185944 1.2015882 -0.55763477
2.5302756 1.2570727 -0.55894279
2.6422548 1.3127054 -0.55824
2.7628789 1.372633 -0.5572077
2.9123013 1.4468678 -0.5594753
3.0648055 1.5226339 -0.55952966
3.2131789 1.5963477 -0.55604219
3.4046299 1.691463 -0.55685908
3.6170442 1.796993 -0.55735499
3.8529911 1.9142145 -0.55731565
