# .PCD v0.7 - Point Cloud Data file format
VERSION 0.7
FIELDS x y z
SIZE 4 4 4
TYPE F F F
COUNT 1 1 1
WIDTH 1431
HEIGHT 1
VIEWPOINT 0 0 0 1 0 0 0
POINTS 1431
DATA ascii
-3.323288 -1.5753248 -0.56997186
-3.5255845 -1.6712186 -0.57150382
-3.7403557 -1.7730258 -0.57122028
-3.978477 -1.8859013 -0.57033849
-4.2742362 -2.026099 -0.57280719
-4.5946884 -2.1780014 -0.57291472
-4.9628768 -2.3525324 -0.57264078
-5.4175458 -2.5680573 -0.57477528
-5.9512033 -2.8210247 -0.57619685
-6.5916338 -3.1246054 -0.57715547
-7.3910799 -3.5035636 -0.57879198
-8.4204426 -3.9915085 -0.58160961
-9.7544298 -4.6238527 -0.58372784
-11.615953 -5.5062633 -0.58802062
-14.308676 -6.7826834 -0.592498
-18.696497 -8.8626251 -0.60203701
-11.388355 -5.3983755 -0.26190025
-10.817007 -5.127542 -0.14924276
-10.541726 -4.9970517 -0.04847933
-10.40509 -4.9322829 0.047850974
-10.27924 -4.8726263 0.14182316
-10.196867 -4.8335795 0.23449937
-10.129484 -4.8016386 0.32617474
-10.058794 -4.7681293 0.41651762
-10.0385 -4.7585096 0.50816709
-10.013534 -4.7466745 0.59923321
-9.9884586 -4.7347884 0.68991423
-9.9808226 -4.7311687 0.7815935
-9.9873199 -4.7342486 0.87447768
-10.000812 -4.740644 0.96828085
-10.023785 -4.751534 1.0634749
-10.072628 -4.7746868 1.1622286
-10.133981 -4.8037701 1.2636129
-10.246691 -4.8571973 1.3731993
-10.404423 -4.9319663 1.4915363
-10.705477 -5.0746741 1.6349208
-11.627703 -5.5118332 1.8848723
-11.640897 -5.5180874 1.9965119
-11.880972 -5.6318893 2.1497343
-1.9053828 -0.93206322 -0.56835628
-1.9676015 -0.96249896 -0.56744677
-2.040031 -0.99792963 -0.56823641
-2.1130421 -1.0336447 -0.56784159
-2.1911473 -1.0718517 -0.56741917
-2.2764664 -1.1135875 -0.56735367
-2.3673236 -1.1580325 -0.56703919
-2.4815021 -1.2138855 -0.57040817
-2.5923493 -1.2681092 -0.57092279
-2.7127321 -1.3269973 -0.57139635
-2.8299251 -1.384325 -0.56900293
-2.967696 -1.4517189 -0.56839252
-3.1336296 -1.5328892 -0.570364
-3.3065219 -1.6174636 -0.57046437
-3.514648 -1.7192734 -0.57311463
-3.724972 -1.8221585 -0.57224947
-3.9781637 -1.9460132 -0.57368058
-4.2544641 -2.0811722 -0.57354367
-4.5730305 -2.2370064 -0.57360077
-4.9476438 -2.4202573 -0.57427359
-5.3805737 -2.6320353 -0.57424307
-5.9058065 -2.8889654 -0.57519752
-6.5533757 -3.2057393 -0.57721353
-7.3450809 -3.5930207 -0.57860595
-8.3557463 -4.0874114 -0.58056861
-9.6815138 -4.7359424 -0.58280528
-11.530538 -5.6404362 -0.58716339
-14.239578 -6.9656277 -0.59313869
-18.581869 -9.0897627 -0.60189956
-11.067281 -5.4138231 -0.25602803
-10.539655 -5.1557221 -0.14627975
-10.322121 -5.0493102 -0.047751334
-10.175696 -4.9776835 0.047073957
-10.07015 -4.926053 0.1397635
-9.9822369 -4.8830481 0.23092686
-9.9256411 -4.8553634 0.32150906
-9.886095 -4.8360181 0.4117977
-9.8450136 -4.8159218 0.50133234
-9.8095446 -4.7985716 0.59051245
-9.7923937 -4.7901821 0.68038887
-9.7780523 -4.7831664 0.77026236
-9.7872972 -4.7876887 0.86205351
-9.7777491 -4.7830181 0.95230633
-9.7902489 -4.7891326 1.0448668
-9.8467379 -4.8167658 1.142912
-9.8945827 -4.8401704 1.2410896
-9.9745417 -4.8792839 1.3446665
-10.09844 -4.9398918 1.4562696
-10.288786 -5.0330038 1.5806166
-10.831145 -5.2983122 1.7661763
-11.254731 -5.5055189 1.9417452
-11.383333 -5.5684276 2.0719244
-1.8865325 -0.95176488 -0.5661816
-1.9532038 -0.9854008 -0.56674618
-2.0267758 -1.0225183 -0.56800359
-2.1144302 -1.0667404 -0.5716964
-2.1798077 -1.0997236 -0.56794161
-2.2775006 -1.1490102 -0.57108957
-2.3585045 -1.189877 -0.5683884
-2.4653168 -1.2437643 -0.57016015
-2.55884 -1.2909472 -0.56699604
-2.6807909 -1.3524721 -0.56812847
-2.8126321 -1.4189866 -0.56899118
-2.9610434 -1.4938608 -0.57059342
-3.1054146 -1.5666968 -0.56869197
-3.290997 -1.660324 -0.57126504
-3.4757066 -1.7535108 -0.57023758
-3.691901 -1.8625821 -0.57064432
-3.9386935 -1.98709 -0.57146907
-4.2217665 -2.1299016 -0.57262307
-4.5442605 -2.2926016 -0.57348478
-4.909647 -2.4769409 -0.57335526
-5.3621035 -2.7052073 -0.57577848
-5.8779073 -2.9654329 -0.57598817
-6.5174809 -3.2881007 -0.57756948
-7.3019867 -3.683888 -0.57873583
-8.3003626 -4.187573 -0.58025432
-9.6204538 -4.8535657 -0.5826782
-11.433869 -5.7684426 -0.58580852
-14.137776 -7.1325769 -0.59250671
-18.452036 -9.3091421 -0.60135645
-10.811825 -5.4546185 -0.25165099
-10.327237 -5.2101417 -0.14420989
-10.126721 -5.1089802 -0.047134452
-10.000933 -5.0455189 0.046548974
-9.9001818 -4.9946895 0.13824646
-9.8295212 -4.9590411 0.22878735
-9.792304 -4.9402652 0.31913364
-9.7708092 -4.9294205 0.40948945
-9.7960749 -4.9421673 0.50189692
-13.175885 -6.6472983 0.79801869
-13.141523 -6.6299624 0.91868597
-13.109661 -6.6138878 1.0390365
-13.032922 -6.5751724 1.1549582
-12.92485 -6.5206499 1.2665325
-12.793271 -6.4542675 1.3737314
-9.70679 -4.8971229 1.1335721
-9.7389202 -4.9133325 1.2290498
-9.7862368 -4.9372039 1.327365
-9.8660707 -4.9774804 1.4314783
-10.005055 -5.0475993 1.5464467
-10.25356 -5.1729712 1.6822379
-10.91778 -5.5080733 1.895154
-11.015451 -5.5573487 2.0172505
-1.8824872 -0.97894484 -0.56853724
-1.9451625 -1.0115378 -0.5679791
-2.0089731 -1.0447211 -0.56657177
-2.0779257 -1.0805783 -0.56537622
-2.1603935 -1.1234637 -0.56643981
-2.2583065 -1.1743813 -0.56985456
-2.3547201 -1.224519 -0.57106191
-2.4363449 -1.2669661 -0.56701994
-2.5433807 -1.3226275 -0.56713134
-2.6620195 -1.3843231 -0.56771487
-2.8012509 -1.4567271 -0.57026935
-2.9345129 -1.526027 -0.56905389
-3.093945 -1.6089362 -0.57017154
-3.2485499 -1.689335 -0.56745988
-3.4549286 -1.7966574 -0.57041013
-3.6743228 -1.9107486 -0.57151574
-3.9073765 -2.0319428 -0.57050729
-4.1936598 -2.1808181 -0.5724048
-4.5273805 -2.3543618 -0.57496458
-4.8768973 -2.5361204 -0.57312924
-5.3256307 -2.7694738 -0.57547528
-5.8370256 -3.035413 -0.57559609
-6.4710217 -3.3651085 -0.57707566
-7.2429295 -3.7665217 -0.57768226
-8.2473402 -4.2888427 -0.5801906
-9.575736 -4.9796453 -0.58363432
-11.394121 -5.9252553 -0.58746052
-14.048591 -7.3056521 -0.59248912
-18.326225 -9.5301399 -0.60102999
-10.604222 -5.5144858 -0.24837843
-10.179274 -5.2935009 -0.14304183
-9.9748869 -5.1872144 -0.046721097
-9.8746424 -5.1350842 0.046251561
-9.7844105 -5.0881615 0.13749312
-9.7842607 -5.0880833 0.2291728
-12.786474 -6.6493168 0.41934735
-12.842838 -6.678628 0.54163736
-12.852835 -6.683826 0.66266918
-12.862683 -6.6889477 0.78397143
-12.83006 -6.6719828 0.90257955
-12.78119 -6.6465688 1.0194033
-12.719825 -6.6146574 1.1343342
-12.625142 -6.5654197 1.2449805
-12.518853 -6.5101466 1.3527582
-12.378157 -6.4369802 1.4546714
-12.222806 -6.356194 1.5522619
-9.7268724 -5.0582404 1.3276491
-9.7136526 -5.0513659 1.4182688
-9.8166847 -5.1049452 1.5269181
-9.9906797 -5.1954269 1.6494652
-10.623993 -5.5247674 1.8558095
-10.772442 -5.601965 1.9852129
-1.8629237 -0.99806088 -0.56629252
-1.9443002 -1.0416583 -0.57142413
-2.0033934 -1.0733174 -0.56867725
-2.0736341 -1.1109489 -0.56788254
-2.1488864 -1.1512653 -0.56709158
-2.2464836 -1.203553 -0.57056248
-2.3394377 -1.2533531 -0.57105017
-2.4214759 -1.297305 -0.56722921
-2.530633 -1.355786 -0.56796336
-2.645679 -1.4174217 -0.56790411
-2.783273 -1.4911377 -0.57029909
-2.9248099 -1.5669661 -0.57086557
-3.0761702 -1.6480573 -0.57058734
-3.2327359 -1.7319374 -0.56837463
-3.4330249 -1.8392422 -0.57048464
-3.6523187 -1.9567287 -0.57179242
-3.8890321 -2.0835478 -0.57152647
-4.1621995 -2.229897 -0.57181007
-4.4690986 -2.3943181 -0.57125872
-4.8490181 -2.5978601 -0.57356358
-5.2965069 -2.8376021 -0.57605511
-5.7959003 -3.1051519 -0.57526243
-6.4165111 -3.437644 -0.57594061
-7.1956964 -3.8550923 -0.57765222
-8.203124 -4.3948212 -0.58083785
-9.504406 -5.0919828 -0.58305895
-11.3052 -6.0567575 -0.58667141
-13.953189 -7.4754171 -0.59229755
-18.203722 -9.7526388 -0.60089993
-10.509359 -5.6303864 -0.2477594
-10.041906 -5.3799486 -0.1420304
-9.8655529 -5.2854671 -0.046509892
-9.8006706 -5.2507067 0.046204012
-9.8330021 -5.2680278 0.1390757
-12.403806 -6.6453352 0.29242119
-12.449705 -6.6699262 0.41096139
-12.484187 -6.6883998 0.52994007
-12.527326 -6.7115111 0.65009236
-12.528143 -6.7119493 0.76855373
-12.502314 -6.6981106 0.88525015
-12.471356 -6.6815257 1.0011688
-12.413583 -6.6505737 1.1142328
-12.344234 -6.6134195 1.2252063
-12.230055 -6.5522485 1.3301569
-12.121117 -6.4938846 1.43374
-11.967401 -6.4115314 1.5297229
-11.76752 -6.3044453 1.6166421
-11.569829 -6.1985326 1.7002852
-9.6938019 -5.1934519 1.5176228
-9.8104248 -5.2559323 1.6302522
-10.210808 -5.470437 1.7952484
-10.661812 -5.7120624 1.9776196
-1.8514705 -1.0214204 -0.56658608
-1.9081293 -1.0526779 -0.56455523
-1.9911838 -1.0984974 -0.56900269
-2.0618947 -1.1375072 -0.56845516
-2.1375771 -1.1792598 -0.56789088
-2.2245653 -1.2272494 -0.56878543
-2.3138931 -1.2765298 -0.56860334
-2.4144876 -1.3320259 -0.56938601
-2.5230155 -1.3918986 -0.57005191
-2.6388812 -1.4558195 -0.57024443
-2.7608893 -1.523129 -0.56950718
-2.9018281 -1.6008822 -0.57017905
-3.0520375 -1.6837498 -0.56990832
-3.2381887 -1.7864459 -0.57315218
-3.4104455 -1.8814765 -0.57053387
-3.6134505 -1.9934704 -0.56950188
-3.8613741 -2.1302452 -0.5712682
-4.1511531 -2.2901106 -0.57411784
-4.4608197 -2.4609475 -0.57402515
-4.8153849 -2.6565542 -0.57340586
-5.2485604 -2.8955288 -0.57466936
-5.7518635 -3.1731913 -0.57472092
-6.3803372 -3.519908 -0.57653511
-7.1525316 -3.9459126 -0.57803845
-8.1506824 -4.496573 -0.58099574
-9.4478712 -5.2122068 -0.58347845
-11.22975 -6.1952348 -0.58666492
-13.851714 -7.6417217 -0.59193408
-18.075129 -9.9716969 -0.60065722
-25.991869 -14.339209 -0.61687154
-9.9681931 -5.499258 -0.1419335
-9.819541 -5.4172502 -0.04660349
-9.8026342 -5.4079227 0.046523251
-11.982736 -6.6106424 0.17061786
-12.064687 -6.6558533 0.28633425
-12.105213 -6.6782107 0.40227008
-12.150931 -6.7034326 0.51925343
-12.175263 -6.716856 0.63606048
-12.196868 -6.7287745 0.75325006
-12.169543 -6.7137003 0.86746758
-12.151948 -6.7039933 0.98207098
-12.080366 -6.6645031 1.0915967
-12.031081 -6.6373134 1.2021346
-11.937314 -6.5855842 1.3070266
-11.832522 -6.5277724 1.4089918
-11.679366 -6.4432793 1.502919
-11.50471 -6.3469248 1.5911385
-11.325132 -6.2478552 1.6754885
-9.7299147 -5.3678045 1.533494
-9.7036514 -5.3533163 1.6233252
-9.9929562 -5.5129199 1.768731
-1.845672 -1.0480262 -0.56871229
-1.9113655 -1.0853288 -0.56941825
-1.9696188 -1.1184068 -0.56672734
-2.0597081 -1.1695621 -0.57177401
-2.1162159 -1.2016488 -0.56609857
-2.2064912 -1.2529099 -0.56806046
-2.3015716 -1.3068992 -0.56948143
-2.3888149 -1.3564385 -0.5672223
-2.4836781 -1.4103045 -0.56503952
-2.6210053 -1.4882829 -0.57029313
-2.7503426 -1.5617244 -0.57124972
-2.8889825 -1.6404482 -0.5715754
-3.0260851 -1.718299 -0.56896466
-3.1937284 -1.8134918 -0.56918681
-3.3946886 -1.9276028 -0.5718199
-3.5928411 -2.0401194 -0.57016438
-3.8452947 -2.18347 -0.57281816
-4.1122398 -2.3350492 -0.57266378
-4.4155974 -2.5073042 -0.57213002
-4.7847304 -2.7169089 -0.57369041
-5.208806 -2.9577112 -0.57425529
-5.707942 -3.2411351 -0.57427114
-6.3326144 -3.5958424 -0.57617468
-7.1047893 -4.0343056 -0.57814556
-8.0952082 -4.596694 -0.58102655
-9.3670521 -5.3188839 -0.5824824
-11.153351 -6.3331966 -0.58669776
-13.743896 -7.804183 -0.59138274
-17.948503 -10.191682 -0.60056853
-25.787636 -14.642968 -0.61625117
-9.9235487 -5.6348791 -0.14227366
-9.7709999 -5.5482574 -0.046693373
-9.8617678 -5.5997982 0.047127131
-11.636305 -6.6074314 0.16682939
-11.717417 -6.6534891 0.28001297
-11.757693 -6.6763597 0.39342001
-11.807115 -6.7044225 0.50804549
-11.816667 -6.709846 0.62159002
-11.825928 -6.7151051 0.73538554
-11.834831 -6.720161 0.84943479
-11.820436 -6.711987 0.96187693
-11.775021 -6.6861982 1.0713534
-11.701944 -6.6447039 1.1773226
-11.619143 -6.5976868 1.2809758
-11.52021 -6.5415096 1.3812761
-11.410754 -6.4793572 1.4784942
-11.26229 -6.3950548 1.5683681
-11.074164 -6.2882318 1.6496741
-10.106994 -5.7390447 1.603925
-9.6782446 -5.4955883 1.6302565
-9.9242897 -5.6352997 1.7687083
-1.8313847 -1.0699033 -0.56832075
-1.9043415 -1.112525 -0.57135797
-1.958874 -1.1443832 -0.56764174
-2.0373433 -1.1902254 -0.56958532
-2.11515 -1.2356803 -0.56983495
-2.1992893 -1.2848349 -0.5702306
-2.2889836 -1.3372347 -0.57039231
-2.3805938 -1.3907537 -0.56928784
-2.4810858 -1.4494617 -0.5684616
-2.5980291 -1.5177805 -0.56931168
-2.7112675 -1.5839349 -0.56713629
-2.8594975 -1.6705316 -0.56976289
-2.9984517 -1.7517092 -0.56777602
-3.1818676 -1.8588617 -0.57110339
-3.3674276 -1.9672666 -0.5712595
-3.5692818 -2.0851908 -0.57045156
-3.8106587 -2.2262042 -0.57169324
-4.0754576 -2.3809011 -0.57157534
-4.3858151 -2.5622134 -0.57231015
-4.7525082 -2.776437 -0.57387704
-5.1781821 -3.0251176 -0.57493663
-5.6770935 -3.3165841 -0.57522714
-6.2913413 -3.6754305 -0.5764879
-7.045814 -4.1161971 -0.57742155
-8.023057 -4.6871066 -0.57994086
-9.3131475 -5.4407835 -0.58324659
-11.062376 -6.4626908 -0.58604819
-13.648843 -7.9737167 -0.59146696
-17.800611 -10.399199 -0.59985328
-25.580399 -14.944186 -0.61564362
-9.9540625 -5.8152089 -0.14372545
-9.7718964 -5.708787 -0.047029562
-9.8626528 -5.761807 0.047466349
-10.31768 -6.0276361 0.1489757
-11.369574 -6.6421571 0.2736316
-11.422565 -6.6731153 0.38492295
-11.454649 -6.6918583 0.49638247
-11.47584 -6.7042384 0.60795212
-11.499888 -6.7182875 0.72019374
-11.500384 -6.7185774 0.83129692
-11.472828 -6.7024789 0.94022608
-11.446515 -6.6871066 1.0488665
-11.394532 -6.6567378 1.1545421
-11.312096 -6.6085787 1.2559888
-11.225118 -6.557765 1.3554605
-11.130501 -6.50249 1.4524322
-10.999813 -6.4261413 1.5427034
-10.360824 -6.0528407 1.5543804
-9.8573427 -5.7587047 1.575425
-9.6796227 -5.65488 1.6420773
-1.8144325 -1.0901421 -0.56717706
-1.8660752 -1.1211699 -0.56397069
-1.9466665 -1.1695906 -0.56822884
-2.0303907 -1.2198936 -0.57179207
-2.0911851 -1.2564198 -0.56749797
-2.1758151 -1.307267 -0.56826913
-2.2653012 -1.3610318 -0.5686183
-2.3607247 -1.4183638 -0.56866413
-2.4700966 -1.4840764 -0.57008183
-2.5862348 -1.5538541 -0.57087088
-2.6933055 -1.6181841 -0.56749833
-2.8409085 -1.7068665 -0.57019788
-2.9947798 -1.799315 -0.57122707
-3.1475968 -1.89113 -0.56908303
-3.3496668 -2.0125372 -0.5724014
-3.5468283 -2.130995 -0.57100773
-3.7750318 -2.2681038 -0.57048935
-4.0494156 -2.4329581 -0.57207555
-4.3663945 -2.6234045 -0.57394201
-4.7242522 -2.8384118 -0.57463616
-5.1446047 -3.0909667 -0.57538509
-5.6454086 -3.3918581 -0.57619911
-6.2475462 -3.7536328 -0.57666069
-6.9997644 -4.2055783 -0.57784206
-7.9557652 -4.7799602 -0.57928157
-9.2324867 -5.5470362 -0.58242273
-10.982459 -6.5984497 -0.58606857
-13.540544 -8.1353903 -0.59106421
-17.671602 -10.617401 -0.59986013
-25.383554 -15.250874 -0.61537296
-45.076023 -27.082447 -0.65560591
-9.7929049 -5.8837447 -0.047475278
-9.8149729 -5.8970037 0.047582265
-9.9746447 -5.9929371 0.14507569
-10.294416 -6.1850619 0.24956734
-10.522597 -6.3221569 0.35718814
-11.125196 -6.6842079 0.48563081
-11.162313 -6.7065086 0.81275928
-11.16145 -6.7059903 0.92139608
-11.152261 -6.7004695 1.0293754
-11.078293 -6.6560283 1.1307069
-11.029995 -6.6270094 1.2336214
-10.945972 -6.5765276 1.3314174
-10.494412 -6.305223 1.3794411
-10.291501 -6.18331 1.4539175
-10.029293 -6.0257707 1.5156441
-9.7441177 -5.8544331 1.568716
-9.663806 -5.80618 1.651381
-1.7956682 -1.1091429 -0.56553203
-1.8732172 -1.1570431 -0.57038593
-1.9289788 -1.1914858 -0.5672996
-1.9958847 -1.2328119 -0.56630081
-2.068573 -1.2777098 -0.56558251
-2.1731179 -1.3422849 -0.5718323
-2.2539325 -1.3922021 -0.57001865
-2.3393261 -1.4449478 -0.56774664
-2.4470963 -1.511515 -0.56902009
-2.5555148 -1.5784826 -0.56833142
-2.6667266 -1.6471756 -0.56612295
-2.8177774 -1.7404763 -0.56980771
-2.9628263 -1.8300694 -0.56938148
-3.1311901 -1.9340639 -0.57037342
-3.3261766 -2.0545025 -0.5726611
-3.5182695 -2.1731541 -0.57066888
-3.758512 -2.3215463 -0.5722636
-4.0089092 -2.4762108 -0.57061154
-4.3274965 -2.6729949 -0.57310617
-4.6796679 -2.8905232 -0.57349312
-5.1026111 -3.1517651 -0.57497942
-5.6063638 -3.4629219 -0.57651651
-6.2021399 -3.830919 -0.57677406
-6.9486485 -4.2920198 -0.57793546
-7.9029188 -4.8814507 -0.57976037
-9.1750631 -5.6672249 -0.58315223
-10.898662 -6.7318516 -0.58596981
-13.45116 -8.3084717 -0.59157741
-17.516081 -10.81928 -0.59905165
-25.188702 -15.55848 -0.61524069
-44.687031 -27.602148 -0.65483522
-9.9001789 -6.1151123 -0.048356216
-9.7747221 -6.0376205 0.04774344
-9.8494997 -6.0838089 0.14433269
-9.967454 -6.1566668 0.2434577
-10.159485 -6.2752795 0.34745535
-10.303479 -6.3642216 0.45314348
-10.397076 -6.4220343 0.55900192
-10.479511 -6.4729524 0.66606086
-10.502288 -6.4870214 0.77045089
-10.509574 -6.4915218 0.87410605
-10.492801 -6.4811611 0.97578824
-10.462721 -6.4625812 1.0759079
-10.386323 -6.4153919 1.1703659
-10.280524 -6.3500428 1.2598777
-10.150516 -6.2697396 1.3442698
-9.9814835 -6.1653323 1.4207231
-9.7934027 -6.049159 1.4911242
-9.6888981 -5.9846091 1.5715547
-15.004251 -9.2677794 2.5832515
-1.7946755 -1.1392508 -0.5695883
-1.8567662 -1.1786656 -0.56974679
-1.9102293 -1.2126037 -0.56612784
-1.9825649 -1.2585219 -0.56686962
-2.0688574 -1.3133001 -0.5700326
-2.1530807 -1.3667645 -0.57093894
-2.22241 -1.4107745 -0.56639099
-2.3247366 -1.4757308 -0.56856686
-2.4249299 -1.539333 -0.56822419
-2.5255957 -1.603235 -0.56601906
-2.6556439 -1.6857891 -0.56812787
-2.8057687 -1.7810875 -0.57176489
-2.9475877 -1.8711134 -0.57083148
-3.1023273 -1.9693414 -0.56948388
-3.2867429 -2.0864074 -0.5702458
-3.4910181 -2.2160802 -0.57062548
-3.7214835 -2.3623786 -0.57100546
-3.9924355 -2.5343773 -0.57265913
-4.2894125 -2.7228968 -0.57245338
-4.6351533 -2.9423714 -0.57242846
-5.0528207 -3.2075043 -0.57376987
-5.5491819 -3.5225921 -0.57504714
-6.1449137 -3.9007595 -0.57586932
-6.887136 -4.3719182 -0.57724696
-7.8364697 -4.9745502 -0.57932925
-9.0854015 -5.7673664 -0.58191699
-10.808968 -6.8614769 -0.58563942
-13.339327 -8.4677362 -0.59119362
-17.373611 -11.028679 -0.59877193
-24.963848 -15.846922 -0.61446172
-44.288246 -28.113951 -0.65400791
-9.907383 -6.2891555 0.048765447
-9.7722721 -6.2033882 0.1443079
-9.8088493 -6.2266068 0.24143562
-9.8698702 -6.2653427 0.34015962
-9.9730921 -6.3308673 0.44200346
-10.055105 -6.3829288 0.5447945
-10.108751 -6.4169831 0.64746219
-10.147514 -6.4415894 0.75017864
-10.16126 -6.4503155 0.85166842
-10.162471 -6.4510841 0.9523738
-10.107225 -6.4160147 1.0473852
-10.055715 -6.383316 1.1418704
-9.9677935 -6.3275042 1.2309947
-9.8713856 -6.2663045 1.3174083
-9.744772 -6.1859312 1.3977516
-9.6931705 -6.1531744 1.4872707
-15.668141 -9.9460554 2.5610411
-15.213733 -9.6575985 2.6395636
-1.7861688 -1.1649073 -0.57139146
-1.837472 -1.1983663 -0.56830502
-1.9067535 -1.2435504 -0.56958652
-1.9619424 -1.2795436 -0.56542903
-2.039073 -1.3298467 -0.56628883
-2.1284218 -1.3881185 -0.5688833
-2.2103679 -1.4415624 -0.56779665
-2.3065331 -1.5042795 -0.56859577
-2.405076 -1.5685476 -0.5680486
-2.5133362 -1.6391528 -0.5677458
-2.6503255 -1.7284948 -0.57149386
-2.7676804 -1.8050315 -0.56848323
-2.9124968 -1.8994782 -0.56851608
-3.0832272 -2.0108254 -0.57047349
-3.251925 -2.1208472 -0.5686866
-3.4519117 -2.2512751 -0.56871527
-3.701966 -2.4143558 -0.57252276
-3.9591761 -2.5821037 -0.5723995
-4.2702532 -2.7849824 -0.57442331
-4.6036601 -3.0024247 -0.57305533
-5.0076666 -3.2659104 -0.57315934
-5.4996257 -3.5867574 -0.57443875
-6.0950065 -3.975054 -0.57572943
-6.8347173 -4.45748 -0.57740384
-7.7932181 -5.0825973 -0.58070821
-9.0162544 -5.8802395 -0.5820753
-10.715167 -6.9882402 -0.58516878
-13.216186 -8.619359 -0.59038877
-17.247471 -11.248491 -0.59914631
-24.745962 -16.138874 -0.61393696
-43.873306 -28.613384 -0.65302682
-9.7907495 -6.3853512 0.24290437
-9.7496147 -6.3585238 0.33868417
-9.7841797 -6.3810668 0.43707541
-9.8230724 -6.4064317 0.53645039
-9.8652601 -6.4339457 0.63688576
-9.8675604 -6.4354463 0.73527694
-9.8711958 -6.4378171 0.83392864
-9.8671675 -6.4351902 0.9320448
-9.8407555 -6.4179645 1.027872
-9.7967653 -6.3892746 1.1213022
-9.758172 -6.3641047 1.2146796
-9.7058315 -6.3299689 1.3056031
-9.6975813 -6.3245888 1.4020318
-16.778864 -10.942874 2.5949132
-15.795858 -10.301776 2.6024263
-15.4577 -10.081235 2.7031949
-1.7547261 -1.175404 -0.5659138
-1.8140095 -1.2151151 -0.56562692
-1.8872976 -1.2642071 -0.56837535
-1.9575216 -1.3112466 -0.56875879
-2.0266936 -1.3575816 -0.56744409
-2.1048605 -1.4099417 -0.56717688
-2.1982834 -1.4725211 -0.56930059
-2.2968829 -1.538568 -0.5708375
-2.3991222 -1.607053 -0.57126647
-2.4956765 -1.6717299 -0.56835717
-2.619081 -1.7543925 -0.56936532
-2.7459757 -1.839393 -0.56862783
-2.9047832 -1.9457703 -0.57163751
-3.0667577 -2.0542691 -0.57205677
-3.2348924 -2.166894 -0.57032448
-3.4334047 -2.2998676 -0.57028234
-3.6638379 -2.4542234 -0.57125008
-3.9145 -2.6221297 -0.57055885
-4.2325168 -2.8351533 -0.57399333
-4.5701985 -3.0613496 -0.57353252
-4.9655218 -3.3261569 -0.57297355
-5.457058 -3.6554127 -0.57464397
-6.0447073 -4.0490499 -0.57563776
-6.777493 -4.539907 -0.57724202
-7.7106805 -5.1650023 -0.57924664
-8.9367294 -5.9862723 -0.58164948
-10.633258 -7.1226926 -0.58543444
-13.106403 -8.7793303 -0.59026253
-17.093849 -11.450322 -0.59865558
-24.541363 -16.439043 -0.61382955
-43.464439 -29.114676 -0.65222055
-9.73248 -6.5193062 0.63344109
-9.729496 -6.5173068 0.73090541
-9.7276936 -6.5160999 0.82851183
-9.7126522 -6.5060244 0.92493623
-9.6957912 -6.49473 1.0209949
-9.7005892 -6.4979439 1.119355
-17.54191 -11.750457 2.5568252
-16.925362 -11.337461 2.6389306
-15.932429 -10.672345 2.6463478
-15.783125 -10.572332 2.7826283
-1.740353 -1.1970361 -0.56598264
-1.8054919 -1.2418395 -0.56768954
-1.8766237 -1.2907648 -0.56989765
-1.9382292 -1.3331379 -0.56787342
-1.9997406 -1.3754462 -0.56459039
-2.0924497 -1.4392126 -0.56855834
-2.1740365 -1.495329 -0.5677402
-2.2624788 -1.5561608 -0.56699991
-2.3641717 -1.6261064 -0.56766254
-2.4781623 -1.7045103 -0.56909877
-2.5976622 -1.7867039 -0.56944209
-2.7232282 -1.8730699 -0.56864381
-2.8763123 -1.9783629 -0.57077885
-3.0240972 -2.0800111 -0.56882703
-3.2039893 -2.2037432 -0.56961066
-3.4166291 -2.3499994 -0.57225233
-3.6427195 -2.5055072 -0.57271767
-3.8853149 -2.6723673 -0.57105142
-4.1786356 -2.8741167 -0.57143581
-4.525836 -3.1129255 -0.57272565
-4.9181838 -3.3827872 -0.57226777
-5.4155693 -3.724895 -0.57505482
-6.0026565 -4.1287007 -0.57642436
-6.7346663 -4.6321859 -0.57840192
-7.6491776 -5.2611985 -0.57944262
-8.8524075 -6.0887942 -0.58099037
-10.54134 -7.250463 -0.5852381
-12.996384 -8.9390726 -0.59021336
-16.937132 -11.649567 -0.59813863
-24.325541 -16.731405 -0.61353087
-43.039143 -29.602852 -0.65125161
-17.356812 -11.938229 2.5510499
-17.055672 -11.7311 2.6815364
-16.090481 -11.067231 2.6950002
-1.7345213 -1.2247118 -0.5689407
-1.7870151 -1.2617766 -0.56671554
-1.8614901 -1.3143619 -0.57016689
-1.9101616 -1.3487279 -0.56446642
-1.9909314 -1.4057579 -0.56694072
-2.0713005 -1.4625049 -0.56765532
-2.1516721 -1.5192537 -0.56673557
-2.2530701 -1.5908489 -0.56950134
-2.3408298 -1.6528144 -0.56689501
-2.459043 -1.7362825 -0.56956804
-2.5766864 -1.8193481 -0.56970501
-2.6978674 -1.9049116 -0.56819636
-2.85021 -2.0124779 -0.57046664
-3.0033069 -2.1205766 -0.56977814
-3.1840959 -2.2482281 -0.57094562
-3.3850801 -2.3901393 -0.57184756
-3.6005886 -2.5423057 -0.57096559
-3.8612535 -2.726356 -0.57239902
-4.1492372 -2.9296956 -0.57229877
-4.4895277 -3.1699681 -0.57302034
-4.8930779 -3.4549072 -0.57424635
-5.3722005 -3.7932062 -0.57535899
-5.9491229 -4.2005596 -0.57620007
-6.6693478 -4.7090964 -0.5777216
-7.5787158 -5.3511839 -0.57904577
-8.7964401 -6.2109952 -0.58228564
-10.43585 -7.3685508 -0.58436763
-12.873802 -9.089941 -0.58967799
-16.79348 -11.85755 -0.59816951
-24.07752 -17.000669 -0.61250168
-42.626244 -30.097563 -0.65055472
-17.207701 -12.150023 2.7287219
-16.213045 -11.447716 2.7388983
-1.7169977 -1.2442547 -0.5681684
-1.769789 -1.2825109 -0.5662111
-1.8461232 -1.3378279 -0.57045567
-1.9050456 -1.3805271 -0.56792808
-1.9745277 -1.4308786 -0.56723702
-2.0540473 -1.4885041 -0.56790024
-2.135025 -1.547186 -0.56731898
-2.2213919 -1.6097735 -0.56645477
-2.3301315 -1.6885736 -0.56928951
-2.4387994 -1.7673218 -0.56986964
-2.5479839 -1.8464444 -0.56833595
-2.6762512 -1.9393958 -0.56862336
-2.8289702 -2.0500665 -0.57121778
-2.9651878 -2.1487792 -0.56751615
-3.1516931 -2.2839336 -0.57012814
-3.3425884 -2.4222696 -0.56965798
-3.5651679 -2.583566 -0.57034338
-3.8345857 -2.7788048 -0.57346773
-4.1144605 -2.9816213 -0.57251573
-4.445118 -3.2212384 -0.57236445
-4.8465748 -3.5121615 -0.5738138
-5.3185172 -3.8541634 -0.57464182
-5.888988 -4.2675657 -0.57541478
-6.613235 -4.7924051 -0.57792193
-7.5048699 -5.4385452 -0.5784694
-8.7112179 -6.3127475 -0.58173871
-10.349959 -7.5002923 -0.58467823
-12.76066 -9.2472525 -0.58965939
-16.627346 -12.049319 -0.59748429
-23.861568 -17.291735 -0.61237079
-42.189819 -30.573647 -0.64958262
-17.357685 -12.578573 2.776823
-16.386253 -11.874607 2.7926145
-1.6959363 -1.2610835 -0.56628752
-1.7617531 -1.3100243 -0.56875086
-1.8287295 -1.3598274 -0.57020468
-1.8839152 -1.4008629 -0.56672114
-1.95507 -1.4537731 -0.56673986
-2.0390465 -1.5162172 -0.56886446
-2.1157389 -1.5732452 -0.56729186
-2.2084787 -1.6422056 -0.56826818
-2.3090591 -1.7169963 -0.56925637
-2.4135146 -1.7946686 -0.56907499
-2.5143878 -1.8696769 -0.56592751
-2.661165 -1.9788191 -0.57054478
-2.7999771 -2.0820386 -0.57048988
-2.944499 -2.1895039 -0.5686664
-3.1251926 -2.3238661 -0.57046038
-3.3079915 -2.4597938 -0.56887358
-3.5429101 -2.6344771 -0.57192183
-3.7851493 -2.8146043 -0.57120723
-4.0700893 -3.0264831 -0.57147676
-4.397119 -3.2696595 -0.57131773
-4.8048987 -3.572881 -0.57403773
-5.2713585 -3.9197364 -0.57471079
-5.8445358 -4.3459463 -0.57624942
-6.5392461 -4.8625269 -0.57663769
-7.4414229 -5.5333776 -0.57877976
-8.6332207 -6.4195876 -0.58175761
-10.257612 -7.6274714 -0.5847156
-12.634775 -9.3951092 -0.58913618
-16.470781 -12.247529 -0.59722483
-23.622334 -17.565363 -0.61172807
-41.754936 -31.048607 -0.64871609
-17.513994 -13.023253 2.8272338
-16.604498 -12.346961 2.8554671
-1.6880283 -1.2877345 -0.56889129
-1.7444839 -1.3308023 -0.5684157
-1.7965417 -1.3705152 -0.56538033
-1.8720665 -1.4281304 -0.56839657
-1.9411864 -1.4808595 -0.5679509
-2.0182838 -1.5396742 -0.56831092
-2.101248 -1.6029645 -0.56864846
-2.1824791 -1.6649327 -0.56680322
-2.2742198 -1.7349182 -0.56588393
-2.3886735 -1.8222308 -0.56845808
-2.5042744 -1.9104184 -0.56889558
-2.6295509 -2.0059872 -0.56901222
-2.7545192 -2.101321 -0.56644976
-2.9251437 -2.2314842 -0.57018453
-3.1019468 -2.3663607 -0.5714854
-3.2941988 -2.5130227 -0.57177258
-3.5178511 -2.6836388 -0.57316029
-3.7352812 -2.849508 -0.56892633
-4.0431747 -3.0843887 -0.57297969
-4.3669491 -3.3313839 -0.5726769
-4.756875 -3.6288443 -0.57358795
-5.2275848 -3.9879315 -0.57524121
-5.785728 -4.4137182 -0.57575881
-6.4894557 -4.9505658 -0.57757139
-7.3779187 -5.6283417 -0.57917964
-8.5529261 -6.5247116 -0.58170933
-10.156084 -7.7477016 -0.5843147
-12.528502 -9.5575314 -0.58961618
-16.316063 -12.446921 -0.59711927
-23.390465 -17.843721 -0.61135936
-41.318993 -31.520733 -0.64791596
-17.674355 -13.483113 2.8796666
-16.890543 -12.885172 2.9316838
-1.6682841 -1.305432 -0.56760406
-1.7316344 -1.3550035 -0.56961477
-1.7787859 -1.3918996 -0.56513613
-1.8548058 -1.4513851 -0.56853157
-1.9218649 -1.5038589 -0.56766534
-2.0122352 -1.5745735 -0.57201642
-2.0788486 -1.6266987 -0.56795692
-2.1721287 -1.6996902 -0.56949997
-2.2667675 -1.7737451 -0.56941366
-2.3727887 -1.8567066 -0.570068
-2.477195 -1.9384046 -0.56811571
-2.6021416 -2.0361753 -0.56845611
-2.7456942 -2.1485052 -0.57002479
-2.9025769 -2.271266 -0.57118654
-3.0682421 -2.4008989 -0.57067174
-3.2520561 -2.5447333 -0.56984597
-3.4801028 -2.7231796 -0.57242244
-3.7156906 -2.907527 -0.57134473
-3.9969168 -3.1275866 -0.57183117
-4.3294282 -3.3877766 -0.57317609
-4.7096066 -3.685266 -0.57330912
-5.177155 -4.0511227 -0.57513005
-5.7308383 -4.4843798 -0.5757404
-6.4289184 -5.0306273 -0.57764536
-7.2880874 -5.7029271 -0.57758909
-8.4682837 -6.62643 -0.5814504
-10.061059 -7.872777 -0.58437306
-12.389259 -9.6945925 -0.58862889
-16.146118 -12.634334 -0.59654033
-23.149014 -18.114098 -0.61082405
-40.869102 -31.980064 -0.64697874
-17.829327 -13.951445 2.9326451
-17.324459 -13.556386 3.0357022
-1.6506617 -1.3246858 -0.56710756
-1.7029603 -1.3666564 -0.56566775
-1.7665547 -1.4176921 -0.56674582
-1.8443904 -1.4801567 -0.57087475
-1.8988982 -1.5239002 -0.56637365
-1.9660554 -1.577795 -0.56436145
-2.0601947 -1.6533436 -0.56837195
-2.1553538 -1.7297103 -0.5706352
-2.2567236 -1.8110615 -0.57244152
-2.3421378 -1.8796079 -0.56821394
-2.4540985 -1.9694583 -0.56832981
-2.5780497 -2.0689316 -0.5687077
-2.7087379 -2.1738112 -0.56785882
-2.8637357 -2.2981997 -0.56906122
-3.0381227 -2.4381483 -0.57060277
-3.2217906 -2.5855453 -0.57007056
-3.4322042 -2.754406 -0.57007182
-3.6744642 -2.9488239 -0.57053798
-3.9691834 -3.1853414 -0.5734238
-4.2736573 -3.4296873 -0.57133269
-4.6563473 -3.7368028 -0.57237601
-5.1129813 -4.10326 -0.57356268
-5.6728873 -4.5525947 -0.57549894
-6.3526921 -5.0981503 -0.5763855
-7.2380137 -5.8086371 -0.57923746
-8.3924885 -6.7351236 -0.58188862
-9.962162 -7.9948153 -0.58429468
-12.279603 -9.8546038 -0.58913171
-15.988252 -12.830861 -0.59649187
-22.914391 -18.389214 -0.61055362
-40.418465 -32.43655 -0.64611018
-17.978037 -14.4277 2.9860611
-1.6386834 -1.3485307 -0.56864625
-1.6860206 -1.3874861 -0.56566536
-1.7675503 -1.4545797 -0.57276016
-1.8009963 -1.4821036 -0.56304175
-1.8880589 -1.5537505 -0.56879622
-1.9575322 -1.6109226 -0.56755805
-2.0469041 -1.6844698 -0.57037652
-2.1232951 -1.7473346 -0.56779313
-2.2312407 -1.836167 -0.57166153
-2.3243384 -1.9127803 -0.56955886
-2.4315305 -2.0009925 -0.56875861
-2.5518737 -2.1000273 -0.56858689
-2.6838248 -2.2086143 -0.56828654
-2.833837 -2.3320646 -0.5687753
-3.0103405 -2.4773157 -0.57106298
-3.1960475 -2.6301405 -0.57119489
-3.3925338 -2.791836 -0.56914169
-3.6437557 -2.9985757 -0.57145178
-3.9135604 -3.2206073 -0.57106608
-4.2428212 -3.4915679 -0.57290673
-4.6121793 -3.7955256 -0.57264054
-5.0733485 -4.1750379 -0.57483232
-5.6091056 -4.6159315 -0.57474315
-6.2889524 -5.1754017 -0.57633281
-7.1580434 -5.8906074 -0.57859057
-8.2891407 -6.8214273 -0.58049494
-9.853425 -8.1087322 -0.58372104
-12.140924 -9.9911966 -0.58832812
-15.812505 -13.01267 -0.59585971
-22.66119 -18.648695 -0.60987103
-39.950714 -32.876854 -0.64504659
-20.590244 -16.944441 3.0045252
-20.58231 -16.937912 3.2279327
-18.119663 -14.911313 3.0398095
-1.6137778 -1.3616575 -0.56577116
-1.6683497 -1.4077036 -0.56550145
-1.7429808 -1.4706751 -0.57061547
-1.7964791 -1.5158155 -0.56741375
-1.8651847 -1.5737872 -0.56769222
-1.9402844 -1.6371541 -0.56835109
-2.0242927 -1.7080377 -0.56988519
-2.092721 -1.7657754 -0.56538081
-2.20138 -1.8574587 -0.56981975
-2.2958081 -1.9371344 -0.5683617
-2.4148872 -2.0376098 -0.57068318
-2.5293946 -2.1342278 -0.56938255
-2.663651 -2.2475092 -0.56982362
-2.8036702 -2.3656533 -0.56851602
-2.9633942 -2.5004234 -0.56794691
-3.165621 -2.6710565 -0.57158387
-3.3761785 -2.8487186 -0.57223123
-3.6053729 -3.0421059 -0.57125556
-3.879225 -3.2731743 -0.5718857
-4.1944251 -3.5391304 -0.57220483
-4.5581708 -3.8460486 -0.57176352
-5.002749 -4.2211704 -0.57267094
-5.555007 -4.687149 -0.57506204
-6.2261281 -5.2534213 -0.57645184
-7.0901809 -5.9824829 -0.57900763
-8.1899357 -6.9104233 -0.57945448
-9.7516699 -8.2281685 -0.58364272
-12.006188 -10.130464 -0.58779103
-15.645812 -13.201468 -0.59565032
-22.42186 -18.918896 -0.60964477
-39.489651 -33.320187 -0.64416891
-20.037361 -16.906927 3.1748323
-18.265276 -15.411695 3.0957966
-1.6067126 -1.3898735 -0.56924289
-1.6451284 -1.4231048 -0.56351924
-1.7121336 -1.4810671 -0.56643617
-1.7753081 -1.5357157 -0.56664854
-1.845215 -1.5961879 -0.56754512
-1.9180194 -1.6591669 -0.56776243
-2.0152016 -1.7432337 -0.57331717
-2.0853477 -1.8039129 -0.56933856
-2.1645956 -1.8724656 -0.56621528
-2.2712431 -1.96472 -0.56821823
-2.38113 -2.0597768 -0.56864816
-2.5072227 -2.1688523 -0.57035178
-2.6328146 -2.2774947 -0.56917489
-2.787092 -2.4109509 -0.57112271
-2.9295292 -2.5341651 -0.56738585
-3.1160927 -2.6955504 -0.56858283
-3.3240039 -2.8754022 -0.56933779
-3.5756404 -3.0930784 -0.57252765
-3.8411469 -3.3227527 -0.57225227
-4.1442628 -3.5849605 -0.57133228
-4.5184894 -3.9086821 -0.57277155
-4.9603124 -4.2908773 -0.57380956
-5.5059299 -4.7628593 -0.57600087
-6.1554399 -5.3247128 -0.57592565
-7.008163 -6.0623536 -0.57835364
-8.1079226 -7.0136914 -0.57970995
-9.6481371 -8.3460407 -0.58354431
-11.886978 -10.282733 -0.58810061
-15.475595 -13.387035 -0.59539199
-22.159922 -19.169256 -0.60888571
-39.029121 -33.761822 -0.64338005
-18.525639 -16.025452 3.173085
-1.5764976 -1.3979919 -0.56458569
-1.6396582 -1.4540009 -0.56772685
-1.7029551 -1.5101309 -0.56949991
-1.7571406 -1.558181 -0.56692255
-1.8305758 -1.6233011 -0.56913894
-1.8954879 -1.6808633 -0.56716812
-1.9727031 -1.7493355 -0.5673033
-2.0566571 -1.8237834 -0.56758529
-2.1443157 -1.9015166 -0.56698388
-2.2425778 -1.9886523 -0.56712162
-2.3576829 -2.0907242 -0.5691452
-2.4724226 -2.1924722 -0.56852525
-2.6083286 -2.3129895 -0.56998694
-2.764637 -2.4515994 -0.57265544
-2.9082718 -2.5789704 -0.56936765
-3.0878236 -2.7381918 -0.5695253
-3.2940814 -2.9210954 -0.5703218
-3.5285838 -3.129045 -0.57111055
-3.7908163 -3.3615851 -0.57086903
-4.1046176 -3.6398549 -0.57199377
-4.4761062 -3.96928 -0.57354259
-4.9006848 -4.3457842 -0.57305026
-5.4244828 -4.8102727 -0.57362479
-6.0845323 -5.3955851 -0.57545537
-6.9194336 -6.1359515 -0.57721418
-8.0267172 -7.1178584 -0.58011794
-9.5461254 -8.4652252 -0.58362609
-11.764192 -10.432142 -0.58832783
-15.299307 -13.566978 -0.59498298
-21.912481 -19.431347 -0.60860604
-38.541367 -34.177357 -0.64221889
-1.5706412 -1.4276797 -0.56873244
-1.6197143 -1.4722861 -0.56704688
-1.672968 -1.5206927 -0.56568223
-1.7332007 -1.5754429 -0.56540614
-1.7902586 -1.6273073 -0.56278276
-1.8728385 -1.7023706 -0.56661177
-1.9461303 -1.7689914 -0.56587428
-2.0317867 -1.8468513 -0.56694615
-2.1272202 -1.9335983 -0.56870741
-2.2277462 -2.0249743 -0.56962478
-2.3258607 -2.1141584 -0.56769603
-2.4469123 -2.2241917 -0.56890517
-2.5778415 -2.3432035 -0.56957805
-2.7184768 -2.4710381 -0.56934482
-2.8786776 -2.6166573 -0.56983
-3.0615668 -2.7828996 -0.57095087
-3.2503991 -2.9545443 -0.56900591
-3.4896672 -3.1720338 -0.57108164
-3.7508616 -3.4094541 -0.57112247
-4.067224 -3.697021 -0.57307458
-4.4174299 -4.0153503 -0.57230747
-4.8439145 -4.4030161 -0.57269955
-5.3804331 -4.8906999 -0.57528263
-6.0215864 -5.473495 -0.57582408
-6.8503065 -6.2267838 -0.57779115
-7.9357305 -7.2134118 -0.57990879
-9.4292507 -8.5709896 -0.58288002
-11.611432 -10.554547 -0.58713442
-15.1127 -13.737125 -0.59425014
-21.649611 -19.679039 -0.60797995
-38.058117 -34.594025 -0.6412062
-1.5526588 -1.4465952 -0.56861907
-1.5970368 -1.4879417 -0.5654704
-1.6623499 -1.5487933 -0.56848854
-1.7200952 -1.6025939 -0.56751651
-1.7863793 -1.66435 -0.56795388
-1.8649012 -1.7375081 -0.57063115
-1.9330783 -1.8010279 -0.5684756
-2.0098336 -1.87254 -0.56720251
-2.1071022 -1.963164 -0.56973958
-2.1995046 -2.0492544 -0.56880367
-2.3027215 -2.1454203 -0.56844431
-2.4236825 -2.2581184 -0.56991696
-2.5464032 -2.3724561 -0.56903452
-2.6906233 -2.5068243 -0.56992406
-2.8546529 -2.6596489 -0.57150489
-3.0223544 -2.8158944 -0.57005233
-3.211026 -2.9916778 -0.56851023
-3.4560916 -3.2200027 -0.57202345
-3.716002 -3.4621584 -0.57225358
-4.0111904 -3.7371821 -0.57161117
-4.3773127 -4.0782943 -0.57356381
-4.7981968 -4.4704275 -0.57375014
-5.3153996 -4.9523001 -0.5747968
-5.9627366 -5.5554166 -0.57668531
-6.7746186 -6.3118382 -0.57790989
-7.8437686 -7.3079534 -0.5797115
-9.3351145 -8.6974239 -0.58362782
-11.480407 -10.69617 -0.58711529
-14.93158 -13.91159 -0.59380978
-21.380243 -19.919739 -0.60724813
-37.581486 -35.014263 -0.64038152
-1.5237199 -1.4550393 -0.56453073
-1.5861517 -1.5146569 -0.56816792
-1.6422076 -1.5681862 -0.56815177
-1.7011379 -1.6244602 -0.5678094
-1.7578741 -1.6786391 -0.56541091
-1.8346838 -1.7519866 -0.56793404
-1.9101452 -1.8240466 -0.56828451
-1.9871058 -1.8975383 -0.56733048
-2.0792692 -1.9855474 -0.56877244
-2.1730027 -2.0750561 -0.5685057
-2.2742734 -2.171762 -0.56797111
-2.3885672 -2.2809041 -0.56821197
-2.5311773 -2.4170861 -0.57223058
-2.6462677 -2.5269887 -0.56706768
-2.8096445 -2.6830015 -0.56905603
-2.9824748 -2.8480418 -0.56909293
-3.183543 -3.0400469 -0.5702197
-3.4135692 -3.2597048 -0.57157648
-3.6650932 -3.4998913 -0.57099807
-3.9771407 -3.7978735 -0.57337058
-4.3219738 -4.1271639 -0.57291913
-4.7368603 -4.5233493 -0.57302338
-5.2506614 -5.0139914 -0.57441992
-5.886817 -5.6214728 -0.5759846
-6.6946726 -6.3929148 -0.57775229
-7.7458839 -7.3967428 -0.5791555
-9.2033634 -8.7885275 -0.58210313
-11.332293 -10.821497 -0.58630145
-14.758718 -14.093478 -0.59378231
-21.114464 -20.162743 -0.60669535
-37.083477 -35.411964 -0.63926703
-1.5043217 -1.4723014 -0.56400865
-1.5621761 -1.5289242 -0.56627131
-1.6154411 -1.5810554 -0.56557477
-1.6734616 -1.6378409 -0.56525105
-1.7337288 -1.6968253 -0.56431317
-1.8169152 -1.778241 -0.56915939
-1.8825096 -1.8424392 -0.56676006
-1.9625645 -1.9207901 -0.56702423
-2.0504222 -2.0067778 -0.56758869
-2.1493838 -2.1036329 -0.56905091
-2.2508957 -2.2029841 -0.56885493
-2.3663547 -2.3159854 -0.56965953
-2.491215 -2.4381878 -0.56993097
-2.6175802 -2.5618634 -0.56762791
-2.7821424 -2.7229228 -0.57022417
-2.9503181 -2.8875186 -0.56968898
-3.1479218 -3.0809164 -0.57058197
-3.366713 -3.2950506 -0.570472
-3.6204925 -3.5434282 -0.57079464
-3.9208591 -3.8374012 -0.57201612
-4.2634859 -4.1727352 -0.57192439
-4.6876688 -4.5878892 -0.57385385
-5.1842418 -5.0738921 -0.57393575
-5.8123965 -5.6886764 -0.57550371
-6.6037221 -6.4631577 -0.57671827
-7.6552896 -7.492342 -0.57922649
-9.0956545 -8.9020481 -0.58217019
-11.202668 -10.964212 -0.58652592
-14.571139 -14.260983 -0.59324592
-20.850204 -20.406395 -0.60626638
-36.590015 -35.811176 -0.63830322
-1.4983486 -1.5029675 -0.56865519
-1.5522416 -1.5570266 -0.56956732
-1.6044134 -1.6093593 -0.56859928
-1.6592273 -1.6643422 -0.56731296
-1.7243412 -1.7296568 -0.56813741
-1.7833198 -1.7888173 -0.56548315
-1.8618464 -1.867586 -0.56741011
-1.937415 -1.9433875 -0.56661952
-2.0234892 -2.029727 -0.56699926
-2.1200676 -2.1266031 -0.56816959
-2.2200558 -2.2268996 -0.56793833
-2.3363569 -2.3435593 -0.56933236
-2.4562361 -2.4638081 -0.56881672
-2.6000986 -2.608114 -0.57074845
-2.740581 -2.7490294 -0.56859112
-2.9141655 -2.9231491 -0.56960577
-3.1010451 -3.1106048 -0.56897521
-3.3284149 -3.3386755 -0.57089579
-3.5839825 -3.5950308 -0.57196474
-3.8716676 -3.8836029 -0.57176328
-4.2109179 -4.2238989 -0.57179677
-4.6207857 -4.6350303 -0.57260007
-5.1222939 -5.1380844 -0.57402879
-5.7333131 -5.7509871 -0.57463187
-6.5272355 -6.5473571 -0.57702595
-7.561841 -7.5851517 -0.57916921
-8.9825974 -9.0102882 -0.58198142
-11.074113 -11.108252 -0.58690238
-14.389392 -14.43375 -0.59302753
-20.578833 -20.642271 -0.60571045
-36.0896 -36.200851 -0.63729078
-1.4633558 -1.5044171 -0.56235296
-1.5233508 -1.5660955 -0.56598973
-1.5822711 -1.626669 -0.56779796
-1.6318552 -1.6776445 -0.56496471
-1.7018586 -1.7496121 -0.56777537
-1.7548133 -1.8040528 -0.56343555
-1.8395172 -1.8911334 -0.56764907
-1.9167981 -1.9705827 -0.56763363
-1.9993625 -2.0554638 -0.56727809
-2.0858264 -2.1443539 -0.56601685
-2.1991081 -2.2608144 -0.56964827
-2.2990508 -2.3635614 -0.56728089
-2.4251955 -2.4932456 -0.56868511
-2.5597012 -2.6315255 -0.56894076
-2.7167437 -2.7929745 -0.57072771
-2.8810382 -2.961879 -0.57020634
-3.0763061 -3.162626 -0.5715282
-3.2911339 -3.383482 -0.57159418
-3.5316617 -3.630759 -0.57069671
-3.8249087 -3.9322343 -0.57195544
-4.1590486 -4.2757502 -0.57184958
-4.5730538 -4.7013721 -0.57380557
-5.0612655 -5.2032828 -0.57431638
-5.6687036 -5.827765 -0.57529509
-6.4499011 -6.6308827 -0.57735378
-7.4725742 -7.6822519 -0.57952356
-8.8655338 -9.1142969 -0.58161408
-10.920183 -11.2266 -0.5860163
-14.200477 -14.598937 -0.59259528
-20.306643 -20.87644 -0.60520893
-35.585888 -36.584415 -0.63629174
-1.456205 -1.5343685 -0.56681269
-1.4972731 -1.577641 -0.56346589
-1.5633118 -1.6472244 -0.56822002
-1.6113414 -1.697832 -0.56504786
-1.6774504 -1.7674894 -0.56684029
-1.7467496 -1.8405085 -0.56807011
-1.8185096 -1.9161202 -0.56839418
-1.8885515 -1.9899217 -0.56647211
-1.9750715 -2.0810857 -0.56760377
-2.0716484 -2.1828465 -0.56941015
-2.1622202 -2.27828 -0.56730694
-2.2687557 -2.3905339 -0.56701595
-2.3884983 -2.5167036 -0.56729376
-2.5209167 -2.6562297 -0.56753707
-2.6683133 -2.811538 -0.56777346
-2.8429439 -2.9955423 -0.56991398
-3.0358162 -3.1987672 -0.57127023
-3.244952 -3.4191287 -0.57083225
-3.4844477 -3.6714795 -0.57031947
-3.7793369 -3.9821973 -0.57241982
-4.1005435 -4.3206449 -0.57106721
-4.5119395 -4.7541232 -0.57342905
-4.9865308 -5.2541885 -0.57312393
-5.5981255 -5.8986111 -0.57544988
-6.3534789 -6.6945095 -0.57604784
-7.3787022 -7.7747626 -0.57961386
-8.7516632 -9.2214184 -0.58153862
-10.782015 -11.360752 -0.58605409
-14.00358 -14.755239 -0.59190542
-20.026833 -21.101797 -0.60455728
-35.063995 -36.946095 -0.63503528
-1.4341055 -1.5487841 -0.56558084
-1.4932501 -1.6126581 -0.56937146
-1.536431 -1.659292 -0.5658229
-1.5932509 -1.7206556 -0.56608075
-1.6612508 -1.794093 -0.56877798
-1.7221278 -1.8598381 -0.56745732
-1.7909217 -1.9341332 -0.5671621
-1.8727233 -2.022476 -0.56914097
-1.943427 -2.0988336 -0.56588376
-2.0335772 -2.1961927 -0.56632584
-2.1340129 -2.3046598 -0.56729865
-2.2512078 -2.4312263 -0.57005882
-2.363272 -2.5522516 -0.56871319
-2.4976053 -2.6973269 -0.56971294
-2.6464131 -2.8580341 -0.57054836
-2.8091869 -3.0338242 -0.57058215
-2.9904964 -3.2296321 -0.57017207
-3.1971183 -3.4527767 -0.56984335
-3.4356811 -3.7104161 -0.56976217
-3.7248077 -4.0226626 -0.5716095
-4.0541563 -4.3783479 -0.5720616
-4.4533801 -4.8094954 -0.57345945
-4.941926 -5.3371081 -0.57549667
-5.5144281 -5.9553905 -0.57433057
-6.2734714 -6.7751307 -0.57630366
-7.2699795 -7.851325 -0.57861346
-8.6494722 -9.3411293 -0.58233672
-10.625327 -11.474983 -0.58516264
-13.828482 -14.934279 -0.59222168
-19.744442 -21.323309 -0.60390216
-34.552689 -37.315701 -0.63403732
-1.4197506 -1.5716097 -0.56749809
-1.4603043 -1.6165012 -0.56434578
-1.5217477 -1.6845167 -0.56800073
-1.5730186 -1.7412715 -0.56645685
-1.6355213 -1.8104597 -0.56754798
-1.6901618 -1.8709447 -0.56446224
-1.7710212 -1.9604529 -0.56845111
-1.8491318 -2.0469184 -0.56957763
-1.9298674 -2.1362896 -0.56954134
-2.0129406 -2.2282486 -0.56816632
-2.1005547 -2.3252342 -0.56596231
-2.2048192 -2.4406507 -0.56586891
-2.3294964 -2.5786636 -0.56817281
-2.4600203 -2.7231486 -0.56873477
-2.6027517 -2.8811469 -0.56873029
-2.7655838 -3.0613956 -0.56932878
-2.9435892 -3.258441 -0.56882495
-3.1642592 -3.5027144 -0.57162029
-3.3929758 -3.7558949 -0.57029599
-3.6813555 -4.07512 -0.57258785
-4.0021195 -4.4301934 -0.57236248
-4.3942199 -4.864234 -0.5735001
-4.8535352 -5.3726783 -0.57285351
-5.443964 -6.0262604 -0.57466596
-6.1860089 -6.8476758 -0.57596064
-7.1687117 -7.9354901 -0.5782761
-8.516386 -9.4273148 -0.58113724
-10.491956 -11.614195 -0.5856384
-13.62909 -15.086883 -0.59158266
-19.460238 -21.54174 -0.6032657
-34.043938 -37.685337 -0.63315719
-1.4045668 -1.5937669 -0.56921935
-1.4417715 -1.6359833 -0.56491524
-1.4978966 -1.6996686 -0.56685632
-1.5543295 -1.7637032 -0.56749368
-1.6161776 -1.8338825 -0.5686177
-1.6821872 -1.9087839 -0.56959462
-1.7410542 -1.9755805 -0.56658697
-1.8136299 -2.0579324 -0.56639397
-1.9040114 -2.1604886 -0.56970793
-1.9910532 -2.2592554 -0.56978667
-2.0829632 -2.3635459 -0.56901014
-2.191838 -2.4870865 -0.57034314
-2.2990487 -2.6087389 -0.56852752
-2.4278014 -2.7548349 -0.56907451
-2.5676026 -2.9134679 -0.56883502
-2.7330723 -3.101227 -0.57044315
-2.9126863 -3.3050356 -0.57066351
-3.1109126 -3.5299637 -0.56978142
-3.3449368 -3.7955117 -0.57002306
-3.6194913 -4.1070499 -0.57077754
-3.9450521 -4.4764647 -0.57202995
-4.3301911 -4.9134836 -0.57298559
-4.7955251 -5.4414992 -0.5738607
-5.3683348 -6.0914688 -0.57454592
-6.1053391 -6.9277501 -0.57633764
-7.0678186 -8.0198793 -0.57804877
-8.3978949 -9.5291214 -0.58100343
-10.336811 -11.729218 -0.58498484
-13.43018 -15.239273 -0.59103787
-19.170439 -21.752766 -0.60252833
-33.514439 -38.028954 -0.6319586
-1.3868235 -1.6131954 -0.57002467
-1.4239367 -1.6563666 -0.5658648
-1.4812766 -1.723066 -0.56854188
-1.5278696 -1.7772645 -0.56576926
-1.5805466 -1.83854 -0.56399304
-1.6463557 -1.9150912 -0.56539291
-1.722556 -2.0037296 -0.5685423
-1.7831188 -2.0741782 -0.56478792
-1.8741242 -2.1800382 -0.56874317
-1.9495412 -2.2677658 -0.56584436
-2.0511901 -2.3860068 -0.56830239
-2.147264 -2.4977629 -0.56669366
-2.2550955 -2.6231956 -0.56559217
-2.3946557 -2.7855363 -0.56929088
-2.5284574 -2.9411786 -0.5681321
-2.6954615 -3.135443 -0.57059711
-2.8633645 -3.3307528 -0.56898147
-3.0679045 -3.5686798 -0.56989843
-3.3031726 -3.8423507 -0.57091427
-3.5669782 -4.1492176 -0.57049906
-3.895267 -4.5310931 -0.57284671
-4.2715063 -4.9687462 -0.57326156
-4.7234082 -5.4944119 -0.57327229
-5.2871137 -6.1501312 -0.57390362
-6.0103307 -6.9913998 -0.57544088
-6.9681005 -8.1055069 -0.57800102
-8.2735357 -9.6240282 -0.58054322
-10.185143 -11.847669 -0.584602
-13.230225 -15.3898 -0.59052175
-18.889917 -21.973328 -0.60215831
-32.990585 -38.375652 -0.63093096
-1.3537419 -1.6144526 -0.56454426
-1.4032254 -1.6734658 -0.56576896
-1.4455811 -1.7239786 -0.56293529
-1.4988896 -1.7875535 -0.56313485
-1.5620129 -1.8628335 -0.56551057
-1.6266735 -1.9399467 -0.56678289
-1.6903299 -2.0158625 -0.56604451
-1.760563 -2.0996213 -0.56577837
-1.8475802 -2.2033968 -0.56886715
-1.9135406 -2.2820601 -0.56349742
-2.0219762 -2.4113789 -0.56838065
-2.1242495 -2.5333486 -0.56879812
-2.2283018 -2.6574397 -0.56702495
-2.3499584 -2.8025255 -0.56681454
-2.4946339 -2.9750636 -0.56870914
-2.6469665 -3.1567333 -0.56850529
-2.8272529 -3.3717399 -0.5700013
-3.026427 -3.6092722 -0.57039475
-3.2570581 -3.8843193 -0.57115608
-3.5126426 -4.1891255 -0.57000428
-3.8393521 -4.5787549 -0.57286042
-4.2016993 -5.0108843 -0.57211906
-4.6476336 -5.5426989 -0.57230431
-5.2187581 -6.2238135 -0.57474756
-5.9295702 -7.0715175 -0.57599038
-6.859756 -8.1808434 -0.57731462
-8.1553764 -9.7259817 -0.58060008
-10.034827 -11.967387 -0.58437651
-13.038432 -15.549441 -0.59045076
-18.598194 -22.179932 -0.60150754
-32.451893 -38.701645 -0.62968236
-1.3478751 -1.6482002 -0.57050639
-1.3878752 -1.6971129 -0.56795096
-1.4331793 -1.7525113 -0.56645477
-1.4874697 -1.8188983 -0.56720442
-1.5477232 -1.8925772 -0.56871957
-1.6084508 -1.9668357 -0.56881738
-1.6619743 -2.032285 -0.56487477
-1.7443491 -2.1330142 -0.56895375
-1.8234135 -2.2296951 -0.56982493
-1.8981063 -2.3210304 -0.56731403
-1.9878347 -2.4307516 -0.56714255
-2.0922327 -2.5584109 -0.56860584
-2.194422 -2.6833694 -0.5667572
-2.322942 -2.8405256 -0.56867999
-2.4663453 -3.0158811 -0.57067126
-2.614563 -3.1971235 -0.56994629
-2.795054 -3.4178305 -0.57193959
-2.9797139 -3.643635 -0.56999183
-3.2007933 -3.913974 -0.56968617
-3.4793236 -4.2545648 -0.57304364
-3.7763884 -4.6178198 -0.57189494
-4.1356134 -5.057085 -0.57154465
-4.5856562 -5.6074033 -0.5731197
-5.1404605 -6.2858257 -0.5745936
-5.8356404 -7.135901 -0.57534623
-6.7576046 -8.2632914 -0.57722533
-8.0248632 -9.8129129 -0.57985508
-9.8795128 -12.080805 -0.58393848
-12.831873 -15.69099 -0.58978963
-18.316322 -22.397449 -0.60125303
-31.933043 -39.048164 -0.62888402
-1.3087211 -1.6410906 -0.56243265
-1.3644187 -1.7109337 -0.56691861
-1.4092966 -1.7672089 -0.56556135
-1.4584042 -1.8287882 -0.56465346
-1.5235935 -1.9105332 -0.56844252
-1.5816602 -1.9833468 -0.56792486
-1.6442926 -2.0618858 -0.56743956
-1.7110248 -2.1455655 -0.56664681
-1.7815915 -2.2340539 -0.56529742
-1.8681494 -2.3425944 -0.56692708
-1.9562045 -2.4530125 -0.56668127
-2.0613363 -2.5848441 -0.56880426
-2.1710241 -2.7223887 -0.56931704
-2.291209 -2.8730965 -0.56951725
-2.4206975 -3.0354705 -0.56870264
-2.5807056 -3.236115 -0.57119697
-2.7427278 -3.439285 -0.56984299
-2.9316661 -3.6762073 -0.56940484
-3.1524649 -3.9530814 -0.56969303
-3.4106164 -4.2767944 -0.57034594
-3.7086251 -4.6504865 -0.5702498
-4.0851469 -5.1226325 -0.57323211
-4.5172086 -5.6644225 -0.57322699
-5.059854 -6.3448806 -0.57426101
-5.7571793 -7.2193027 -0.57631922
-6.6619406 -8.3538418 -0.57778466
-7.8979492 -9.9037533 -0.57944041
-9.7290602 -12.199903 -0.5838685
-12.632259 -15.840413 -0.5895229
-18.008471 -22.581997 -0.60021722
-31.390902 -39.363098 -0.62769204
-1.3037181 -1.6767019 -0.56910014
-1.347903 -1.7335278 -0.56887019
