# .PCD v0.7 - Point Cloud Data file format
VERSION 0.7
FIELDS x y z
SIZE 4 4 4
TYPE F F F
COUNT 1 1 1
WIDTH 1461
HEIGHT 1
VIEWPOINT 0 0 0 1 0 0 0
POINTS 1461
DATA ascii
-0.94069779 2.9951177 -0.56701607
-0.98924798 3.149698 -0.56798881
-1.0372901 3.3026609 -0.56599212
-1.0957853 3.4889057 -0.56674576
-1.1605535 3.695123 -0.56732315
-1.2269111 3.9064012 -0.56504256
-1.3097981 4.1703076 -0.56623608
-1.405396 4.4746852 -0.56797081
-1.5054224 4.7931619 -0.56606936
-1.6268603 5.1798124 -0.56607819
-1.77439 5.6495371 -0.56770402
-1.9437439 6.1887484 -0.56752175
-2.1483877 6.8403201 -0.56726998
-2.4063456 7.6616406 -0.56826383
-2.733429 8.7030516 -0.56935322
-3.1553469 10.04641 -0.56942034
-3.7414386 11.912486 -0.57115465
-4.5858216 14.600943 -0.57264042
-5.9242353 18.862362 -0.57527119
-8.3668356 26.639435 -0.58024782
-14.2342 45.320721 -0.59223843
-0.65691113 2.0049851 -0.56533366
-0.67853308 2.0709784 -0.56457132
-0.70719171 2.1584485 -0.56831521
-0.72854489 2.2236216 -0.56485265
-0.75789165 2.3131919 -0.56623846
-0.78929478 2.4090385 -0.56753373
-0.82214016 2.5092874 -0.56814748
-0.85553801 2.6112223 -0.56737506
-0.88680995 2.7066686 -0.56347442
-0.92998642 2.8384492 -0.56515419
-0.98113972 2.9945765 -0.56915456
-1.0206108 3.1150477 -0.56396079
-1.0783482 3.2912703 -0.56626964
-1.1422137 3.4861968 -0.56854427
-1.2029482 3.671567 -0.56593478
-1.2776479 3.8995607 -0.56628275
-1.3621602 4.1575046 -0.56672907
-1.4510556 4.4288259 -0.56437206
-1.5677545 4.7850075 -0.56734014
-1.6893727 5.1562028 -0.56572545
-1.8414294 5.6203012 -0.56699866
-2.0237381 6.1767335 -0.56865901
-2.238647 6.8326654 -0.56887507
-2.5026729 7.6385098 -0.56878769
-2.8423536 8.6752625 -0.56977868
-3.2818666 10.016718 -0.56998169
-3.8886607 11.868739 -0.57130659
-4.7768836 14.57972 -0.57406837
-6.1665645 18.821222 -0.57628554
-8.7068605 26.574562 -0.58112288
-14.821153 45.236244 -0.59347117
-0.68228084 1.9990038 -0.56596994
-0.70622742 2.0691643 -0.56640136
-0.72732365 2.1309738 -0.56339341
-0.75175607 2.202558 -0.56180775
-0.7914921 2.31898 -0.56999463
-0.81503075 2.3879454 -0.56488287
-0.84809655 2.4848244 -0.56492722
-0.88556701 2.5946085 -0.56608844
-0.9205814 2.6971967 -0.56381649
-0.96323514 2.8221672 -0.56422794
-1.011735 2.9642658 -0.56571543
-1.0637151 3.1165619 -0.56656015
-1.1149268 3.2666063 -0.56434226
-1.1744334 3.4409535 -0.56347835
-1.2475693 3.6552331 -0.56573898
-1.328742 3.89306 -0.5676685
-1.4154979 4.1472445 -0.56766021
-1.5039741 4.4064693 -0.56383717
-1.6268092 4.7663622 -0.56745833
-1.7578694 5.150353 -0.56741238
-1.9168466 5.616138 -0.56891352
-2.1010487 6.1558285 -0.56906992
-2.3168552 6.7881165 -0.56749505
-2.5957541 7.6052589 -0.56864554
-2.9454548 8.6298409 -0.56913126
-3.4085143 9.9865513 -0.57060695
-4.0381932 11.831437 -0.57185799
-4.9550843 14.517822 -0.57398683
-6.3995609 18.749969 -0.57646978
-9.0463772 26.504835 -0.58198661
-15.406546 45.139389 -0.59464097
-0.71041018 2.0006075 -0.56885421
-0.73534912 2.0708387 -0.56929183
-0.75922495 2.1380763 -0.56769645
-0.78204906 2.2023518 -0.56416541
-0.81380641 2.2917848 -0.56572706
-0.84997928 2.3936522 -0.56866229
-0.87499118 2.4640892 -0.56261659
-0.91897255 2.5879462 -0.56705743
-0.95752382 2.6965117 -0.56609178
-0.99901181 2.8133473 -0.56487787
-1.054803 2.9704626 -0.56933033
-1.1000965 3.0980146 -0.56560481
-1.1570739 3.2584705 -0.56535202
-1.2214782 3.4398415 -0.56571311
-1.2937965 3.6434994 -0.56634235
-1.3747463 3.8714645 -0.56694162
-1.4649087 4.1253734 -0.56708932
-1.5649735 4.4071689 -0.56634623
-1.6865875 4.7496495 -0.56789482
-1.81929 5.1233573 -0.56685996
-1.9863164 5.5937257 -0.56907433
-2.1707034 6.1129837 -0.56753373
-2.4083617 6.7822599 -0.56943816
-2.6925614 7.5826035 -0.5693841
-3.0538774 8.6001158 -0.5696044
-3.5334263 9.9505882 -0.57099152
-4.1837568 11.782003 -0.57191205
-5.1307979 14.448995 -0.57371664
-6.6360431 18.687962 -0.57702845
-9.3831692 26.424225 -0.58270603
-15.991329 45.033661 -0.59579355
-0.73217392 1.9841846 -0.56670165
-0.75346935 2.0418949 -0.56383932
-0.77940935 2.1121922 -0.56332588
-0.80908775 2.1926203 -0.56417841
-0.84109014 2.2793465 -0.56516701
-0.87214339 2.3635006 -0.56400424
-0.90780342 2.460139 -0.56422079
-0.94646722 2.5649176 -0.56451893
-0.99038833 2.6839433 -0.56596708
-1.0357401 2.8068464 -0.56608701
-1.0795406 2.9255452 -0.56322294
-1.1388221 3.0861974 -0.56596112
-1.2006108 3.2536442 -0.56703323
-1.2648593 3.427757 -0.56624079
-1.3451883 3.645448 -0.56917334
-1.4212523 3.8515806 -0.56654626
-1.5178914 4.113472 -0.56797606
-1.6186999 4.386662 -0.56622595
-1.7430626 4.7236838 -0.56730998
-1.8761638 5.0843868 -0.56505799
-2.0493662 5.5537634 -0.56752962
-2.2472613 6.0900574 -0.56792784
-2.4888854 6.7448568 -0.56882435
-2.7868319 7.5522885 -0.56963789
-3.1616092 8.5679321 -0.57000452
-3.6539774 9.9022455 -0.57075256
-4.336031 11.750605 -0.57293266
-5.3151717 14.404067 -0.57448441
-6.8729119 18.625528 -0.57766658
-9.7183714 26.336699 -0.58336705
-16.579672 44.930759 -0.59708422
-0.75563204 1.9727265 -0.5660401
-0.78411603 2.0470896 -0.56789327
-0.80909353 2.1122983 -0.56596482
-0.83660263 2.1841161 -0.56459457
-0.86733323 2.2643445 -0.56404901
-0.90404534 2.3601887 -0.56582391
-0.941423 2.4577703 -0.56628966
-0.97860807 2.5548494 -0.56490874
-1.0246979 2.6751759 -0.56673247
-1.0660995 2.783263 -0.56393194
-1.1174712 2.9173791 -0.56425357
-1.1778287 3.074954 -0.56651241
-1.2369871 3.229399 -0.56541598
-1.3013476 3.3974245 -0.56383085
-1.3841345 3.6135561 -0.56680852
-1.4654062 3.8257318 -0.56535184
-1.5628418 4.0801067 -0.56597978
-1.6762247 4.3761153 -0.56748223
-1.7971969 4.691937 -0.56610852
-1.9461912 5.0809159 -0.56728899
-2.1177642 5.5288415 -0.56760108
-2.3229694 6.06457 -0.5681718
-2.5708272 6.7116518 -0.56864703
-2.8794379 7.5173402 -0.56962943
-3.2676785 8.5309191 -0.57017225
-3.7780311 9.8632956 -0.57114202
-4.4831161 11.70406 -0.57330775
-5.4964933 14.34968 -0.57496744
-7.1083183 18.557667 -0.57822907
-10.055566 26.252037 -0.58418649
-17.163851 44.809616 -0.59823382
-0.77762449 1.9577322 -0.5644387
-0.81036609 2.0401618 -0.5686928
-0.83122653 2.0926797 -0.56340432
-0.86488694 2.1774225 -0.56557065
-0.89814323 2.261148 -0.565961
-0.93418628 2.3518891 -0.56654531
-0.96999627 2.4420435 -0.56537157
-1.0133449 2.5511773 -0.56680912
-1.0533066 2.6517839 -0.5644781
-1.1041095 2.7796845 -0.56591493
-1.1596001 2.9193866 -0.56735682
-1.2183993 3.0674181 -0.56784135
-1.2808769 3.2247105 -0.56730986
-1.3486159 3.3952491 -0.56617916
-1.4267653 3.5919967 -0.56613588
-1.515058 3.8142807 -0.56636989
-1.6147139 4.0651722 -0.56661952
-1.7251304 4.3431544 -0.56591606
-1.8588463 4.6797953 -0.56735849
-2.00897 5.0577435 -0.56741703
-2.1870213 5.5060019 -0.56797421
-2.401015 6.0447488 -0.56903785
-2.6558223 6.6862459 -0.5692184
-2.9654667 7.4658008 -0.56844419
-3.3778985 8.5041313 -0.57111478
-3.9003251 9.8193827 -0.57133323
-4.6316214 11.66048 -0.57391942
-5.6747379 14.28661 -0.57519281
-7.3390818 18.476728 -0.5784753
-10.384702 26.144321 -0.58458692
-17.754009 44.697147 -0.59960157
-0.80314332 1.9516832 -0.56549931
-0.83109784 2.0196142 -0.56577104
-0.86019152 2.0903134 -0.5655722
-0.89123678 2.1657553 -0.56534398
-0.931104 2.2626348 -0.56915587
-0.95981222 2.3323975 -0.5646503
-0.9994992 2.428839 -0.56511712
-1.0432307 2.535109 -0.56604642
-1.0859325 2.6388767 -0.56453031
-1.1373452 2.7638123 -0.56548804
-1.1922592 2.8972564 -0.56586236
-1.2552419 3.0503078 -0.56748831
-1.3176674 3.2020054 -0.56612307
-1.3914971 3.3814156 -0.56668282
-1.4787737 3.593503 -0.56919622
-1.5650209 3.8030882 -0.56752259
-1.6611717 4.0367398 -0.56546092
-1.7873667 4.343401 -0.56876898
-1.9186804 4.6625009 -0.56807917
-2.0700848 5.0304217 -0.56716466
-2.2614892 5.4955449 -0.56972104
-2.4752049 6.0148859 -0.56904882
-2.739531 6.6572132 -0.5695715
-3.0653765 7.4490361 -0.56999457
-3.4795184 8.4554243 -0.570674
-4.0266013 9.7848663 -0.57216257
-4.7763844 11.60688 -0.57412869
-5.8591003 14.237942 -0.57609046
-7.5759296 18.409933 -0.57925683
-10.718168 26.04575 -0.58528548
-18.335337 44.555893 -0.60068578
-0.82697183 1.9414076 -0.56542563
-0.86060244 2.020359 -0.56890124
-0.88186765 2.0702815 -0.56304359
-0.91294867 2.1432476 -0.56235653
-0.95324606 2.2378502 -0.56582713
-0.98691738 2.3168974 -0.56379318
-1.0325539 2.4240341 -0.56691051
-1.0743601 2.5221789 -0.56606632
-1.1205195 2.6305432 -0.56565237
-1.1666096 2.7387447 -0.56325161
-1.2305363 2.8888197 -0.56712705
-1.2933197 3.0362105 -0.56778139
-1.3636756 3.2013788 -0.56893396
-1.4341762 3.3668869 -0.56716055
-1.5180359 3.5637567 -0.56739831
-1.6077 3.7742531 -0.56612682
-1.7119612 4.0190177 -0.56588441
-1.8357606 4.3096504 -0.56726241
-1.9678069 4.6196437 -0.56576288
-2.1348279 5.0117435 -0.56797558
-2.3255382 5.4594574 -0.56890142
-2.5481713 5.9821129 -0.56886959
-2.8251491 6.632349 -0.57037324
-3.1561093 7.4093146 -0.56988168
-3.5824041 8.4100885 -0.57054412
-4.1457009 9.7324896 -0.57203752
-4.9150581 11.538641 -0.57369936
-6.0341272 14.165779 -0.57612926
-7.8091249 18.332781 -0.57980686
-11.054765 25.952278 -0.58619541
-18.920919 44.418941 -0.60193056
-0.85490412 1.9404535 -0.56816649
-0.8794679 1.9962083 -0.56510317
-0.91493165 2.0767035 -0.56780702
-0.95200014 2.1608412 -0.5700013
-0.97949481 2.2232485 -0.5651378
-1.0241383 2.32458 -0.5686841
-1.0563679 2.3977344 -0.56375504
-1.1064323 2.5113699 -0.56665111
-1.1516072 2.6139076 -0.56507748
-1.202999 2.7305562 -0.56456715
-1.2644614 2.8700631 -0.56645435
-1.3297318 3.0182133 -0.56743062
-1.404228 3.187304 -0.56945825
-1.474099 3.3458967 -0.56663525
-1.5670435 3.5568612 -0.56932533
-1.6560618 3.7589142 -0.56683773
-1.7694967 4.0163875 -0.56853479
-1.8847966 4.2780943 -0.56611663
-2.0319495 4.6121006 -0.56785613
-2.194937 4.982048 -0.567626
-2.3902006 5.4252558 -0.56835717
-2.6183193 5.9430375 -0.56817245
-2.9073615 6.5991025 -0.57054549
-3.2520072 7.3813767 -0.57076538
-3.6919858 8.3800364 -0.57154197
-4.2636809 9.6776648 -0.5718534
-5.0635982 11.49331 -0.57449788
-6.2124786 14.101027 -0.57655913
-8.0309286 18.228529 -0.57958907
-11.383187 25.837456 -0.58671916
-19.507214 44.277294 -0.60321599
-0.87329674 1.9179323 -0.56467378
-0.90750146 1.9930526 -0.56732595
-0.92987412 2.0421875 -0.56145352
-0.96621883 2.1220076 -0.56284904
-1.0086286 2.2151477 -0.56618851
-1.0480378 2.3016982 -0.56619626
-1.0933359 2.4011819 -0.5676837
-1.1417795 2.5075736 -0.56891936
-1.1863642 2.6054904 -0.5663687
-1.2406054 2.7246146 -0.56644994
-1.3041764 2.8642292 -0.56842512
-1.3612328 2.9895363 -0.56514341
-1.4287838 3.1378915 -0.56372631
-1.5214208 3.341341 -0.56898898
-1.6034871 3.5215747 -0.5667904
-1.7027438 3.739562 -0.56703395
-1.8104048 3.9760067 -0.56592715
-1.9409618 4.2627358 -0.56719971
-2.0906773 4.5915408 -0.56844699
-2.257292 4.9574594 -0.56794405
-2.4596846 5.4019537 -0.56904149
-2.6965988 5.9222641 -0.56931347
-2.9845757 6.554718 -0.56983799
-3.3395703 7.3343563 -0.57026172
-3.7904441 8.3245649 -0.57089436
-4.3884463 9.6378956 -0.57264876
-5.2029347 11.426674 -0.57432157
-6.3824811 14.01719 -0.57629657
-8.2650146 18.151608 -0.58033085
-11.713255 25.724625 -0.58738321
-20.092762 44.127678 -0.60449797
-0.89396024 1.9009838 -0.56287771
-0.93138415 1.9805648 -0.56698847
-0.9605124 2.0425053 -0.56474543
-0.99438614 2.114537 -0.56406808
-1.0333575 2.1974084 -0.56485951
-1.0747597 2.2854493 -0.56540734
-1.1187929 2.3790848 -0.56566924
-1.167125 2.4818618 -0.56629914
-1.2193456 2.5929077 -0.56684989
-1.2755429 2.7124097 -0.56713051
-1.3334405 2.8355277 -0.56594032
-1.4059442 2.9897048 -0.5684005
-1.4795423 3.1462092 -0.56844604
-1.5538672 3.3042595 -0.56588537
-1.6501883 3.5090837 -0.56800294
-1.7529191 3.7275381 -0.56843615
-1.8665407 3.9691515 -0.56817532
-1.9942657 4.2407556 -0.56749505
-2.1461487 4.5637312 -0.5682283
-2.320111 4.9336576 -0.56844264
-2.5218503 5.3626509 -0.56812501
-2.7657526 5.8813033 -0.5686022
-3.0682859 6.5246325 -0.57045931
-3.4282589 7.2901058 -0.57005578
-3.896827 8.2865047 -0.57152718
-4.5078988 9.5859327 -0.57281154
-5.3403091 11.356032 -0.57402819
-6.5618157 13.953535 -0.57695323
-8.4920044 18.058033 -0.58063376
-12.045535 25.614525 -0.58820689
-20.667822 43.9496 -0.6054942
-0.92287076 1.9013953 -0.5663169
-0.95689809 1.9715021 -0.56771958
-0.98863375 2.0368872 -0.56651044
-1.0291644 2.1203928 -0.56896299
-1.0619862 2.1880157 -0.56575906
-1.1005775 2.2675254 -0.56427848
-1.1515384 2.3725204 -0.56743228
-1.1937757 2.4595423 -0.56451309
-1.249603 2.5745635 -0.56615597
-1.3098274 2.6986442 -0.56757706
-1.369469 2.8215239 -0.56646353
-1.4408154 2.9685197 -0.56769818
-1.5153868 3.1221592 -0.5674246
-1.5959725 3.2881904 -0.56645149
-1.6928127 3.4877107 -0.56786978
-1.789728 3.687386 -0.56562632
-1.9121461 3.9396045 -0.56726861
-2.05021 4.2240586 -0.56859124
-2.202137 4.5370741 -0.56823784
-2.381953 4.9075499 -0.5687663
-2.5877993 5.331656 -0.56816953
-2.842005 5.8553977 -0.56943321
-3.1433582 6.4762774 -0.56956792
-3.5197465 7.2517519 -0.57039785
-3.9992299 8.2396345 -0.57164299
-4.6303153 9.5398626 -0.57341754
-5.4919443 11.315081 -0.57532829
-6.7410316 13.888582 -0.57765126
-8.7284403 17.98325 -0.58163625
-12.374485 25.495216 -0.58891678
-21.253708 43.789124 -0.60683793
-0.94745243 1.8924466 -0.56707865
-0.98203319 1.9615185 -0.56827903
-1.011043 2.0194626 -0.56507927
-1.0479723 2.0932255 -0.56508833
-1.0895593 2.1762917 -0.566149
-1.1246639 2.2464099 -0.56242275
-1.1775683 2.3520815 -0.56596428
-1.2209117 2.4386559 -0.56312245
-1.2876215 2.571902 -0.56900948
-1.3392134 2.674952 -0.56601477
-1.4072692 2.8108873 -0.56775922
-1.4720715 2.9403236 -0.56572491
-1.553499 3.1029673 -0.56736547
-1.637172 3.2700963 -0.56675965
-1.7330315 3.4615664 -0.56703985
-1.8447825 3.6847785 -0.56866306
-1.9652718 3.9254446 -0.5686664
-2.0992959 4.1931453 -0.56786191
-2.2632651 4.520658 -0.5696243
-2.4406104 4.8748884 -0.56841606
-2.6646307 5.3223481 -0.57062614
-2.9165599 5.8255529 -0.56997544
-3.2286718 6.4489665 -0.57061452
-3.6103132 7.2112594 -0.5706616
-4.1007161 8.190793 -0.57170963
-4.7423849 9.4724655 -0.57282829
-5.6326122 11.25061 -0.57552838
-6.9105511 13.803172 -0.57758945
-8.9503679 17.877512 -0.58173203
-12.698742 25.364536 -0.58946055
-21.830637 43.604633 -0.6079554
-0.96679688 1.8731897 -0.56482786
-0.99804133 1.9337265 -0.56374013
-1.0376539 2.0104768 -0.56609237
-1.0786021 2.0898147 -0.56770504
-1.1099952 2.1506395 -0.56298393
-1.1617723 2.2509587 -0.56709546
-1.2037727 2.3323355 -0.56473196
-1.2590555 2.4394469 -0.56683731
-1.3063012 2.5309865 -0.56346846
-1.3720716 2.6584182 -0.5660435
-1.4402019 2.790422 -0.56715971
-1.5111619 2.9279087 -0.5668686
-1.5929595 3.0863931 -0.5678736
-1.6784003 3.2519364 -0.5671463
-1.773286 3.4357796 -0.5663448
-1.8816851 3.6458054 -0.56617647
-2.020416 3.9145992 -0.57065123
-2.1523423 4.1702094 -0.56829709
-2.3123882 4.4803019 -0.56807911
-2.5041726 4.8518877 -0.56928158
-2.7230108 5.2758918 -0.56919229
-2.9805238 5.7748289 -0.56855547
-3.3138647 6.4206839 -0.57167435
-3.7022252 7.173141 -0.57120448
-4.2047896 8.1468706 -0.57220954
-4.8615785 9.4194117 -0.57319176
-5.7707744 11.180999 -0.57555383
-7.0899577 13.736945 -0.57842255
-9.1767311 17.780113 -0.58219045
-13.02632 25.238773 -0.59021574
-22.41556 43.430626 -0.60932624
-0.9926964 1.8666906 -0.56650609
-1.0256553 1.9286673 -0.56589925
-1.0638033 2.000402 -0.56689596
-1.0984375 2.0655289 -0.56473428
-1.1412537 2.1460414 -0.56541115
-1.1928073 2.2429841 -0.56873852
-1.2282503 2.3096318 -0.56284916
-1.2934682 2.4322693 -0.56882226
-1.342252 2.5240035 -0.56554556
-1.4017659 2.635915 -0.56487942
-1.4660873 2.7568667 -0.56396103
-1.5425754 2.9006965 -0.56522977
-1.6282785 3.0618548 -0.56699973
-1.720289 3.2348735 -0.56781679
-1.8148624 3.4127116 -0.56617808
-1.9317319 3.6324761 -0.56775236
-2.063494 3.8802445 -0.56929898
-2.2116518 4.158844 -0.57041121
-2.3678074 4.4524832 -0.56820065
-2.5617573 4.8171911 -0.56886357
-2.7953055 5.256361 -0.5707503
-3.0579777 5.7502961 -0.56979913
-3.3874326 6.3698111 -0.57081032
-3.7889977 7.1249242 -0.57103187
-4.3060708 8.0972404 -0.57239938
-4.9797478 9.3640394 -0.57350504
-5.9106879 11.114602 -0.57583374
-7.2617917 13.655251 -0.57869881
-9.4024773 17.680649 -0.58267534
-13.352937 25.109188 -0.59098035
-22.990093 43.231133 -0.61044741
-1.0118763 1.8475933 -0.56444383
-1.050655 1.9183997 -0.56663442
-1.0829957 1.9774507 -0.56412309
-1.1238695 2.0520828 -0.56479365
-1.1646304 2.1265082 -0.56399518
-1.2196053 2.2268875 -0.56841671
-1.2655071 2.3106997 -0.56685877
-1.3201958 2.4105566 -0.56749797
-1.3806623 2.5209627 -0.56862527
-1.4433584 2.6354401 -0.56853813
-1.5109395 2.758837 -0.56812185
-1.5805173 2.8858795 -0.56608677
-1.6672488 3.0442436 -0.56749201
-1.7682949 3.2287443 -0.5705145
-1.863941 3.4033852 -0.56839031
-1.9796391 3.6146393 -0.56872624
-2.1052418 3.8439786 -0.56773329
-2.2540174 4.1156292 -0.56824255
-2.4230645 4.4242935 -0.56836253
-2.6252825 4.7935252 -0.56983793
-2.8546727 5.2123704 -0.56974214
-3.1320558 5.7188463 -0.57045591
-3.464726 6.3262715 -0.57068336
-3.8818412 7.0878859 -0.57184577
-4.4051776 8.0434504 -0.57238281
-5.0993977 9.3110332 -0.57405561
-6.0523038 11.050952 -0.57634825
-7.4281411 13.563105 -0.57862097
-9.6263494 17.576832 -0.58311081
-13.671288 24.962519 -0.59144026
-23.568884 43.034622 -0.61171865
-1.0322205 1.8309385 -0.56319076
-1.071461 1.900543 -0.56520891
-1.1118872 1.9722503 -0.56649709
-1.1482807 2.0368047 -0.5644322
-1.1891685 2.1093309 -0.56327504
-1.2469879 2.21189 -0.56845957
-1.2887931 2.2860434 -0.56465513
-1.3436261 2.3833058 -0.56492949
-1.4058788 2.4937284 -0.56633884
-1.4715607 2.6102343 -0.56696129
-1.5375134 2.7272203 -0.56546158
-1.619491 2.8726311 -0.5673514
-1.7038432 3.0222538 -0.56725556
-1.7961936 3.1860638 -0.56683278
-1.9023744 3.3744059 -0.56741434
-2.0171032 3.5779102 -0.56680697
-2.1602621 3.8318434 -0.56982118
-2.3073292 4.0927091 -0.56895226
-2.4723814 4.3854761 -0.56723857
-2.6789687 4.7519178 -0.56876487
-2.9271045 5.1920581 -0.57141292
-3.1965694 5.6700315 -0.56946445
-3.548558 6.2943835 -0.57169974
-3.9752445 7.0512342 -0.57278919
-4.5136099 8.0061798 -0.57363683
-5.2164378 9.2528467 -0.57437944
-6.1840849 10.969246 -0.57600933
-7.6013203 13.483118 -0.57915235
-9.8567562 17.483778 -0.58400059
-13.984051 24.804718 -0.59173089
-24.138811 42.817093 -0.61279947
-1.065181 1.8362544 -0.56881183
-1.0991067 1.8947384 -0.56745911
-1.1358858 1.9581417 -0.5664137
-1.1716691 2.0198281 -0.56367767
-1.214409 2.0935071 -0.56299454
-1.2642761 2.1794724 -0.56408089
-1.3261336 2.2861078 -0.56865585
-1.3784804 2.376348 -0.5672552
-1.4359717 2.4754567 -0.56615651
-1.5057998 2.5958323 -0.56781197
-1.5787195 2.7215381 -0.56826556
-1.6525234 2.848768 -0.56660885
-1.7413934 3.0019701 -0.5674246
-1.8309034 3.1562755 -0.56549579
-1.9434543 3.3503006 -0.56733656
-2.0622408 3.5550756 -0.56716388
-2.1979058 3.7889469 -0.56741834
-2.3483858 4.0483575 -0.56675822
-2.5285261 4.3588996 -0.56777966
-2.7385268 4.7209177 -0.56904185
-2.9819059 5.1404762 -0.56972843
-3.2811708 5.6563764 -0.57210189
-3.6150577 6.2319603 -0.57002443
-4.0622807 7.0029235 -0.57287914
-4.5975089 7.9255972 -0.57187045
-5.3308811 9.1898499 -0.5744946
-6.3232393 10.900566 -0.57644224
-7.7727313 13.39933 -0.57961494
-10.079257 17.375526 -0.5844804
-14.313323 24.674589 -0.59278041
-24.717566 42.610352 -0.61414415
-1.0856436 1.8196086 -0.56774783
-1.1198887 1.8770055 -0.56622964
-1.1601446 1.9444768 -0.56654465
-1.1956133 2.0039246 -0.56329972
-1.2473671 2.0906677 -0.56631297
-1.2979085 2.1753781 -0.56710899
-1.3556809 2.2722085 -0.56930196
-1.4001298 2.3467076 -0.56424689
-1.462967 2.4520268 -0.56486952
-1.5362419 2.5748403 -0.56730932
-1.6070588 2.6935339 -0.5665015
-1.6845354 2.8233895 -0.5656383
-1.7717636 2.9695897 -0.56537944
-1.8761431 3.1445365 -0.56748301
-1.9856007 3.3279943 -0.56765091
-2.1074018 3.532141 -0.5675962
-2.2486243 3.7688389 -0.56850481
-2.3995688 4.021832 -0.56713259
-2.5841501 4.3312016 -0.56826788
-2.7987542 4.6908917 -0.56952786
-3.0441408 5.1021757 -0.56958914
-3.3475699 5.6107426 -0.57160658
-3.6967781 6.1960378 -0.57085341
-4.1421657 6.9425364 -0.57206261
-4.7062125 7.8879147 -0.57328373
-5.4438133 9.1241808 -0.5745306
-6.4664001 10.838102 -0.57730025
-7.9406719 13.309076 -0.57989073
-10.302469 17.267601 -0.58506715
-14.636638 24.531946 -0.59363252
-25.284401 42.378281 -0.6152339
-1.0993352 1.7921039 -0.56334114
-1.1386293 1.85616 -0.56412232
-1.1847305 1.9313128 -0.56691086
-1.2270951 2.0003743 -0.56650037
-1.2668338 2.065155 -0.5635792
-1.32015 2.1520698 -0.56522179
-1.3821155 2.2530839 -0.56872547
-1.4328265 2.3357515 -0.56580609
-1.4956151 2.4381077 -0.56585687
-1.5650356 2.5512748 -0.56631446
-1.6400462 2.6735551 -0.56649822
-1.7237563 2.8100169 -0.56716275
-1.8211304 2.9687531 -0.5694406
-1.9168094 3.1247263 -0.56811857
-2.0271685 3.3046303 -0.56787455
-2.1494021 3.5038919 -0.56726104
-2.3003886 3.7500257 -0.56989074
-2.4583402 4.0075135 -0.5693332
-2.6376462 4.2998133 -0.56836206
-2.8538432 4.6522512 -0.56905401
-3.1110575 5.0715542 -0.57039815
-3.4084289 5.5563202 -0.5702889
-3.7704318 6.1464467 -0.57051289
-4.2366943 6.9065347 -0.57334542
-4.8060718 7.8347163 -0.57366914
-5.5640764 9.0703936 -0.5754084
-6.6002622 10.759553 -0.57739562
-8.1078072 13.217109 -0.58018363
-10.509969 17.133041 -0.58484256
-14.954762 24.378811 -0.5943318
-25.854492 42.147232 -0.61644846
-1.1314396 1.7945544 -0.56844187
-1.1632295 1.8449757 -0.56502759
-1.2067324 1.9139746 -0.56613439
-1.2490039 1.9810207 -0.56532621
-1.3044726 2.0689986 -0.56896251
-1.3509059 2.1426454 -0.56706655
-1.404277 2.2272964 -0.56653208
-1.4593732 2.3146834 -0.56500685
-1.5231446 2.4158301 -0.56499064
-1.6027713 2.5421243 -0.56861508
-1.6812313 2.666568 -0.56935513
-1.7653737 2.800025 -0.56948441
-1.8494821 2.9334276 -0.56698406
-1.9477006 3.08921 -0.56597286
-2.0694335 3.2822883 -0.5683651
-2.1974015 3.485256 -0.56857544
-2.3327355 3.6999063 -0.56659043
-2.5107119 3.9821911 -0.57007861
-2.6936309 4.2723155 -0.56906253
-2.9123411 4.6192074 -0.56934953
-3.173368 5.033217 -0.57043201
-3.4858847 5.5288939 -0.57183015
-3.8541553 6.1130009 -0.57176417
-4.3111062 6.8377619 -0.57199377
-4.9101543 7.7879004 -0.57461864
-5.6693444 8.9920368 -0.57481664
-6.730412 10.674975 -0.57725447
-8.2769794 13.127956 -0.58069396
-10.735054 17.026661 -0.58567291
-15.262061 24.206858 -0.59467
-26.423414 41.909664 -0.6176793
-1.1527336 1.7794487 -0.56810403
-1.1867322 1.8319317 -0.56545907
-1.2376045 1.910462 -0.56955367
-1.276975 1.9712374 -0.56697243
-1.3210599 2.0392904 -0.56521732
-1.3748639 2.1223464 -0.56612569
-1.4372488 2.2186487 -0.56878471
-1.4935215 2.3055153 -0.56720895
-1.5535523 2.3981836 -0.5652886
-1.6300884 2.5163307 -0.56728619
-1.7150488 2.6474822 -0.56973976
-1.7883449 2.7606277 -0.56590134
-1.8837951 2.9079721 -0.56649834
-1.9986693 3.0853007 -0.56971622
-2.108526 3.254884 -0.56806642
-2.2332697 3.447448 -0.56684464
-2.3925846 3.6933789 -0.5700531
-2.5475364 3.9325745 -0.56741726
-2.7483621 4.2425842 -0.56956077
-2.9695029 4.5839548 -0.56946194
-3.2285719 4.9838734 -0.569296
-3.5383754 5.4621105 -0.56937999
-3.9238424 6.057147 -0.5710097
-4.4005246 6.7929907 -0.57273179
-5.0015621 7.7207985 -0.57416207
-5.7886558 8.9358177 -0.57572943
-6.8761396 10.614541 -0.57851493
-8.443593 13.034184 -0.58109474
-10.956561 16.913397 -0.58636683
-15.579626 24.049917 -0.59547579
-26.994741 41.671173 -0.61900979
-1.1702229 1.7586744 -0.56602281
-1.2212163 1.83531 -0.57109386
-1.2600093 1.8936102 -0.56910574
-1.3114923 1.9709816 -0.57149404
-1.3452287 2.0216825 -0.56487906
-1.3987503 2.1021175 -0.56527501
-1.460349 2.1946914 -0.56720364
-1.5193837 2.283412 -0.56632471
-1.5905141 2.3903105 -0.5679999
-1.6593639 2.4937818 -0.56675988
-1.737671 2.6114662 -0.56654447
-1.8320309 2.7532752 -0.56896901
-1.9263096 2.8949623 -0.56853533
-2.0292802 3.0497122 -0.56770939
-2.1480031 3.2281353 -0.56796491
-2.2791736 3.4252653 -0.56776249
-2.4316003 3.6543407 -0.5685997
-2.6000512 3.9074976 -0.56836909
-2.7966843 4.2030082 -0.56882143
-3.0314891 4.5558858 -0.57056272
-3.300072 4.959527 -0.57110703
-3.6132038 5.4301181 -0.57063335
-4.0055819 6.0198054 -0.57208949
-4.4840002 6.7387977 -0.57276809
-5.0954313 7.6576896 -0.57408494
-5.9092331 8.8807154 -0.57681727
-6.9974036 10.516076 -0.57779425
-8.607584 12.935944 -0.58138973
-11.174567 16.793743 -0.58693802
-15.886594 23.875233 -0.59594244
-27.543333 41.393612 -0.6198709
-1.1932888 1.7463927 -0.56674969
-1.233457 1.8051794 -0.56639487
-1.2722744 1.8619891 -0.5642615
-1.3270639 1.9421742 -0.56782985
-1.3726069 2.008827 -0.56596023
-1.4253323 2.0859911 -0.56560874
-1.4865493 2.1755829 -0.56694645
-1.5538018 2.274008 -0.56868798
-1.6122427 2.3595369 -0.56535548
-1.6869671 2.4688971 -0.56577599
-1.7756069 2.5986223 -0.56845182
-1.8592709 2.7210658 -0.56699461
-1.9624892 2.8721271 -0.56874692
-2.0713301 3.0314169 -0.56900197
-2.1862178 3.1995564 -0.56762356
-2.3182192 3.3927422 -0.56705374
-2.4753561 3.622714 -0.56837177
-2.6503212 3.8787775 -0.5688889
-2.8512342 4.1728163 -0.56943721
-3.0917623 4.5248318 -0.57139164
-3.3627038 4.9213581 -0.57143009
-3.6794624 5.3849382 -0.57059699
-4.0813785 5.9731474 -0.57238162
-4.5665464 6.6831965 -0.57277161
-5.1949759 7.6029105 -0.57472378
-6.0096211 8.7951536 -0.57601607
-7.1363225 10.444096 -0.57861704
-8.7700844 12.835125 -0.5816614
-11.380609 16.655661 -0.58695859
-16.200161 23.709133 -0.59672362
-28.127018 41.164234 -0.62156832
-1.2139767 1.7305983 -0.56642562
-1.2537607 1.7873127 -0.56558347
-1.30399 1.8589177 -0.56814688
-1.3412877 1.9120878 -0.56381297
-1.3924706 1.9850522 -0.5640434
-1.4574472 2.0776803 -0.56817168
-1.519048 2.1654959 -0.56914246
-1.5763749 2.2472191 -0.56679326
-1.6427662 2.3418639 -0.56591821
-1.7195678 2.4513493 -0.56655741
-1.8044703 2.5723832 -0.56752288
-1.8964461 2.7035003 -0.56815064
-1.9999737 2.8510849 -0.56940699
-2.1134386 3.0128362 -0.57034916
-2.2319779 3.1818213 -0.56930321
-2.3558874 3.3584619 -0.56612325
-2.5209184 3.5937235 -0.56864387
-2.7072072 3.8592899 -0.57086998
-2.9062231 4.1429992 -0.57020187
-3.1444943 4.4826694 -0.570907
-3.4185936 4.873415 -0.57070112
-3.753438 5.3507562 -0.57182229
-4.1526251 5.9198217 -0.5721215
-4.6496468 6.6283565 -0.57292837
-5.2853642 7.5346107 -0.57443023
-6.120472 8.7251081 -0.57631403
-7.2714844 10.365947 -0.57919729
-8.9203234 12.716467 -0.58121097
-11.596477 16.531488 -0.58756346
-16.511059 23.537527 -0.59746927
-28.665478 40.864395 -0.62231618
-1.2353301 1.7157723 -0.56650198
-1.2866218 1.7870122 -0.57045162
-1.3197528 1.8330283 -0.56515145
-1.3696216 1.9022921 -0.56584775
-1.4256948 1.9801732 -0.56759554
-1.4796634 2.0551312 -0.56693798
-1.5377423 2.135798 -0.56626397
-1.605163 2.2294397 -0.56724435
-1.675518 2.3271573 -0.56730014
-1.7480794 2.4279389 -0.56607199
-1.8305066 2.5424235 -0.56583625
-1.9202541 2.6670754 -0.56541532
-2.0385475 2.8313754 -0.5704338
-2.1398256 2.9720423 -0.56756479
-2.2726657 3.1565464 -0.56973803
-2.4106843 3.3482428 -0.56935441
-2.5593419 3.5547159 -0.56740838
-2.7379048 3.8027253 -0.56743997
-2.9584856 4.1090937 -0.57049918
-3.1893871 4.4297972 -0.56912494
-3.4709826 4.82091 -0.56950766
-3.8166406 5.3010006 -0.57147729
-4.2274542 5.8715868 -0.57244039
-4.7337914 6.5748482 -0.57329136
-5.3691163 7.457262 -0.57352334
-6.2146287 8.631609 -0.57514232
-7.3946872 10.270614 -0.57890743
-9.0952568 12.632565 -0.58244383
-11.801101 16.39076 -0.58767486
-16.819437 23.360817 -0.59818834
-29.229975 40.598038 -0.62368631
-1.2552266 1.6989558 -0.56600302
-1.3053986 1.7668638 -0.56910092
-1.3366299 1.8091356 -0.56280977
-1.391578 1.8835081 -0.56530756
-1.4468952 1.9583803 -0.56640577
-1.5057746 2.0380738 -0.5672974
-1.5668416 2.1207285 -0.56733388
-1.6350784 2.2130873 -0.56815636
-1.7019209 2.3035588 -0.56660628
-1.7749624 2.402421 -0.56516844
-1.8695161 2.5304 -0.56823367
-1.9629828 2.6569076 -0.56833392
-2.0699811 2.8017302 -0.56954628
-2.1811962 2.9522605 -0.56886607
-2.3055396 3.1205599 -0.56831676
-2.4502416 3.3164148 -0.56902254
-2.6107388 3.5336485 -0.56912684
-2.7964923 3.7850671 -0.56989312
-3.0089695 4.0726562 -0.57053405
-3.2513714 4.4007483 -0.57048631
-3.5342762 4.7836618 -0.57019824
-3.8810258 5.2529888 -0.57140297
-4.2959499 5.8145905 -0.57199049
-4.8220081 6.5266132 -0.57421219
-5.4622107 7.3931308 -0.5737133
-6.3394895 8.580533 -0.57688957
-7.5251575 10.18534 -0.57927287
-9.2601681 12.533687 -0.58309078
-12.021043 16.270544 -0.58861995
-17.124577 23.178205 -0.59885907
-29.773523 40.298622 -0.62466365
-1.266716 1.6711177 -0.56187546
-1.322547 1.7447728 -0.56718075
-1.3632727 1.7985003 -0.56467354
-1.4187534 1.8716934 -0.56695473
-1.4677793 1.9363708 -0.56521749
-1.5366646 2.0272479 -0.56950057
-1.5891124 2.0964396 -0.56602085
-1.6647395 2.1962109 -0.56903601
-1.7273585 2.2788212 -0.56570327
-1.8164473 2.3963518 -0.56895214
-1.9021704 2.5094421 -0.56873685
-2.0045099 2.6444538 -0.57089931
-2.0880866 2.7547126 -0.56516516
-2.2194443 2.9280064 -0.5694083
-2.3401468 3.0872436 -0.56744683
-2.4864137 3.2802062 -0.56801283
-2.6530674 3.5000644 -0.56892914
-2.8363292 3.741833 -0.56859189
-3.0547528 4.0299888 -0.56977588
-3.3030415 4.3575439 -0.57010764
-3.5979049 4.7465434 -0.57100409
-3.9416552 5.2000365 -0.57087207
-4.3707542 5.7661266 -0.57246673
-4.9003844 6.4648423 -0.57403564
-5.572834 7.3519726 -0.57579356
-6.4452696 8.5029354 -0.57695729
-7.652194 10.095172 -0.5794524
-9.4168081 12.423143 -0.58329099
-12.228635 16.132652 -0.58902675
-17.426607 22.990088 -0.59948981
-30.325148 40.006516 -0.62586862
-1.2963043 1.6671672 -0.56586385
-1.3465009 1.7317246 -0.56827849
-1.3870457 1.783869 -0.56539202
-1.4461606 1.8598961 -0.56872475
-1.4949213 1.9226069 -0.56652272
-1.5544564 1.9991745 -0.5669409
-1.6197807 2.0831876 -0.56777757
-1.6856148 2.1678565 -0.5670169
-1.762278 2.2664523 -0.56796926
-1.8337491 2.3583708 -0.56524539
-1.9314419 2.4840126 -0.56831324
-2.019582 2.597369 -0.56605285
-2.1231391 2.7305532 -0.56552196
-2.2573123 2.9031122 -0.56992191
-2.3823373 3.063906 -0.56849873
-2.5295749 3.253267 -0.56869119
-2.7061427 3.4803495 -0.57109028
-2.8872883 3.7133195 -0.56961095
-3.1101456 3.9999344 -0.57089061
-3.3572965 4.3177934 -0.570265
-3.652849 4.6979012 -0.57051289
-4.0112362 5.1588206 -0.57171893
-4.441216 5.7118144 -0.57245314
-4.9757576 6.3992844 -0.57360393
-5.6603651 7.2797527 -0.57554507
-6.5435777 8.4156456 -0.57645053
-7.7778811 10.003074 -0.5796119
-9.581625 12.322854 -0.58406997
-12.421692 15.975443 -0.58881921
-17.710913 22.77787 -0.59958959
-30.875164 39.708313 -0.62709546
-1.3227013 1.6586214 -0.56844079
-1.3677607 1.7151244 -0.56830716
-1.4099456 1.7680227 -0.56582183
-1.4636625 1.8353819 -0.56668931
-1.5178608 1.9033446 -0.56630373
-1.5723655 1.9716917 -0.56458747
-1.6472349 2.0655754 -0.56845492
-1.7073723 2.1409855 -0.5654372
-1.7902356 2.2448933 -0.56804019
-1.8780509 2.3550105 -0.56993186
-1.9655678 2.4647536 -0.56939363
-2.0547929 2.5766387 -0.5669986
-2.1591003 2.7074368 -0.56619018
-2.2882431 2.8693774 -0.56878
-2.4213026 3.0362294 -0.5688448
-2.5755196 3.2296121 -0.57004911
-2.7299688 3.423286 -0.56719214
-2.9353426 3.6808174 -0.5701189
-3.1557572 3.9572096 -0.570288
-3.4165456 4.2842293 -0.57133752
-3.7233639 4.6689687 -0.57251608
-4.0833573 5.120388 -0.572981
-4.5082536 5.6531935 -0.57209063
-5.061141 6.3464952 -0.5744071
-5.7432542 7.2018409 -0.57492524
-6.6580319 8.3489408 -0.57744563
-7.907155 9.9152975 -0.5801158
-9.7299643 12.201037 -0.5839228
-12.63827 15.847951 -0.58980346
-18.023874 22.601313 -0.60073066
-31.413214 39.391079 -0.62813824
-1.3402286 1.6388499 -0.56726986
-1.3860372 1.6948653 -0.56719881
-1.4353033 1.7551087 -0.5672943
-1.483573 1.8141334 -0.56571853
-1.546399 1.890958 -0.56823295
-1.6036321 1.9609433 -0.56711328
-1.6691428 2.0410507 -0.56731123
-1.7383952 2.1257336 -0.56701177
-1.8140955 2.2183008 -0.56691301
-1.8980575 2.3209708 -0.56729943
-1.9801792 2.4213903 -0.56495839
-2.0925157 2.5587571 -0.56868279
-2.1990314 2.6890059 -0.56794769
-2.3242855 2.8421683 -0.56900889
-2.4670875 3.0167885 -0.57084298
-2.6153779 3.1981201 -0.57012391
-2.7794003 3.398689 -0.56873643
-2.9772327 3.6406012 -0.5695172
-3.1970778 3.9094307 -0.56902486
-3.4723239 4.2460055 -0.57189083
-3.7796564 4.6218157 -0.57238984
-4.133635 5.054666 -0.57127124
-4.5867558 5.608748 -0.57325721
-5.1354342 6.2796793 -0.57403171
-5.8351312 7.1352787 -0.57529604
-6.7590446 8.2650528 -0.57734835
-8.0354128 9.8258123 -0.58061731
-9.8812418 12.082919 -0.5840407
-12.842819 15.704376 -0.59029275
-18.313169 22.393595 -0.6011495
-31.958946 39.079838 -0.62939417
-1.3522648 1.6126909 -0.56392825
-1.4061624 1.6769685 -0.56695306
-1.4634732 1.7453166 -0.56990278
-1.5051546 1.7950251 -0.56548858
-1.5677134 1.8696318 -0.56757438
-1.6227514 1.9352694 -0.56541634
-1.6957841 2.022367 -0.56787097
-1.7605008 2.0995471 -0.56575841
-1.8469789 2.2026796 -0.56868196
-1.9284059 2.2997885 -0.56787491
-2.0231609 2.4127917 -0.56871367
-2.1152802 2.5226519 -0.56639647
-2.2391746 2.6704066 -0.56979173
-2.361352 2.8161135 -0.56956273
-2.5003939 2.9819329 -0.57002223
-2.6512904 3.1618898 -0.56943399
-2.8201373 3.3632541 -0.56856674
-3.0263896 3.6092277 -0.57038772
-3.2553465 3.8822782 -0.57085598
-3.5103943 4.1864443 -0.56963944
-3.8217945 4.5578156 -0.57024068
-4.2036967 5.013267 -0.57239109
-4.6529193 5.5490026 -0.57295519
-5.2111168 6.2147007 -0.573906
-5.9258409 7.06707 -0.5756281
-6.8648868 8.1869621 -0.57774639
-8.1602678 9.7318144 -0.58094829
-10.036387 11.969248 -0.58446735
-13.040778 15.552239 -0.59055698
-18.610527 22.194639 -0.60190642
-32.486557 38.742989 -0.630355
-1.3875355 1.6140236 -0.57031727
-1.4261626 1.6589558 -0.56674939
-1.4730097 1.7134497 -0.56536889
-1.5426562 1.7944647 -0.57124478
-1.5892656 1.848682 -0.56710428
-1.6537547 1.9236978 -0.56793392
-1.7166371 1.9968446 -0.56658876
-1.7988695 2.0924997 -0.56977683
-1.8714973 2.1769826 -0.56794602
-1.953209 2.2720323 -0.56690896
-2.0593762 2.395529 -0.57057041
-2.1591463 2.5115845 -0.56982958
-2.2657192 2.6355534 -0.56825668
-2.3823824 2.7712598 -0.56637311
-2.5272181 2.9397368 -0.56785363
-2.69117 3.130451 -0.56968862
-2.869107 3.3374326 -0.5701226
-3.0779922 3.5804141 -0.57177234
-3.3045206 3.843919 -0.57114726
-3.5707798 4.1536398 -0.57110709
-3.8830409 4.5168715 -0.57104868
-4.2715511 4.9687982 -0.57326758
-4.7297921 5.5018382 -0.57404709
-5.2956562 6.1600685 -0.57483089
-6.0123539 6.9937534 -0.5756346
-6.9649434 8.1018343 -0.57773918
-8.2702532 9.6202097 -0.58031285
-10.188838 11.851967 -0.58481407
-13.239121 15.400149 -0.59091884
-18.90077 21.985952 -0.60250425
-33.020096 38.409981 -0.63149542
-1.3885621 1.5756063 -0.56273323
-1.4483014 1.6433929 -0.56747383
-1.4947959 1.6961503 -0.56568295
-1.5559886 1.7655858 -0.56809938
-1.6066741 1.8230988 -0.56527406
-1.6810122 1.9074506 -0.56919676
-1.7362978 1.9701834 -0.56503916
-1.8132793 2.0575345 -0.56628448
-1.8922708 2.1471665 -0.56619495
-1.9720047 2.2376406 -0.56433547
-2.0671101 2.3455575 -0.5646795
-2.1819415 2.475857 -0.56776798
-2.294488 2.6035638 -0.56739974
-2.4268088 2.7537086 -0.56884187
-2.5663478 2.9120443 -0.56855708
-2.7301357 3.0978947 -0.56983024
-2.9103293 3.3023612 -0.57020169
-3.1171463 3.5370371 -0.57092315
-3.344275 3.7947609 -0.56991029
-3.6230049 4.1110368 -0.57133162
-3.947401 4.4791303 -0.57237053
-4.3309975 4.9143987 -0.57309234
-4.7884197 5.4334369 -0.57301039
-5.3752766 6.0993457 -0.57528889
-6.1024141 6.9244308 -0.57606149
-7.076077 8.0292501 -0.57872415
-8.4054489 9.537693 -0.58152604
-10.334533 11.726631 -0.58485585
-13.440538 15.251027 -0.59149379
-19.190344 21.775352 -0.603154
-33.557465 38.077778 -0.63277
-1.413039 1.5641801 -0.56481534
-1.4685969 1.6256808 -0.56755054
-1.526643 1.6899356 -0.56982791
-1.5834827 1.7528549 -0.57022512
-1.637128 1.8122383 -0.56810552
-1.6845602 1.8647438 -0.56259143
-1.7580426 1.9460862 -0.56428534
-1.8416694 2.0386579 -0.56727904
-1.9252839 2.1312158 -0.56818867
-2.0178361 2.2336676 -0.56954807
-2.1080937 2.3335793 -0.56799352
-2.2228642 2.4606259 -0.5705002
-2.3310306 2.5803621 -0.56854701
-2.4701171 2.7343254 -0.57106906
-2.5983284 2.8762503 -0.56776369
-2.7703738 3.0666981 -0.57031488
-2.9477389 3.2630346 -0.56962687
-3.1572876 3.494997 -0.57036084
-3.4031692 3.7671783 -0.57200933
-3.6795111 4.0730786 -0.57230103
-4.0003595 4.4282451 -0.57211077
-4.3934135 4.8633413 -0.57339489
-4.8589873 5.3787136 -0.573497
-5.4427533 6.0249205 -0.57453817
-6.1924777 6.8548365 -0.57656288
-7.1794662 7.9473953 -0.57914364
-8.519165 9.4303904 -0.58132684
-10.495117 11.617694 -0.58581483
-13.633749 15.09204 -0.59178489
-19.475134 21.558229 -0.60372752
-34.074333 37.718987 -0.63372254
-1.431236 1.5456851 -0.56444913
-1.4855998 1.6043961 -0.56645441
-1.5402392 1.6634048 -0.56722534
-1.6033576 1.7315704 -0.56967163
-1.654982 1.7873229 -0.56663167
-1.7323229 1.8708485 -0.5708167
-1.8004436 1.9444165 -0.57017756
-1.8688897 2.0183358 -0.56797594
-1.9568862 2.113369 -0.56980276
-2.0339694 2.1966162 -0.56643504
-2.1286423 2.2988596 -0.56587088
-2.2414591 2.4206979 -0.56759024
-2.3639951 2.5530324 -0.56888723
-2.4902382 2.6893704 -0.56803244
-2.6334238 2.8440061 -0.56774795
-2.8024673 3.026567 -0.56921726
-2.9897461 3.2288215 -0.57002896
-3.200038 3.4559298 -0.57036376
-3.4427075 3.7180045 -0.57092744
-3.7203388 4.0178366 -0.57092375
-4.0577059 4.3821812 -0.57256252
-4.4497271 4.8055501 -0.57298899
-4.9317698 5.3261395 -0.57431394
-5.5265994 5.9685349 -0.57559818
-6.2859578 6.7886157 -0.57745075
-7.2696357 7.8509536 -0.5785861
-8.6330185 9.3233595 -0.58122891
-10.633718 11.484046 -0.58562481
-13.820422 14.925575 -0.59187651
-19.756727 21.336578 -0.60427797
-34.596806 37.363346 -0.63484687
-1.4558816 1.5340277 -0.56668681
-1.5117016 1.592844 -0.5688957
-1.5540957 1.6375136 -0.56487024
-1.6218103 1.7088629 -0.56871897
-1.6766363 1.7666317 -0.56656522
-1.7491755 1.8430645 -0.56885904
-1.8181354 1.9157259 -0.56827724
-1.901323 2.0033786 -0.57030296
-1.9741434 2.0801079 -0.56733704
-2.0558338 2.166183 -0.56506336
-2.1664374 2.2827234 -0.56841344
-2.2622747 2.3837049 -0.56539619
-2.3930511 2.5215008 -0.56837511
-2.5258703 2.6614494 -0.56865227
-2.6709576 2.8143244 -0.56833613
-2.8359981 2.9882236 -0.56852156
-3.0255296 3.1879282 -0.56933451
-3.2432656 3.4173515 -0.5705356
-3.481838 3.6687298 -0.56989229
-3.7750204 3.977649 -0.57176608
-4.1169257 4.3379068 -0.5733487
-4.5078254 4.7497883 -0.57290614
-4.9919682 5.2599177 -0.57374889
-5.5946693 5.8949699 -0.5750947
-6.3633561 6.7049165 -0.57694328
-7.3615556 7.7566957 -0.57826698
-8.7536526 9.2235146 -0.58167082
-10.777371 11.35586 -0.58580166
-14.017287 14.769681 -0.59248477
-20.043077 21.118912 -0.60504764
-35.108589 36.993084 -0.63584292
-1.4720584 1.5133638 -0.56569731
-1.5189625 1.5615841 -0.56435931
-1.5755026 1.6197107 -0.56536913
-1.6381464 1.6841122 -0.56714278
-1.6947154 1.7422684 -0.56539226
-1.7611482 1.8105654 -0.56546956
-1.8510411 1.9029806 -0.5712052
-1.9184151 1.9722451 -0.56811243
-1.9966823 2.0527084 -0.56651765
-2.0985348 2.157419 -0.56946546
-2.1952505 2.2568486 -0.56864899
-2.3050089 2.3696864 -0.56875098
-2.4263616 2.4944444 -0.56895852
-2.5671957 2.6392303 -0.57060653
-2.7100024 2.7860441 -0.56931156
-2.8820179 2.9628861 -0.57040024
-3.0721352 3.1583383 -0.57075334
-3.2758398 3.3677588 -0.56893796
-3.531637 3.6307335 -0.57069272
-3.8195465 3.9267216 -0.57115358
-4.1678252 4.2847729 -0.57305634
-4.5674882 4.6956501 -0.57310718
-5.0588555 5.2008052 -0.57404292
-5.6661887 5.8251796 -0.57503986
-6.4476337 6.628552 -0.57715082
-7.4713645 7.6810083 -0.57942969
-8.8743601 9.1233721 -0.58219314
-10.929864 11.236552 -0.58653581
-14.215755 14.614643 -0.59323281
-20.305323 20.875082 -0.60516959
-35.626606 36.626274 -0.63701975
-1.5005752 1.505201 -0.56950027
-1.5415959 1.5463482 -0.56566107
-1.5941799 1.5990942 -0.56497258
-1.6584257 1.6635381 -0.56703889
-1.7206572 1.7259614 -0.56692362
-1.7885046 1.7940179 -0.56712717
-1.8619264 1.8676662 -0.56743449
-1.9471713 1.9531739 -0.56947285
-2.028121 2.034373 -0.56829709
-2.1185522 2.1250832 -0.56776351
-2.223156 2.2300093 -0.56873143
-2.328202 2.3353791 -0.56734514
-2.4617984 2.4693873 -0.57010478
-2.5922885 2.6002796 -0.56903398
-2.7373977 2.745836 -0.56793064
-2.9169025 2.9258945 -0.57014072
-3.1068814 3.1164589 -0.57004601
-3.3328555 3.3431296 -0.57165742
-3.5753613 3.5863829 -0.57058889
-3.8741174 3.8860602 -0.57212508
-4.2028866 4.2158427 -0.57070619
-4.6214018 4.6356478 -0.57267636
-5.1246257 5.1404233 -0.5742901
-5.739378 5.7570705 -0.57523972
-6.5298772 6.5500069 -0.57725948
-7.5737796 7.5971274 -0.58008361
-8.9804039 9.0080881 -0.58183926
-11.065213 11.099323 -0.58643067
-14.395494 14.439872 -0.593279
-20.59367 20.657154 -0.60614717
-36.140011 36.251419 -0.63818097
-1.5131344 1.4809264 -0.56731272
-1.574852 1.5413302 -0.57086617
-1.6281328 1.593477 -0.57001823
-1.674319 1.6386801 -0.56554067
-1.74002 1.7029825 -0.56636089
-1.8120316 1.7734613 -0.56762958
-1.882928 1.8428487 -0.56688601
-1.9650327 1.9232059 -0.5677374
-2.0567093 2.0129311 -0.56932908
-2.1402025 2.0946472 -0.56662017
-2.2526321 2.2046835 -0.5692938
-2.3502285 2.3002024 -0.56577742
-2.4848597 2.431968 -0.56847709
-2.6203089 2.5645339 -0.5682196
-2.7626874 2.703882 -0.56623667
-2.9442599 2.8815894 -0.56851918
-3.1413786 3.0745125 -0.56939596
-3.3710737 3.2993183 -0.57121086
-3.6235528 3.5464232 -0.57127708
-3.9287353 3.8451097 -0.57316524
-4.2691159 4.1782455 -0.57267964
-4.6922169 4.59234 -0.57441062
-5.1895089 5.0790472 -0.57451886
-5.8096728 5.6860104 -0.57523406
-6.605834 6.4652247 -0.57690269
-7.661078 7.4980073 -0.57966447
-9.1059618 8.9121361 -0.58282989
-11.209308 10.970711 -0.58687359
-14.593712 14.283075 -0.59416491
-20.866474 20.422319 -0.60673952
-36.645466 35.865444 -0.63927054
-1.5332304 1.4641211 -0.56805432
-1.5776759 1.5065632 -0.56513184
-1.6414778 1.5674893 -0.56789929
-1.701142 1.624464 -0.56781077
-1.753143 1.6741211 -0.56388921
-1.8324142 1.7498192 -0.56723148
-1.9059869 1.8200758 -0.56704736
-1.9883848 1.8987596 -0.56769562
-2.0715265 1.9781539 -0.56665456
-2.1648526 2.0672734 -0.56637347
-2.2835767 2.1806459 -0.57029444
-2.3868914 2.2793038 -0.56781334
-2.5141749 2.4008501 -0.56838673
-2.661289 2.5413332 -0.57028663
-2.8139548 2.6871176 -0.56992906
-2.9884193 2.853718 -0.57022721
-3.196137 3.052073 -0.57247543
-3.4180238 3.2639587 -0.57232237
-3.6696839 3.5042753 -0.57171327
-3.9767663 3.7975161 -0.57331663
-4.3152242 4.1207185 -0.57202441
-4.7442646 4.5304198 -0.57391912
-5.2508564 5.0141773 -0.57444119
-5.8838058 5.618597 -0.57568997
-6.6863408 6.3849583 -0.57703328
-7.7452574 7.3961449 -0.57910866
-9.2058544 8.7909069 -0.58226079
-11.344237 10.832904 -0.58691943
-14.776628 14.11058 -0.59450287
-21.137188 20.184443 -0.60734826
-37.144871 35.470589 -0.64032537
-1.5493788 1.4435393 -0.5674178
-1.6015272 1.4921254 -0.56706035
-1.6600198 1.5466223 -0.56769168
-1.7263106 1.6083847 -0.5695672
-1.7882507 1.6660936 -0.56854886
-1.8599882 1.7329307 -0.5691278
-1.9197595 1.788619 -0.56455886
-2.0169213 1.8791436 -0.56920278
-2.1121151 1.9678345 -0.57109505
-2.2028413 2.0523632 -0.56966656
-2.3055677 2.1480725 -0.56914699
-2.4218321 2.2563944 -0.56948191
-2.5521331 2.3777945 -0.57031494
-2.6878276 2.5042195 -0.56933188
-2.8369288 2.6431355 -0.56795651
-3.0301619 2.8231688 -0.57152492
-3.2212832 3.0012345 -0.57032627
-3.4405243 3.2054989 -0.56944692
-3.7015264 3.4486716 -0.57002437
-4.0194426 3.7448707 -0.57278711
-4.3689671 4.070519 -0.57247025
-4.7965074 4.468854 -0.57354814
-5.3123307 4.9494405 -0.57446492
-5.9600291 5.5528941 -0.57642347
-6.775435 6.3125987 -0.57797956
-7.85987 7.3229551 -0.58090156
-9.3246517 8.6876764 -0.58297372
-11.484356 10.699849 -0.58731723
-14.948023 13.926909 -0.59446371
-21.401373 19.939426 -0.60784829
-37.645863 35.074242 -0.64147842
-1.5685959 1.4258206 -0.56799185
-1.6263286 1.4782984 -0.56936252
-1.6707379 1.5186654 -0.56492811
-1.7436631 1.584953 -0.56881917
-1.8039273 1.6397319 -0.56707966
-1.8735647 1.7030308 -0.56683153
-1.9533839 1.7755848 -0.56798339
-2.0347283 1.849525 -0.56776696
-2.1139648 1.9215494 -0.56516361
-2.2242658 2.0218108 -0.56873482
-2.334125 2.1216705 -0.56971318
-2.4438677 2.2214241 -0.56819737
-2.5670896 2.3334301 -0.56720239
-2.7301474 2.4816463 -0.57178903
-2.870188 2.6089404 -0.56814945
-3.0697327 2.7903223 -0.5724737
-3.2526667 2.9566054 -0.56940287
-3.4827356 3.1657333 -0.56994736
-3.7564304 3.414516 -0.5719704
-4.0639415 3.694037 -0.57261205
-4.4332056 4.0296903 -0.57435137
-4.8588657 4.4166064 -0.57446724
-5.3699422 4.8811641 -0.57416093
-6.0238214 5.4755263 -0.57603776
-6.8500209 6.2265244 -0.57776713
-7.9366241 7.2142234 -0.57997411
-9.4305754 8.5721941 -0.58296192
-11.62716 10.568844 -0.58792973
-15.132028 13.754694 -0.5950101
-21.666636 19.694515 -0.6084581
-38.13625 34.665047 -0.64252263
-1.5712452 1.3933344 -0.56270468
-1.637794 1.4523479 -0.56708139
-1.6994371 1.5070112 -0.56832343
-1.763253 1.5636013 -0.56889462
-1.8232292 1.6167864 -0.56685483
-1.897904 1.6830058 -0.56789112
-1.9823582 1.7578974 -0.57007992
-2.0610104 1.8276438 -0.56878668
-2.1566272 1.912434 -0.57023919
-2.2489545 1.9943073 -0.56873423
-2.3457053 2.0801029 -0.56625384
-2.4841688 2.2028883 -0.57122624
-2.6122718 2.3164861 -0.57084864
-2.7465959 2.435601 -0.56891847
-2.921947 2.5910974 -0.57204497
-3.0913177 2.7412901 -0.57016975
-3.2995715 2.9259636 -0.57127231
-3.5222218 3.1234033 -0.57008088
-3.7860332 3.3573437 -0.57014877
-4.1001091 3.6358571 -0.57136554
-4.4720893 3.9657183 -0.57302791
-4.9026413 4.3475189 -0.57327902
-5.4337339 4.8184762 -0.57460308
-6.0886192 5.3992095 -0.5758419
-6.9201407 6.1365786 -0.57727319
-8.0220718 7.1137385 -0.57978219
-9.5413561 8.4609957 -0.58333451
-11.756791 10.425579 -0.58795774
-15.310209 13.576646 -0.59540695
-21.92868 19.445713 -0.609056
-38.622368 34.249187 -0.64356863
-1.5910658 1.3763384 -0.56369936
-1.6531901 1.4300785 -0.56628072
-1.7240804 1.4914016 -0.57038856
-1.769958 1.5310876 -0.56494087
-1.8510464 1.6012325 -0.56933874
-1.9144547 1.6560833 -0.56670725
-2.001955 1.7317747 -0.56954855
-2.0845931 1.80326 -0.56913251
-2.1771295 1.8833081 -0.56949395
-2.276777 1.9695072 -0.56960273
-2.3772931 2.0564578 -0.56773186
-2.5048018 2.1667581 -0.56980109
-2.627248 2.2726793 -0.56797153
-2.7797096 2.4045649 -0.56960994
-2.9396734 2.5429401 -0.56935054
-3.1187279 2.69783 -0.56906372
-3.3329487 2.8831398 -0.57086986
-3.5683577 3.0867784 -0.57136154
-3.8450208 3.3261037 -0.57282943
-4.1476054 3.587852 -0.57179308
-4.5128965 3.9038439 -0.57206255
-4.9620934 4.292418 -0.57401562
-5.4959612 4.7542357 -0.57495797
-6.1577792 5.326736 -0.57614446
-7.0078282 6.0620642 -0.57832605
-8.1189384 7.0232205 -0.58049756
-9.6474619 8.345458 -0.58350348
-11.896059 10.290588 -0.58854985
-15.482244 13.392788 -0.59564781
-22.190361 19.195589 -0.60972214
-39.089119 33.813721 -0.64436913
-1.610075 1.3585331 -0.56447297
-1.6710376 1.4099716 -0.56641251
-1.7382166 1.4666554 -0.5690558
-1.7915552 1.5116608 -0.56585854
-1.8686403 1.576703 -0.56874394
-1.9382244 1.6354159 -0.56774771
-2.0140841 1.6994239 -0.56701124
-2.1019661 1.7735764 -0.5678786
-2.1920447 1.8495818 -0.56740338
-2.2911146 1.9331741 -0.56719971
-2.4079206 2.0317316 -0.56903678
-2.52898 2.1338778 -0.56928921
-2.6585066 2.2431686 -0.56872308
-2.8059273 2.3675575 -0.56897366
-2.9774654 2.5122964 -0.57064372
-3.1598206 2.6661623 -0.57053655
-3.3675759 2.84146 -0.57077312
-3.6056993 3.0423815 -0.5713073
-3.8858049 3.2787261 -0.57285571
-4.1903582 3.5356991 -0.57165003
-4.5681086 3.8544335 -0.57301003
-5.0114312 4.2284961 -0.57366484
-5.5576901 4.6894131 -0.57533985
-6.2265797 5.2538018 -0.57649362
-7.0761738 5.970664 -0.57786375
-8.2053051 6.9233918 -0.58054191
-9.760026 8.235218 -0.58414274
-12.023354 10.144947 -0.58863139
-15.663079 13.216039 -0.59630769
-22.433281 18.928534 -0.60995531
-39.572762 33.390316 -0.64552468
-1.6329938 1.3438483 -0.56667191
-1.6973035 1.3967712 -0.5694508
-1.7506003 1.440631 -0.56726766
-1.8069475 1.4870011 -0.56490225
-1.8841034 1.5504954 -0.56760454
-1.9504181 1.6050681 -0.56549543
-2.0345569 1.6743089 -0.56693596
-2.1202497 1.7448286 -0.56697881
-2.2214501 1.82811 -0.56915313
-2.3136997 1.9040254 -0.56695199
-2.423672 1.9945254 -0.5669204
-2.5598485 2.10659 -0.57036376
-2.6964235 2.2189825 -0.5709542
-2.8387465 2.3361051 -0.56976068
